ply
format ascii 1.0
element vertex 687
property float x
property float y
property float z
property uchar diffuse_red
property uchar diffuse_green
property uchar diffuse_blue
end_header
0.1657461837671545 0.22208720131796467 -0.13840048607659097 89 45 17
0.08854277713680525 0.21808858373001702 -0.5421015056091877 68 37 19
0.021444640743178266 0.22802033429748383 -0.6046619481731329 79 39 14
0.22454750708553842 0.13799149097841318 -0.9880355669256092 103 86 74
-0.037594239959742995 0.1678482337215658 -0.6098484382197257 101 74 55
0.15412414350186218 0.3355489956263272 -1.0017392952731239 98 67 48
-0.013445708339657775 0.18631477228023005 -0.6836777322400293 70 36 11
0.08628518928280239 0.08835838038903476 -0.7458322392251282 72 40 23
0.23955734778977666 0.09711680641547839 -1.0474255020894059 97 70 46
-0.03921622920865746 0.2824885360396576 -0.17875139975750887 89 72 62
-0.1445247656106213 0.09455657097986639 -0.9919905858067493 107 92 85
-0.09868322457826423 0.0820946988630997 -0.8685195563225913 73 54 39
-0.04804898995817536 0.3001133404084476 -0.14785602947463924 77 49 31
0.03848149842488613 0.2665745583975956 -0.2799961558263562 59 33 18
0.0518823914937711 0.2601860649619114 -0.36504313558887375 21 8 0
0.007397255415512171 0.08577914994996967 -0.6685047224416203 54 22 9
0.09650467750184995 0.19833116627776404 -0.48757950333272965 52 24 11
-0.112316639794751 0.2242705976632694 -0.1177649759777994 158 130 117
-0.04473985443965952 0.25478060642189854 -0.3088874759605222 90 64 49
0.019129585663964027 0.30739403220849126 -0.42940318446950265 111 78 53
0.083091963640559 0.3161037682428342 -0.9687123421606488 79 55 43
-0.05075975906208255 0.2779732980130413 -0.9471224247382523 85 49 25
0.019938037712603864 0.30420742020757113 -0.9080028547831565 63 34 16
0.25089498648563086 0.22526296727737352 -1.1284254944720051 90 57 34
0.09624377317681077 0.20621019274459412 -0.5742877465210746 64 33 13
0.04798780224997581 0.07281004600479073 -0.020161280950050472 46 17 5
0.1011494691797685 0.07881174772690973 -0.33639697836528687 22 11 7
0.1132944924397393 -0.03909311247015818 -1.1118535649493562 81 45 16
0.10279427154760773 0.19979333095767393 -0.4801487119829352 56 30 13
-0.05963491178403081 0.05836458148036634 -0.401347482694225 82 61 48
0.0030796980844941474 0.19933232304346415 -0.46638555151483596 79 48 30
0.14023928614674547 0.333588457175307 -0.9908367405501927 77 55 42
-0.1004508085293618 0.22945044417769545 -0.8358605703695219 74 34 9
-0.17802036916840053 0.2165092892729438 -1.043707358894667 85 56 30
0.08152818827428016 0.09781070431598285 -0.5259910629252633 67 34 15
-0.03829391860726084 0.1385715699204259 -0.6789188561025263 54 25 9
-0.13733377012303613 0.19053706720413782 -0.9801868148840868 101 78 62
0.07393517963686821 0.010285115332258322 -0.9609913973655289 84 66 54
-0.07285183494991757 0.35581812069240526 -1.1140391285802442 95 60 30
0.10343290038297018 0.13512889861739444 -0.554157502762912 72 38 13
0.1268324148664615 0.23276400131723263 -0.09985709653969062 79 50 43
-0.04354314032185096 0.2426893572937482 -0.39333772319200977 92 72 61
-0.09916561547952406 0.24368393554956508 -0.9685113395866731 97 75 63
0.028135168807243364 0.4078555323372847 -0.977565789165045 91 57 37
0.06015373433163672 0.12614111856772228 -0.05901729977378536 39 19 9
-0.08086968216636842 0.030141457964845995 -0.14688018097127092 55 38 28
0.14146617949813708 0.12064923494792704 -0.8242084154318466 57 29 15
-0.10866063063295034 0.3110134408941624 -0.9957975476953302 98 63 41
-0.05384418645159714 0.20038835591556434 -0.29173357112286563 63 50 41
-0.1671418046056796 0.22117681741689413 -1.0893588782056598 59 34 22
0.22203509510825228 0.1817962528250851 -1.156047183794286 114 84 62
0.14731801929445235 0.3101680578925382 -0.7882507075793018 59 27 12
0.19863464968049874 0.045563793443721426 -0.9995948996400932 96 74 61
0.1099271302034615 0.3045074496957606 -0.13584786659002432 76 38 15
-0.041200479555154 0.2971650882291305 -0.8433907865049173 82 44 21
0.0928406859925266 0.24576247859753295 -0.3073948729196912 64 49 40
-0.012531999783539558 0.33036674768973917 -0.14262323179928071 64 31 14
0.05871814801753651 0.08967255769688418 0.07940492591394213 65 29 7
0.20838248027837056 0.058950320750945535 -1.0924617353418706 44 22 9
0.20771680505031506 0.24784064391787386 -0.9904220559593926 95 70 61
7.808146414550103e-05 0.23910566567927974 -0.708070008179843 65 30 8
0.07679407585735912 0.20866055384111196 -0.49183805458541063 68 41 24
0.01819528145867293 0.24722023460901557 -0.716793309569921 65 31 12
0.09154035486712031 0.16230265726280657 0.09895854229522284 70 33 10
-0.11219779744712349 0.18562792342955076 -0.9116774684748238 74 51 37
-0.05425475882755377 0.2792715672669741 -0.22245960931677505 65 45 34
-0.09742335990732959 0.3233619575899728 -1.0169071377622074 105 60 21
0.08973676077296519 0.3141404478648846 -0.13902323896076735 75 43 22
-0.05784255957215899 0.14190544280315956 -0.7298030707034746 47 19 7
0.007710038849111712 0.22933419128033875 0.0850108532344417 117 87 66
0.1450755765176966 0.3505982486875707 -1.0406417146125524 120 89 71
0.1337188977115755 0.04126938122091094 -0.8279472504086052 63 34 16
-0.021411934684740012 0.20717064967496154 -0.5862505138532585 86 49 22
-0.02939159586072936 0.19961486191611497 -0.6418989530695346 76 39 12
-0.1824573206504332 0.14853322652335413 -1.0241021059228426 65 33 10
0.09431645995848693 0.1729195302358441 0.09112208450648496 98 68 42
0.09528324749020187 0.3690391696712696 -1.0280034761181593 85 44 16
0.14179810988035557 0.04827130662971453 -0.8634642630279593 83 56 39
0.23957486791616872 0.14397120107971284 -1.106082492818588 78 51 35
0.09729698714445567 0.07197368212544589 -0.2637305780154116 55 36 29
-0.0949739270463376 0.2470657305932658 -0.42813678601537786 79 41 20
0.19273279668616514 0.2633601327289369 -0.9794136272886622 99 82 74
-0.06075882046612393 0.0984565451922753 -0.005577152882050582 44 21 12
0.10986412270468916 0.10959160993551838 -0.7247940199562002 55 28 11
-0.03879464021420915 0.050138399170324394 0.009747514499505734 108 79 63
0.011166811647399787 -0.020589733889286876 -0.9780022673458337 92 75 67
0.1871379005710552 0.14395047892246177 -0.8829550403854807 110 90 81
0.11378281611427066 0.09251359560656931 -0.07489500376879518 111 91 77
0.18698957414949774 0.17896421793392936 -0.8929792972996334 88 57 37
-0.18111791533306507 0.19928213300055006 -1.0737454585795982 84 58 41
0.0008447786013138875 0.2559418902733607 0.024778734365206886 101 67 40
0.10341808590239586 -0.0013714161808247602 -0.9749127063904076 92 77 70
-0.045636038297565296 0.15486518970062962 -0.7130458189647754 52 23 9
0.054628425727974626 0.08284210974186491 -0.6104396704846294 92 58 30
0.1824316674159399 0.05144651967629618 -1.1117910849321389 50 28 17
0.15289289918765545 0.10293776549997513 -0.20039985746690114 72 55 47
-0.02446173447221197 0.05239142938350051 -0.09660717546577273 45 26 19
0.038809097954302894 0.05413643664068515 -0.020013273438275057 60 32 12
0.18191157641490108 0.16638303081017794 -0.11230075650761209 125 99 83
0.01004967215138133 0.06593315027964512 -0.7683209851193545 80 51 34
0.08199247558143336 0.021724492709572562 -0.9366525470827097 61 32 14
0.22121264586699174 0.11884791053678262 -0.9858517861294039 93 75 69
0.09666412485655489 0.21765709036728628 -0.6612260188082566 68 39 25
-0.0003802551834262846 0.3024795033863545 -0.41550115827262996 89 55 33
0.021260623089479833 0.2681309585716246 -0.764132525515467 80 49 28
0.10378286870822467 0.11324613696453856 -0.7435096274779112 72 41 23
-0.03963073373569823 0.19557825431812662 -0.5758304547694147 67 34 15
0.16223364479526597 0.0952675162213708 -0.840498679500533 87 63 53
-0.027829242746241916 0.01805234498667668 -0.8947123479681072 66 42 31
0.036119049503664236 0.384529357841491 -1.1259382504537692 91 56 34
0.12696321889097129 0.15434684875269117 -0.3647716953659796 18 7 3
0.1099433921758211 0.2666055160652557 -0.2685607403735127 79 52 35
-0.17911365570096394 0.21404436581689695 -1.027917269664618 92 53 24
-0.008961807194965954 0.22091698956921624 -0.5463505693123408 100 65 36
-0.029817298706264976 0.19762902326739343 -0.552969754733772 67 32 13
0.20180471956478666 0.3124027348727058 -1.1281973098455915 98 72 49
0.05410342080101965 0.08856592565384697 0.07667510913861303 86 50 28
0.10721330165542282 0.18410408699422137 -0.6350406275180819 73 43 25
0.02472744136451226 0.17214137965019208 -0.33731813896186225 40 17 11
0.02400304667200808 0.37828176390980234 -1.0701527439209597 96 70 46
-0.02289904044972857 0.35775897725901173 -0.9993989523606978 89 60 44
0.12488954957343282 0.12837495448639263 -0.7240045331788599 48 20 8
0.11979175934585412 0.2835980590639287 -0.8919064617859437 84 55 37
-0.03330409197909787 0.20159546987725652 -0.5911220298931437 75 43 21
0.20807858926034978 0.2960039593730898 -1.013042073881154 80 36 7
-0.12800484197091214 0.15886589080048968 -0.8703196147259806 78 55 39
-0.01712733123683273 0.2357158630878579 -0.23803296889625714 71 47 35
-0.03618881267437638 0.08751638457577264 -0.7458850496750438 57 28 12
0.12080519908750142 0.2438548260887473 -0.008796441992829604 186 184 183
-0.015381727798187061 0.07505959259966852 -0.2955979703793564 53 33 26
0.017542178996083815 0.25455859188976654 -0.01562673146927683 92 55 28
-0.0636995391370616 0.2796259879828016 -1.0139916391624042 92 65 46
0.08222818539927701 -0.05371417898557594 -1.1496606562079779 76 56 42
0.09905771765426452 0.0027753293361363505 -0.9716639652609769 89 74 67
-0.001996894601607445 0.2422077785959219 0.05796427407426727 60 23 3
-0.020869169833134936 0.3038116481132742 -0.4265921647380374 78 38 13
-0.04596502786759869 0.11416918237868848 -0.7492232208283475 52 24 10
0.026298648552192966 0.025568381493512586 -0.743110567751085 67 35 14
-0.08511384937738624 0.2519944762686873 -0.4339748499288641 85 50 30
-0.052598144374193696 0.05297889451697669 -0.9134641803549497 58 35 21
0.060320585706604486 0.05442380437849569 -0.09342482466567839 64 35 24
-0.03771661437383375 0.29525978278507187 -0.8444858743135436 77 39 18
-0.0453750217597667 0.36329521446879315 -1.052729695775802 107 75 50
0.0015434402394245285 0.17939559554577808 -0.04727972926412713 49 20 6
0.08534326012428413 0.3017299923945949 -0.901714727157569 71 40 20
-0.0668955197912536 0.27175020674642625 -0.11537513394475829 114 82 61
0.08662665025994211 0.02450340342500305 -0.16819559734206677 65 46 40
0.06518723940017486 0.07353713247523354 -0.30272315992047466 34 17 10
0.15836199086885916 0.3416829009686758 -1.0288524138467499 70 32 9
-0.13044092207400892 0.16704504866944164 -0.9739717595778957 108 91 81
0.14722322304525523 0.18214470591567072 -0.25546200966890087 78 56 42
0.11832049104900164 0.2364952860738315 -0.036807681748222146 65 39 29
-0.06873564652702309 0.278006067478218 -0.8543970759488173 104 73 45
0.13641054457387725 0.13475778973463093 -0.08380509678036434 69 43 28
0.16244600044044163 0.2392981951177229 -0.8251097188244552 55 26 15
0.23289642504893168 0.23444110778040303 -1.091664717763449 44 20 11
0.08809321130966985 0.036341612329511705 -0.9355915994858435 91 62 39
-0.12015462860825528 0.32446211447039813 -1.0701256838280144 68 44 34
0.17712971770252572 0.11751778952810658 -0.42941748356922643 75 41 20
-0.1895426769959372 0.0830812946476526 -1.028538211885691 70 47 33
0.12178694431495352 0.31423717969243403 -0.9773963745157698 82 62 53
0.04844688585686497 0.07434542258390933 -0.7760561168292086 58 29 13
-0.07013203757922501 0.16398167334180505 -0.2988726780105153 49 34 29
0.23165403494452277 0.21371912945205954 -0.979262672980317 116 93 83
0.14163613099743358 0.18521381171256882 -0.3171403988156263 88 60 38
0.1048247492172123 0.2892183349810189 -0.40860358292020477 112 90 76
0.04534091409293488 0.08246438856839321 -0.6774445813666515 63 32 12
0.07117832225584726 0.09590230844163546 -0.6647701245794839 62 31 11
0.15247474386546284 0.2554814587691123 -0.9100272891795523 89 58 34
0.1047534669353215 0.138017334528658 -0.5938766511759799 83 49 23
0.14146063340726697 0.10957309990683888 -0.791903559493265 49 20 7
0.12385296673769605 0.07662685839065084 -0.3063641658724632 100 78 64
0.09412835686464793 -0.04770136512649113 -1.1163977423235443 107 79 58
-0.1055781511164487 0.27380125065732 -0.9731119656110104 97 77 68
-0.08651509811102301 0.13733155594918187 -0.3182036835958855 43 25 15
0.05326043311194201 0.08695970139540556 -0.6385036305282944 73 36 10
-0.012372609740414924 0.31693072794027116 -0.12324866031407257 101 68 47
0.01795536909093051 0.06788973513162208 -0.7752960225349541 69 40 22
-0.031185510755755753 0.1663116739290279 -0.5847642374105744 80 53 26
0.19538486299440708 0.2809214928880901 -0.9970721742729745 92 64 52
0.01837078980706855 0.03601307395395432 -0.8263181080605035 65 30 11
0.11146629129795635 0.21148317197349759 0.011224674277144277 97 63 36
0.014583902760987635 0.3801786720384272 -1.0521711393279636 117 86 58
0.05512946549572527 0.27954676309645515 -0.8125583652141499 53 21 6
0.03371112715128853 0.05690320488841121 0.01112422439268692 99 73 58
0.05232339192148896 0.07840360307201043 -0.7165544125862426 73 44 26
-0.04145072220493457 0.1027752845907849 -0.3660829948070005 29 16 10
0.06337074540115553 0.09558314124830525 -0.5400381029652364 76 42 18
0.027384087193729426 0.25606730909739206 -0.7286901772700528 65 32 13
0.14725155797858921 0.246068424259333 -0.828012903725354 49 21 10
-0.008263945344949149 0.21222266790588684 -0.024019482064330088 90 62 43
0.17228032555820658 0.2682927658834567 -0.964050071475317 80 65 58
0.06379303654163895 0.24559706563560804 -0.7188715816531003 75 44 25
0.24361604590263877 0.143144737738818 -1.088152725160334 51 27 17
0.18579847944494646 0.26299054781319936 -0.969317901192832 96 78 74
0.017652003805668656 0.2711470059951151 0.0312541728584921 138 98 68
-0.003021609280090808 0.22323250523548852 -0.6091871075289103 89 50 19
0.20948318757918757 0.036185384811140434 -1.1283463507795937 116 88 64
-0.01521045732569707 0.18578563139310889 -0.7479386608117666 66 31 11
0.11153999164224153 0.04272278336788444 -0.8220894881149691 57 28 12
-0.02053930397308143 0.10655239424110097 -0.6158761515334009 72 39 22
0.23368793753308373 0.199950873229387 -1.0470577382354014 110 75 45
0.07249560449031599 0.12805166078749072 0.04413133262609268 57 26 8
0.08442233651772152 0.10813231163889377 -0.5750879907181798 89 55 28
-0.04226104281546738 0.23686765175886004 -0.8015791897296692 58 25 10
0.11214849401799744 0.04850211379213876 -0.10743885824506406 106 78 66
0.18786818316740533 0.1738392420148378 -0.8371080900711967 92 73 68
0.16758313318369714 0.3383823451049443 -1.0431880567721916 97 66 46
-0.022245221951545924 0.3021230701973931 -0.8442555545123845 86 45 20
-0.1910284173457692 0.15211298195064432 -1.1291905149645005 104 84 69
0.049654620348764784 0.17566762417033666 -0.5636693582581582 55 26 10
-0.07597106684043621 0.22904473087727445 -0.8432974353748746 87 59 47
-0.0721853727037156 0.2137912486587863 -0.2551386948307528 186 185 186
0.015822194332999407 0.24772554823934223 0.07876850466980892 94 66 44
-0.059577748264062244 0.35546725693595954 -1.019036402850252 83 40 8
0.03588693014797925 0.3337436315785211 -0.979940821538255 98 79 72
-0.06588925420025324 0.034213969846318484 -0.9548912731355567 80 58 44
0.09786564023095473 0.21928877310378234 -0.7129697248845135 71 42 28
0.1084583603049902 0.06871943017099985 -0.10571523820343033 100 77 69
-0.022597131847860562 0.2481845553106627 -0.2904460834838733 65 37 23
0.0981744490449621 0.180694129036099 -0.5791155658928039 95 67 48
0.12039909737185445 0.12623995830432236 -0.763773685409185 70 44 31
-0.012563876013913917 0.19327777560725487 0.10040368959730754 142 119 105
0.02648961397263342 -0.006403552273340344 -0.9753612998706215 83 66 58
0.24694932911223813 0.21171534201435105 -1.102955641858656 75 42 24
-0.15834689574448385 0.28384970645663693 -1.1123677586218403 91 57 32
0.19404911214788684 0.14539206276930092 -0.14506340477363347 84 60 45
0.0821798387808997 0.31205980755367024 -0.8571343801707292 100 65 37
0.10772937835327659 0.04144686552110253 -0.44107096768578824 81 54 37
0.09906757601586091 0.14960463703785318 -0.6184661181117174 80 44 18
0.06394868609448258 0.06494048250065262 -0.30134459733811 40 21 14
0.06631295293849283 0.14526708367922003 -0.3226946836641516 85 66 56
-0.011052806648386525 0.2203133562406376 -0.5459538484010156 72 40 19
0.06943000326424727 0.12200628038426946 -0.04544729467789699 74 52 39
0.1457147346325534 0.039251717193382586 -0.9768733808026404 86 67 58
0.08849907934896772 0.12652945611484578 -0.06255714184123913 71 50 38
0.02739890129753296 0.27900892190524756 -0.27248979150201896 63 37 22
0.0869478287589642 0.022597043554290333 -0.8778872921670934 89 66 50
-0.07308405928494062 0.34753922956882133 -1.101671055977405 68 33 14
-0.025644520347810097 0.2812540069953408 -0.9127822283796746 59 33 18
0.16202660974666927 0.0063659367861663855 -0.9915598837636577 75 55 44
-0.02333343456465329 0.24153061016281024 -0.4277911574681591 86 57 49
0.24638815443688536 0.26671132121850544 -1.0468716158665492 117 86 64
0.1560915019744974 0.0984064760312992 -0.823270123857889 54 25 11
-0.06277939704930686 0.056408867148542756 -0.9261616408964539 77 50 36
0.187502579088141 0.14949315154808296 -0.11018751713723465 111 78 61
0.1556990452671224 0.11231303471106595 -0.8127148692669108 49 20 6
-0.17925998566042325 0.12033242355178779 -1.1043609651524604 42 27 18
-0.06090611229712447 0.18637865157728653 -0.7771862138567518 72 49 35
0.2114265788430916 0.04575602380155097 -1.128302065730663 98 64 36
0.24511475749772396 0.19703480780359175 -1.012180702206736 78 41 15
0.10010330286722456 0.12409044170189908 -0.6503150173319721 92 64 43
-0.10938052453432194 0.12786761964774324 -0.8924807255721975 55 37 25
0.01094102037399484 0.23070253848456085 -0.6062293047365966 98 57 27
0.012822788612293605 0.38360270606368657 -1.1179186513997779 92 60 37
0.10547659923502274 0.1632906916985111 -0.5670967817000286 74 43 24
0.005387739202240637 0.028021220020313802 -0.09945882950897723 56 30 22
-0.012326071187649917 0.19359078011012024 -0.7735994372195039 56 29 12
0.1440638346535367 0.16822316196706769 -0.31496346554410437 74 37 18
0.12014815917765322 0.0462378722945249 -0.8239341592200617 65 33 18
-0.041965857813875344 0.16940703462504764 -0.6417286028906612 88 57 29
0.05655207482715845 0.09608460442709177 -0.4764660191227104 62 35 18
0.08264115286755588 0.22235711645726 -0.507418891274021 54 26 14
-0.007642243925855918 0.2617734563661233 -0.392115795707755 98 80 76
0.037681750802921285 0.06882841977666018 -0.748878647034748 63 30 11
-0.030438021342068015 0.1662017284872364 0.08367150817099421 72 40 19
-0.0252641028845682 0.2004475088576989 -0.053966998980111335 98 72 57
0.11948764162516579 0.27797545883130076 -0.9203379241912139 98 68 42
0.05415839623676015 0.044754217504504874 -0.1002023529332175 65 41 34
0.11187435193253832 0.0819005202749678 -0.759173138876719 56 27 11
-0.09333798929153185 -0.0158471941795937 -1.0973859439698954 65 48 40
0.1320617999427999 0.2706551897779303 -0.8279022134909174 49 22 10
-0.036400386050693394 0.06501487862117755 -0.7820785011370405 60 27 10
-0.04491589844111535 0.15804586677097074 -0.6847094511957567 71 40 19
0.09668968797262002 -0.029086992961402245 -1.1124445168593857 66 37 21
-0.16465302712532381 0.25638568305635256 -1.0419848438208796 91 59 34
0.010383611360258983 0.23297927608599348 -0.6039081039634161 88 48 22
0.06018641604519309 0.22780953471242243 -0.6341040575969387 86 46 22
-0.03616534539612102 0.2312339363798419 -0.556275404374736 91 64 42
0.11638831765090922 0.17257163065302475 -0.6305046640711001 65 33 18
-0.037226288742621114 0.15272565600068855 -0.04762189344722395 59 34 17
0.04725076742030732 0.24026635254013143 -0.800088385470144 57 26 8
0.10111367516136803 0.1317466507659197 -0.5338725337470358 89 57 32
0.12101984894189352 0.1335623152309072 -0.31542381491968674 101 78 64
0.09821342219111982 0.05181806204920078 -0.8065988882272808 86 63 49
-0.02851607888637767 0.3737588885093673 -1.12478666887657 113 79 51
-0.14171394823901956 0.012455364301054693 -1.0960165785386187 71 49 38
0.0031042942170623313 0.30253806843891207 -0.43996047708964253 82 55 34
0.06183436308572928 0.24926305245226024 -0.3653947766853023 22 10 6
-0.13353123611947681 0.02203292981023783 -1.0223560170802461 68 36 14
0.08672042275337292 0.12617381763924007 -0.5643454766528816 91 56 27
-0.004071484711203649 0.010894056498438874 -0.15361581270928448 68 50 40
0.06639674003526147 0.22509115461200407 -0.5842606302139721 67 32 10
0.02819493069758829 0.04395814498892658 0.026605676081894396 96 62 35
0.11949546093205418 0.13289513033231706 -0.7095688461106742 68 37 19
0.22869606961757524 0.24561098785711943 -1.000542494259813 107 62 28
-0.0281117273449357 0.04214655079750081 -0.9705403666930884 95 75 66
0.03940601845901477 0.063041363203169 0.02462819175290811 49 17 4
-0.0122970178987874 0.133858957373641 0.10579104947472101 135 113 101
0.03897510809078077 0.025070019711027677 -0.7192672729606698 68 35 15
0.12112700070912186 0.12467590164811215 -0.7425575802118562 83 55 43
0.2452523227087845 0.2392106858482157 -1.0268503811601393 106 67 38
0.06401065793722761 0.03993160884174076 -0.5246186969244184 66 35 17
0.10645386131072779 0.18208066786363492 -0.5381704219808274 69 40 24
0.06922075429852044 0.10031860007456657 -0.35564202612050566 41 21 13
0.19706858854589646 0.03168145369820893 -1.0077552462359478 71 35 13
0.21126495895553837 0.03844771020516404 -1.045360145643283 97 70 43
-0.07368997052954288 -0.025759576929428315 -1.100075251155747 59 39 29
0.12746732300563715 0.13252102454096015 -0.2823029057946555 48 28 19
-0.1687589611746946 0.26153850099182185 -0.5877044984974887 62 31 12
0.23499648421702843 0.07608495794408363 -1.098220607919205 63 36 19
-0.024439650317248957 0.10500824938703429 0.07095225566743407 57 25 10
0.036615396474802935 0.37629115776353844 -1.016485566841871 79 40 11
0.16234968063687905 0.25497295176756973 -0.8552486607161186 96 61 39
0.07889001409241375 0.12196643112238768 -0.031862922979202624 70 41 27
-0.028805681505983807 0.17573860750719933 -0.04387535451342565 51 25 10
-0.19469338347850082 0.14554551370581545 -0.987597169239629 61 33 19
0.17083381866337363 0.14988924864669448 -0.8536472032125692 94 66 51
-0.06437634819888675 -0.022060283498172486 -1.1135929444969865 48 29 22
-0.0004914808127052512 -0.022576974210197213 -1.010675873499995 66 35 21
0.23011080101427053 0.25789753391099635 -1.0168918088722292 65 26 8
0.16525154778270298 -0.0011239692176661807 -1.0147960962026163 60 24 7
0.022689519139789383 0.2820076564011171 -0.00240734379312926 103 66 37
-0.03319906733182133 0.18153383546797217 -0.4761776017975637 67 39 21
0.00390856151687234 0.312541933568008 -0.14399124437957447 76 47 31
0.04587277830615524 0.2828681101405391 -0.7907702276386842 55 23 10
-0.07174270105394809 0.2579217620578491 -0.11320929952591911 97 62 40
-0.004152098860943846 0.0010756765049667319 -0.13398850360678072 102 70 48
0.013865775608454341 0.013072534256335262 -0.8160186343632387 68 31 12
0.09634349546723012 0.052546084469171535 -0.7912171541517273 74 51 35
0.006768403116862358 0.22837042183426332 -0.5469784410206379 80 48 25
0.015843897032444418 0.1374122936226031 -0.5838636010163503 49 25 13
0.07378786852462711 0.13084238580650037 0.05202719020455717 104 72 47
-0.037429980324234384 0.1360456009646007 -0.5068614652162806 47 25 12
0.09588231091349929 0.21691585764503357 -0.6654478745924074 46 18 6
0.048003756690321045 0.07208038104101876 -0.01636096095316337 88 60 42
0.0033576702236942776 0.11660579231069146 -0.5484883402890588 65 38 22
-0.024469840454581917 0.18771693269194523 -0.3707714144470863 85 59 44
0.11503157514486366 0.2846148655631732 -0.30119258148372124 79 52 40
0.1502311776441669 0.1377714285168326 -0.20672924153029779 82 67 60
0.001136101335166906 -0.05192920467694196 -1.0974435871779682 45 25 17
0.10265926425372476 0.13233959937856088 -0.473547352104958 77 46 26
0.19236855972662187 0.2011799676245712 -0.9993965296103324 80 60 51
-0.01269903950067029 0.26598235749483573 -0.3121183712814324 63 26 8
0.09875209340480508 0.24268940843205322 -0.29509518408080415 66 38 25
0.019882092930522163 0.26240442106399076 -0.7678284238340437 74 43 25
-0.05834448509135444 0.23958212986040592 -0.09240350642060302 83 55 34
-0.07221617921716443 0.17404901399158343 -0.37830701294146 56 34 23
-0.09856804227800149 0.07276879273790107 -0.15486458430986855 97 93 90
-0.043418332797732696 0.36678089662554186 -1.1394155280545082 95 65 39
-0.028961551361267227 0.2422520949695253 -0.36482323315311327 23 8 4
0.003891203740075671 0.04737312831768074 0.021912578307635978 82 53 35
-0.07158456027499692 0.17776682240810632 -0.2869584846301504 50 36 27
0.05643709717892768 0.08777732707878685 -0.664477591555862 62 31 11
0.04986858920974981 0.09818910585619275 0.09063905945992694 133 101 75
0.19954478358864788 0.014356903952786798 -1.0535994603289234 107 79 57
0.018685239545729582 0.23613325190673504 -0.6563267397085576 91 56 26
-0.13702070047867107 0.19876310829042326 -0.12683629819918824 99 77 64
0.14339097073168497 0.23938269359750783 -0.39212866743538255 50 22 10
-0.04115630445266427 0.12537659301963713 0.09008671671110308 108 88 73
0.013749361385369998 0.2458887453589915 0.07111955741826725 73 38 12
-0.10798353075870426 0.09397340825441741 -0.8608918465235599 73 46 28
0.11161936320840446 0.18918442554179735 -0.6637150886283129 52 23 9
0.09036484193353984 0.16269838595757763 0.04849451630723881 65 30 10
0.07510399410935735 0.2247121783929434 0.07777928305640495 88 50 31
0.011204428003802254 0.32146940869675444 -0.1412874080964551 61 28 9
0.168427917052968 0.08675036906136527 -0.8619822247718147 101 70 47
-0.1354870098480435 0.21363198468976521 -0.14478027527583087 72 44 27
0.13287966702900975 0.2649824365668989 -0.8934920936684441 86 57 38
-0.017888900101487432 0.21079740176054895 -0.4798518154901605 71 40 22
0.08130788822635059 0.10986484966359142 -0.47428128753271537 73 42 24
0.07357363448219438 0.09300107529882723 -0.6005386493931526 104 69 39
0.06026681363776718 0.24362238551133156 -0.7256985225556206 60 27 10
-0.11921693034746636 0.1628171821858387 -0.43200792168910135 74 43 24
0.16318306220028028 0.33797481465482787 -1.150272674669145 73 60 43
0.06821031984771465 0.2639104291376 -0.3252945136879454 68 32 10
0.06513082718224411 0.09154588354690521 -0.5640039696703598 83 48 26
0.09260658676609686 0.28117508664967295 -0.40390033743595055 75 35 23
-0.0018890912722983799 0.29489367418485635 -0.11200468490336135 103 71 58
-0.11851477452132471 0.16196446353179492 -0.8738956118662048 83 60 43
0.18818619715171298 0.20640261863192136 -0.8382362340267192 67 32 13
0.17618608418196527 0.11655539140909714 -0.8178911260986862 87 61 46
-0.0257585066472664 0.12095403984247813 -0.6258978000214226 69 37 16
-0.09958490981819668 0.27028403337619006 -0.1373780530502831 80 40 15
-0.06597222972021706 0.11664701645604725 -0.7901175666759475 53 24 10
-0.07247228087568902 0.2118225294127548 -0.2448547839840605 67 47 37
-0.0029266969058790084 0.1770266535904567 0.1183219242030664 181 182 181
0.0924507498741074 0.09935973386409795 -0.06877264380444324 67 39 28
0.07292192778133796 0.2251361963451383 -0.5510604561792853 82 47 27
0.14616369049980282 0.17498362521184696 -0.26657989424865186 61 38 30
-0.030309191436052575 0.22593492405444532 -0.3408017650115706 39 15 6
0.07987547915327413 0.10701104761652061 -0.5072141141014698 63 31 10
0.21832065698570327 0.30249851585813664 -1.137156927962904 95 68 49
-0.12120551727515214 0.09787124190455869 -0.9885340466533513 108 93 86
0.08078511116372834 0.14295545396835496 0.009836284281024281 50 18 7
0.03855627329624553 0.27810711941778604 -0.39045083243975587 63 31 20
-0.006291557052600832 0.05513885795273676 -0.9838549764581387 80 58 48
-0.024961849775535335 0.18075389649461962 0.07368797897759125 96 66 42
-0.10340053541996391 0.005462014507432281 -1.0022850997130954 80 60 51
-0.01863183394484488 0.18301462326154297 -0.49037500038724435 68 39 21
-0.018332686010332673 0.22445741621338686 -0.6935426524034239 53 21 6
-0.0060196464422939445 0.22077314718226237 -0.5444661477851384 103 85 71
-0.037591297332004475 0.2391086632842454 -0.28747781880892276 73 46 30
0.0643987482310869 0.09961431148849398 -0.603881599507908 90 56 29
0.1055017487687536 0.04230886805239757 -0.43859894137342526 74 49 31
-0.11024463699264761 0.07886948738201326 -0.43869005911430287 67 44 30
0.11555824218086655 0.13920077116980045 -0.2922291547268254 62 38 26
0.11736277851528036 0.2279385064019229 -0.016849117927798172 58 22 6
0.20076075127743723 0.029666924032446685 -1.094353802363274 50 28 17
0.019447466022021603 0.2624206735808298 -0.38234557569960703 53 23 6
-0.027716993177040215 0.16268371306730683 -0.5845293588337233 57 34 20
-0.0373594554080021 0.17134867183726704 -0.27243064827757996 39 26 18
-0.0005078167541071103 0.22869800875977322 -0.004202242924584575 108 80 58
-0.010544675999569122 0.21916151708698964 -0.5591388583957512 80 45 23
0.06847746017298366 0.16757400952593107 0.09733116116454385 140 111 94
0.16918883686820274 0.2479871395341321 -0.8463459364613212 56 24 9
0.021991437846708765 0.08675008921733152 -0.6130078224806388 82 47 25
-0.03621664522467264 0.1838241679549053 -0.5179272978747906 50 22 8
0.17015180747464495 0.21473953680900454 -0.838316810796981 94 75 69
-0.03442439326326517 0.03096873877851003 -0.8378241603427571 69 33 11
-0.001236190702067402 0.03883205691361566 -0.0003870748437646355 87 58 36
0.0630360023878508 0.20480327051029848 -0.4841255489615617 79 47 26
0.11605720250947243 0.07165887021962765 -0.8259138783625966 82 58 46
0.09772177824618104 0.22741210832995812 -0.696973091892528 52 22 11
-0.014864110025793449 0.22373926258693444 -0.28177278173639375 70 42 28
0.06276262591575844 0.32366658705327733 -0.11697028866842576 127 100 83
0.06274834275898995 0.11259901461010836 0.034625689961796186 109 91 81
0.07439222678163859 0.31831266689330173 -0.12445462830754679 98 59 34
-0.06888054219520236 0.19944151424693157 -0.30744432318315146 61 42 30
-0.07814713001498401 0.3527267825767656 -1.1420017704168077 97 69 47
0.10229521111551107 0.12522889952344213 -0.6596654840688932 71 39 18
0.15502367893368213 0.1396214285556607 -0.9421809407231577 65 33 14
-0.016153391994726846 0.09091942331673601 -0.4149399642632522 68 49 42
-0.09161645654260143 0.25024284791906487 -0.8597504189807659 98 64 39
0.0709254263171569 0.1188675481535092 -0.002548152488296964 89 58 37
0.10156859872657663 0.24798292450594642 -0.30058025952531087 60 33 21
0.17888347028614132 0.21699163400041727 -0.4089515049301213 114 81 64
0.18617708223135637 0.11931271178128924 -0.7569160747588137 56 27 11
0.10754779362059261 0.1532875986582668 -0.5634876177993606 90 69 52
0.020210418034248934 0.25959323600188006 -0.7466724350172993 69 34 14
-0.02221873770966643 0.14175466022959987 -0.7389015966990409 54 25 9
-0.024043083186939256 0.23341792541695167 -0.3956803107551556 85 62 48
0.08304041539472012 0.1508807616376276 0.06713490123420343 64 28 4
0.10423597770397927 0.1960459746096184 -0.571614315774823 66 33 14
0.19013550385997527 0.016965712960724254 -1.0230975889973948 70 32 9
-0.0055291396653177755 0.35747422124335515 -1.101066516977067 46 22 10
-0.18458550697256249 0.14597080955482158 -1.0814130362322596 63 44 37
0.07945824210254006 0.31053639684944145 -0.169026148593245 76 62 53
-0.01921055141302792 0.10522727401606875 -0.6202118126388604 63 30 11
0.2071879293647036 0.24095559582742634 -0.9880485953623567 84 58 43
0.13457060925692196 0.1361608259554235 -0.7392823708123557 58 29 14
0.10542880792372544 0.19235411843756497 -0.5084558445893047 53 25 11
-0.036001826640133246 0.18065558830976614 -0.5584900398053892 72 41 21
0.1471344828744617 0.0891187966154515 -0.44432324399650797 87 60 41
-0.07536349484731092 0.24490084712077304 -0.8378446143655155 88 60 48
-0.011113688930685789 0.18957195611694674 -0.06035079055308854 79 57 46
0.04183241335964195 0.12485292989116824 0.11852540407202819 179 177 177
0.12394419993885049 0.019038856771268535 -0.15231893303634944 68 48 36
0.15698528146188542 0.16751980601648686 -0.09279734844830678 92 70 55
0.055518787630777076 0.08882300996385108 -0.6292862406616625 82 45 19
0.12033978621254479 0.14851377238669683 -0.70588468641796 51 23 11
-0.09342097952293003 0.28707231364222513 -0.9672604612779154 98 76 63
0.13447710165725732 0.2177660020436085 -0.39097333233514575 82 63 57
0.07691522196049473 0.19650656419683396 -0.5352560738954989 55 27 13
0.07470452336346342 0.2226982498097704 -0.4902774333076575 57 30 13
-0.01264233591325304 0.20975072125313984 -0.032565989571100934 58 23 4
-0.04854473357909709 0.027182447197454374 -0.8601908370417956 79 47 24
-0.19539989900271731 0.1583014303205491 -1.12595180448384 87 64 46
-0.1795429796746236 0.14782419141294398 -1.1282131730795282 98 73 53
-0.08750405086003595 0.12354923338607131 -0.8043684806588997 45 17 5
0.1512005636957218 0.08877057961337129 -0.8266779045731703 61 33 18
-0.0038082561063195047 0.2307358752305285 0.06277370240892162 63 28 8
-0.0273685141334924 0.37462176110533263 -1.0408266198680673 107 77 49
-0.10403969840670686 0.13208578308627492 -0.9393086692409575 54 28 13
0.13429403719649843 0.05236351490162057 -0.42786622951451314 83 46 20
0.055071108996289364 -0.043857267447998026 -1.0411982278928966 95 63 35
0.08743846481288407 0.08771098268701363 -0.0713831787202672 83 59 49
0.10157996387076994 0.17087354579125436 -0.5651223853384207 83 53 29
0.10850033328750344 0.1514487543087934 -0.6046380754902346 55 23 8
-0.08082860231539245 0.07472610415862174 -0.18982772721524974 111 108 107
0.10628263525986827 0.28688848378419 -0.11006136691957837 83 47 35
-0.1260841606103355 0.14754623127185626 -0.18620361958244924 181 180 182
-0.01616650783008767 0.20053084948971683 -0.026710637173511326 51 18 1
-0.014547557313587593 -0.03293914224746578 -0.9925900081564574 84 66 54
0.0818898807675612 0.07986669191000692 -0.3915748169261597 79 52 41
0.22897048927600908 0.25850827315413766 -1.0948429277177645 51 23 12
0.07070192372839938 0.23177241513272068 0.05722151373200465 78 39 21
0.026276955788262276 0.3813665893771056 -1.028591601737474 111 75 45
0.18466918009984767 0.09416496605489233 -0.9425048612676769 92 72 61
0.048248995943794476 0.30443106330961833 0.027868534196905256 130 101 87
0.00035505504827784077 -0.009482125022018877 -0.11255378023101464 100 76 64
-0.06646144766982225 0.052527277323480795 -0.115123608643562 84 63 54
-0.056446744401542265 0.19432660259319237 -0.3720496542834491 45 26 18
0.06818808351828808 0.10002897741646902 -0.5815995002651774 88 52 26
0.16052469430095545 0.2118811588832298 -0.8274900606900297 52 23 15
0.050164565644072234 0.27560012848981535 -0.3292320359561375 70 39 21
0.1116198496599743 0.19199631764428193 -0.7444211859144267 63 30 13
-0.15599587006237858 0.23064210612288913 -1.1594950375264519 80 56 37
0.11080304818502819 0.29456439836619763 -0.4262893109743693 75 35 13
0.10106395141172438 0.19059616815808694 -0.5026519959896848 100 87 82
0.07413175470399365 0.023254769058494478 -0.12863617241333064 104 68 42
-0.008445817584206981 0.10321896647211072 -0.5714210017545295 59 33 16
0.08717022063698036 0.29085616911980117 -0.41507698993959824 75 33 11
0.24020590179466988 0.2463849551635567 -1.0507001392950954 122 89 64
-0.018381931336506913 0.2456427586758814 -0.341090308513389 32 13 7
0.006144103814372264 0.38399775024816574 -0.9801152061076311 108 82 69
0.12232022992764766 0.11917415188321832 -0.06610898983789618 77 54 46
0.1640466387329744 0.09150566539078557 -0.09598102754971441 97 73 69
0.048970123288508215 0.09610978030051869 -0.5078559943828672 62 30 10
0.013605515263101341 0.03132631236864296 -0.8109935563499255 65 32 11
-0.037840178985650216 0.14842100230356808 -0.022297044267668452 79 53 36
0.1119282760150277 0.2038099184773042 0.04677873123924995 74 38 18
-0.126110331015805 0.31015832268539506 -1.0333989320535952 110 76 48
-0.1838657993499791 0.19015481026784964 -1.0360084274347983 84 52 27
0.009929290536626317 0.269682732587526 -0.3207119046758152 83 51 30
0.08860715399811236 0.3103583802082717 -0.13043391643293367 92 47 22
-0.0886000693729997 0.10426000872179902 -0.10175929841520014 67 49 37
0.08385565409939147 0.06847881893285872 -0.2734854985476592 48 29 22
-0.02518803230731463 0.24338713733537645 -0.29656050587210825 80 51 35
-0.01885768339489626 0.29349069415471135 -0.4137811111359303 92 60 38
0.09149648170717019 0.12331906996326693 0.02125860388478359 65 30 8
0.17516405507084243 0.32989329756830105 -1.1111017898104443 99 72 42
0.06065171504763523 0.3056960527049145 -0.9006915753849676 72 43 27
0.005608113571005287 0.05451797481879595 -0.29967134847000865 31 13 9
0.07079979714790251 0.2490997205135766 -0.0382040815420093 27 13 10
-0.03392805746901822 0.14762648622637964 0.00960364678230065 78 50 29
-0.07380452730505417 0.15839335124778503 -0.7433381692281567 62 33 15
-0.01091097495505151 0.219358595358063 -0.5205370211284145 69 37 16
0.07966337681507678 0.14357270847116843 -0.002414977057301557 51 22 9
0.02050898625829049 0.223450072801163 0.06897369934695403 81 49 28
-0.008084559666757196 0.21114029786548252 -0.022724817378499934 61 28 8
0.2237152591791931 0.28043118990780214 -0.9998997910262255 80 44 22
-0.06415357800573053 0.062020099072558385 -0.40875085461104343 101 82 75
-0.15234649764618613 0.19066059075859285 -0.9893351916230644 89 58 38
0.05623395215691807 0.08626918815604752 -0.6633634458932504 68 35 15
0.015530796153665162 0.27031547759905283 -0.2781626048168878 89 62 43
0.10395189742988319 0.1873954825671485 0.0443233822405427 90 59 31
0.017855879492763353 0.2546201312036208 -0.7479791714673683 75 43 22
0.12845966475659829 0.02339065458370199 -0.9790739832162623 82 60 49
0.09853840645478437 0.12861816773876136 -0.5988050859188284 74 40 15
0.16020673015000828 0.005255519039321384 -1.0950283301078079 47 24 18
0.0387869337538961 0.27269293111251985 -0.09083715926577632 83 51 38
0.04051834248315304 0.0844920438531403 -0.49276543950905205 47 23 11
-0.17723715890101566 0.21632713263708905 -1.0316958393207496 95 60 32
0.09502701619062891 0.20352177562762072 -0.5231905198934982 50 22 10
0.08832917663160145 0.16041650558279333 0.09888936927770488 87 51 27
0.1991427974011766 0.16906162772044406 -0.1473875526527342 69 46 34
0.09565414234482254 0.3082757119056932 -0.43326723079477564 84 55 34
0.09964354913066528 0.10932524491671572 -0.3044874788081489 64 38 25
-0.09295224150636774 0.1870135432855096 -0.11942413420710488 136 118 108
-0.09148231322319773 0.2093781467165695 -0.9414686768329594 76 41 19
0.04006696484229277 0.326249646892123 -0.1304309037202549 98 63 34
0.0812558223115982 0.3732147216049516 -1.0225547100227843 118 96 79
-0.06012767287882141 0.08959447279096583 0.006127668814842997 55 33 19
0.1036644760633554 0.15746075285564437 -0.47021065075435325 71 40 22
-0.00878832143898193 0.25711444766152947 -0.3144364738782657 90 66 57
0.06358275149027708 0.05538727705056394 -0.7492580281650136 72 45 26
-0.07363018920947022 0.05255605876198376 -0.8355650420290612 62 34 13
0.038207142297272935 0.055579733755515025 -0.3077739536824404 97 78 70
0.01205088986538768 0.07106719557656548 -0.7275140510656161 59 28 8
-0.07012772971380005 0.06429298094970935 -0.9406685723207767 65 38 21
0.11078257450646001 0.2782717262275912 -0.8176490610912438 58 29 11
0.11931567796040736 0.10569420574690556 -0.753524026123867 53 25 11
0.009906572830295977 0.09542308214953002 -0.6099817634478129 65 33 12
0.16488176559897627 0.14188350727787594 -0.8115490154152165 85 61 51
0.07201297202859135 0.07895147021633789 -0.7414122235697567 69 37 16
0.2061957721316242 0.2394774343019505 -0.9763176750245454 80 59 51
0.03518905502780285 0.40420416036400636 -1.0789031023407751 47 24 13
0.231109665227419 0.07748935785575599 -1.0262292076367943 86 49 20
0.035888957757048416 0.23353010338767186 -0.5201999905670351 55 31 13
-0.04299778752160613 0.15964598463411475 -0.5355515656775804 66 37 21
-0.021951424114912684 0.3526489723891652 -0.9449895473828444 92 63 47
-0.04374003117966941 0.12530012425841114 0.07417565937352984 51 25 5
-0.030402930832235688 0.2942862659621696 -0.9708103553017806 89 66 52
0.011539293776717892 0.09058291811546199 -0.6147758732022995 69 35 11
0.14550303843366133 0.18720477453877113 -0.07100990961363678 110 96 91
-0.039850200676295355 0.34826132660335674 -1.0070166758744028 106 77 60
-0.04930499032408657 -0.015252865125704842 -0.9644063867334376 93 73 62
-0.10401767554636772 0.08716379573826652 -0.8608562432829643 74 47 27
0.04110931653332988 0.28404922781481085 -0.01589186994869599 76 49 30
-0.03918211568231179 0.14645150721445016 0.046560954733628236 59 30 12
-0.010541852794296945 0.30145317719073716 -0.8332814923654736 63 26 8
0.07585320784361067 0.008145500936985477 -0.12154701415431257 103 72 51
0.1068035417956833 0.1432455009638516 -0.630061606905691 58 25 6
0.025112725437481862 0.13215613088782463 -0.6045689200954003 67 36 16
-0.025845228158300492 0.2532140494103929 -0.7712178020283275 55 23 8
0.12361526294517122 0.10361345957326697 -0.38924586903284514 71 45 40
-0.01223137169972029 -0.057266365019453626 -1.1216754139490352 88 66 45
-0.09222530939737206 0.11023894424545845 -0.18211071670429257 63 52 48
0.10115712846700407 0.37047245468019174 -1.138820017494868 96 64 40
0.05870856455004063 -0.01708595769309417 -0.9755947026616636 84 67 60
0.024215792542993303 0.23152839705693967 -0.4790601644892614 82 62 51
-0.049089246544916705 0.18072684186663976 -0.3236721356503065 42 19 11
-0.017833894175423373 0.08989136157382456 0.052821965808587716 93 76 64
0.19417666864444083 0.30799209164384594 -1.1059326864146246 50 26 16
0.11171737465074995 0.09938792342547541 -0.7852788134397608 52 24 12
-0.18601329873922065 0.2047613775990338 -1.0375585558974443 81 50 25
-0.09613541932106096 -0.03243547984918709 -1.0653112221602408 65 50 43
0.12867341862832757 -0.02585236537398908 -1.0884253170563225 42 25 18
-0.12046999829859768 0.12597776658199988 -0.11857981493773563 109 95 86
-0.07397060482881256 0.2921163402639296 -0.9667193881377696 106 84 71
-0.03405276352640823 0.254142650991709 -0.3117289122386196 56 24 12
0.07412082075686717 0.030672752937953237 -0.943593564517436 81 54 43
0.13356293268189826 0.14629961799367244 -0.3161119218096853 94 67 57
0.11272705941169411 0.09281273362169055 -0.329297038102882 61 35 23
0.018726316658025353 0.2561681131909166 -0.3408011204757935 31 13 8
0.2254274767459286 0.11561728650628296 -0.9924176755311117 92 67 60
-0.021107713211920568 0.11045938509980656 -0.4893331836488409 39 19 10
0.1441461937895658 0.2301980269884674 -0.1044924612206848 102 71 53
-0.001277869059997256 0.08711757447239517 -0.08215280088661894 68 51 44
0.04003746329594246 0.2375553880871665 0.09022100909608327 103 74 56
0.07979232610128723 0.10877245453211525 -0.642891891624794 74 39 17
0.0944536062966882 0.2004462466562997 0.040286217528045176 64 29 9
0.1258111791996669 0.17936385121761056 -0.6629590368050186 54 26 13
-0.033427578135059526 0.1796192197385212 -0.059044552194409766 58 32 17
0.024834179360801876 0.2145123082446683 -0.6778924347075311 70 33 12
-0.00394946031471507 0.3088294213127733 -0.4247420953747978 83 48 28
-0.08079414694034266 0.2520365216987629 -0.40444428061794746 98 68 55
-0.03603496380305901 0.37169662215957017 -1.062481368332459 98 67 44
0.07001322864183154 0.2800008311449046 -0.3947804314053697 45 18 11
-0.04747413989296353 0.27924693196261813 -0.17922940040049895 95 76 69
0.17429696010334383 0.10329621122824015 -0.857618717215814 79 41 18
0.022579556439298758 0.23317241120678392 -0.5977899032253299 80 44 17
-0.1377226711660781 0.19498021007549185 -0.9698887052174422 85 56 38
0.11859117668158493 0.24093353593941558 -0.003529320240327387 63 26 7
-2.530097409998109e-05 0.326174051292466 -0.14006419800899506 79 47 24
0.08899560477998437 0.11201630279858736 -0.6358373590401568 72 37 15
-0.09898006875537925 0.09369534172123051 -0.9176059471638462 65 47 33
0.009575413107126625 0.2710450460525736 -0.30883914475364094 83 60 49
-0.017132897475530595 0.08315811653517002 -0.3451192064149351 46 33 25
-0.005395990943608846 0.09587951804174911 -0.5035437620667323 98 87 84
0.020781823539940836 0.250688107546375 0.06319853626898618 68 32 10
0.17340095481328607 0.14461479540380373 -0.8359669867948494 81 58 48
-0.04137765629915986 0.20734184431370228 -0.7441604299169984 57 24 7
-0.07580839283633774 0.2993682293247713 -0.9789856818025383 108 86 72
0.045950252926033365 0.3722708985462184 -0.999972934127849 83 61 48
-0.07621027295745093 0.14664328819090303 -0.3090684633691365 67 52 50
0.0799382310010008 0.10401331858826052 -0.46786009144409424 77 48 30
-0.042458187236779216 0.24798051000868165 -0.37314943770396164 56 28 14
0.20313923286323926 0.25666486496725033 -0.9829227304688254 121 104 96
0.03298857104700593 0.296155566580292 -0.9265937833836704 96 68 47
-0.029886021155289814 0.24590969903062176 -0.3033457231871548 55 35 23
-0.15444474586974644 0.27728193249865224 -1.0900158172606522 70 43 29
0.12082406822368891 0.09078092132970852 -0.3111024877661428 70 35 14
0.056404601437129234 0.05513100267356224 -0.31110529008606647 56 26 9
0.10152519185406716 0.13675503249487023 -0.4811758619293798 69 38 18
-0.03640102000040954 0.19355704502095822 -0.6699439100621769 76 45 25
0.08009428601160026 0.13246084264417365 -0.5105119318881023 86 56 32
0.05577440552757795 0.09526611915799209 0.08414841784853905 71 36 14
-0.045331526090449846 0.12844715288279654 -0.0033334805452590465 75 53 39
-0.03865498976211216 0.2448833025979743 -0.09186433918407493 71 37 15
0.08582420982030545 0.22879542170779193 -0.7093156429850279 43 15 3
0.0948201770427398 0.0035609973241262287 -1.0792568656139476 94 66 42
-0.0060697459712014635 0.06475574288863828 -0.2821394645043295 61 43 33
-0.0365565909450709 0.15634216945384152 -0.5096492172215975 48 24 12
0.0019670973062694006 -0.017473829969107724 -0.9680492999295012 96 79 71
0.10924976944060874 0.15331672183572875 -0.5473632584357806 58 27 9
-0.08208285751039726 0.2484840920876882 -0.8368815522831375 61 24 5
-0.03422237633229713 0.17434577943154692 -0.5921700831654123 72 41 23
0.10408270156692936 0.030819445890609636 -0.900577310151051 67 44 30
0.09636914723102057 0.36996270161512884 -1.0371732105665268 99 65 38
0.056210515368840815 0.22482448134341035 -0.5636175749428171 88 57 37
0.03508016638340051 -0.0007809458175953564 -0.9874843423781857 94 77 67
-0.027164216248897362 0.2311896446994859 -0.7017978303376798 60 29 11
0.1503915702924897 0.24605662257497457 -0.8579721185255288 68 29 10
0.10959225667414323 0.14758015097375782 -0.5268916381745443 71 41 21
-0.015225313309042959 0.37506047026698436 -1.0383260751719527 111 78 46
-0.02364826794622421 0.220928497581232 -0.6931666000554456 70 35 15
0.09397300926604892 0.04404167588206835 -0.8090299066720931 65 37 23
0.07230055514998601 0.2361931261266918 0.07873707339512162 111 80 62
0.21336710075731144 0.20218351825798103 -0.9779919852498722 80 51 37
0.02505958125083799 0.2350625638308697 -0.6562256607929476 87 46 16
0.04292614275853101 0.03456562135755372 -0.10348749165157115 75 42 28
0.09625242402707583 0.12785419375545684 -0.6197277668097829 76 41 20
0.06947162760391651 0.23809327185778753 -0.6721054116572895 62 28 9
0.21539933192101596 0.043991069598049805 -1.0299132409633656 93 58 30
0.11411609159690195 0.1454911808194938 -0.6606217571655988 51 22 8
0.0849841975247753 0.3069982397848042 -0.8784952180456729 88 60 42
0.023851592550330734 0.261836965418519 -0.3074788305739205 80 58 45
-0.0671796158890975 0.1414745280369989 -0.29067436818007103 42 29 21
-0.04034349570016161 0.2914367508778915 -0.8651033361859621 80 48 25
0.09838350650888837 0.1207626900829985 -0.27770823859922267 60 40 29
0.1007687579783609 0.13362813224066875 -0.529743758911214 91 64 42
0.203102723205209 0.048716711641505095 -1.1029262389507624 62 36 22
0.09603156590077268 0.16935247766039688 -0.6396732395999262 56 28 14
0.07248019134223914 0.1011368241928595 -0.6274836213765477 90 53 24
-0.18755863179136764 0.1757589497634101 -1.0258557401061021 95 64 43
