ply
format ascii 1.0
element vertex 697
property float x
property float y
property float z
property uchar diffuse_red
property uchar diffuse_green
property uchar diffuse_blue
end_header
0.11998759738058318 0.2328031396639184 -0.776602694871786 46 18 7
0.11947047733626179 0.2325623066652952 -0.7800049505239688 45 17 6
0.11970659243568353 0.23284257586347046 -0.7830311476423664 42 15 4
0.12030143025719134 0.2333709415577303 -0.7858762433250296 40 15 3
0.1209156531172478 0.23391266995427598 -0.7887103639095436 41 17 6
0.12285294295628474 0.2353691583422566 -0.7908688054390836 42 18 8
0.13281298908042805 0.24237195463736913 -0.7889146545300424 40 16 6
0.13627353389999589 0.24488034274400317 -0.7902610591467399 40 16 6
0.1412804986670296 0.24845714548707204 -0.7907970100567346 41 17 7
0.13832992688596418 0.2465335756129522 -0.7954349093512862 44 20 10
0.13636297753613347 0.24529023056888388 -0.799574638715387 46 22 12
0.13641528559815247 0.24544248724416634 -0.8026697089902627 44 20 10
0.13680785422192765 0.245829869267886 -0.8055875525754392 44 20 10
0.13523576538217233 0.24486000417911977 -0.8095384284528825 45 21 11
0.1385334526941425 0.24737035759029274 -0.8140487167880857 48 21 12
0.14663050650709453 0.2530783579328915 -0.8128648691194951 48 21 12
0.1495870393187097 0.255235532729188 -0.8143949163047801 49 20 11
0.1464827658245384 0.25320763756576947 -0.8191635608476727 49 21 10
0.1416777869187388 0.2500061388259187 -0.8248613313858794 50 22 11
0.13975603606061543 0.24879569603128726 -0.8290224099901834 50 22 11
0.14201905134719478 0.25047400409000664 -0.8309234862070305 52 24 13
0.14394692067824594 0.2519207174233892 -0.8329990270040148 57 29 16
0.14707968614849676 0.25419864804755127 -0.8344097547111045 58 30 16
0.1499879367042795 0.2563212373308803 -0.8359320969281427 58 29 15
0.15327034507864795 0.25870157113370834 -0.8372379269651378 56 27 12
0.15562527114853278 0.260441637869148 -0.8390439885200254 59 27 12
0.1576565871865348 0.2619581790372967 -0.8410211321244603 58 25 10
0.1590714846058245 0.26304932080533655 -0.843334277899299 57 24 6
0.1606586741620467 0.26425910980569517 -0.8455466774302424 60 24 7
0.16233044461219936 0.2655270263985857 -0.847706441052709 65 28 8
0.16230779416683497 0.2656264958087747 -0.8508139382435664 76 39 13
0.16394095251095325 0.2668675080155303 -0.8529878214179005 82 47 19
0.16264760817496188 0.2660910491193848 -0.8568147391440669 89 57 32
0.16211138609453446 0.2658366686091743 -0.8602175940875225 91 64 41
0.16444280249411847 0.26755867416256796 -0.8619870769830812 90 63 42
0.1627918100279422 0.2665361636343088 -0.8660295564157863 89 62 43
0.1656965801863086 0.26865290058291413 -0.8674610101312007 89 62 41
0.15853409891385975 0.26383360899830555 -0.8746899740657781 84 57 36
0.1581698670061103 0.2636984567303197 -0.8780134749398248 85 57 36
0.1568306787284352 0.2628918789096072 -0.8819062191110274 86 58 37
0.15490325328821758 0.26168043274064534 -0.8861487166284964 85 57 36
0.1536034833386571 0.26090154726267506 -0.8900331289138064 82 53 32
0.15098912086531296 0.25921774640806783 -0.8946960637763295 80 49 28
0.1505880961149439 0.25905821424102643 -0.8980668165987712 78 47 26
0.15037323451318876 0.25902694481701005 -0.9013304165475345 75 43 22
0.15013573935926114 0.25898017665303874 -0.9046096075935252 79 46 24
0.15068308950864967 0.25947365680509316 -0.9074237515099007 82 50 24
0.14861149486564576 0.2581648302551025 -0.9118016506035025 90 61 37
0.14962251984809907 0.258977488640395 -0.9143412568675368 96 69 47
0.1510363292890725 0.260067161159431 -0.9166356768258551 89 63 40
0.15014755052055795 0.2595726291054068 -0.9203154906367131 86 59 38
0.14980130334588937 0.2594514669519294 -0.9236716377792167 83 54 35
0.148491911535055 0.25866797034373185 -0.9276158577055879 75 47 31
0.1489552964629384 0.2591038735289245 -0.930485683214903 65 35 24
0.1494622925046525 0.2595697418231692 -0.933328199333967 50 24 14
0.1489012413197642 0.25930124037131114 -0.9368256366539963 41 19 11
0.14770002615718758 0.25859277498617367 -0.9407210274201282 38 17 9
0.14607145691689744 0.25759077879188613 -0.9448868068195334 37 15 7
0.14897586472458496 0.2597047016149752 -0.9462495084152458 38 16 7
0.150542139122182 0.260898598632391 -0.9484340982960717 46 22 11
0.1514781400253426 0.26165919805504784 -0.9510069687055998 51 24 13
0.1552978024944758 0.26440104409899257 -0.9517710853810136 57 33 22
0.15513464450041817 0.2644060901745266 -0.9550235535728261 70 49 39
0.15832223261176198 0.2667129664334416 -0.9561653858147439 79 60 53
0.16192992295408776 0.2693079517670581 -0.9570295653588997 77 60 53
0.16770146345558057 0.2733885280662663 -0.9565068399598694 77 61 56
0.16798505620571236 0.27369964728872004 -0.9594556620514179 83 68 63
0.16755010702608578 0.2735173976608233 -0.9628635763444406 83 68 62
0.16915089778365716 0.2747329067547735 -0.9649699725698037 87 72 65
0.1696305554320739 0.2751785853718294 -0.9677918124793128 84 70 61
0.1721233020184187 0.2770060196581422 -0.9693144973460883 90 76 67
0.17445072980554485 0.27871965469856996 -0.9709350842921727 98 84 75
0.1762523295553069 0.2800721311622658 -0.9728886251697024 100 86 77
0.1778161173300786 0.28126119794528653 -0.974990827743527 99 85 76
0.17875492568418536 0.2820212784559123 -0.9774961140162695 93 78 70
0.179671686351314 0.28276613627517677 -0.9800132228802841 107 90 85
0.18139743452772966 0.28406581259279323 -0.9819959043585991 100 83 76
0.1842403583073912 0.2861314925736586 -0.9832358356058556 91 73 64
0.1864410158950054 0.2877563262754839 -0.9848901515224076 99 81 71
0.18931019158384643 0.2898392709962383 -0.9860928600236574 95 76 69
0.18775862092158319 0.2888908436310058 -0.990228258301816 88 66 56
0.18737350260428942 0.28874236283900995 -0.9935923337512991 82 54 39
0.19059077842923658 0.29106332220850495 -0.9945457532486417 80 46 25
0.1918198036516769 0.2920210978926698 -0.9968232610795644 80 40 16
0.19256548383523123 0.2926474866666624 -0.9994227617990534 72 31 9
0.19475517840611356 0.29426329908126053 -1.0010439126197608 67 26 4
0.19672908688921106 0.29573097071843757 -1.002803561656189 66 24 2
0.19761775072561524 0.29645490171894767 -1.005294660279962 69 24 4
0.19858695395250256 0.2972339116008184 -1.0077283448203975 71 26 5
0.1998613347534841 0.29822184202882085 -1.0099503185201388 75 29 3
0.20138488795285012 0.29938026663270434 -1.0119971221868782 77 31 3
0.20273914911195265 0.3004225751154441 -1.0141554253942355 84 37 8
0.2032596441216236 0.3008938466040255 -1.0168853694836637 88 41 11
0.20392523034978338 0.3014644157824667 -1.0195138568436957 88 43 12
0.20410887707682074 0.3017050233301981 -1.0224758142574164 86 41 12
0.20654235765527976 0.3034855672407302 -1.023869727249801 81 38 10
0.20778063843312897 0.30444780739855487 -1.0260904811993365 80 39 13
0.20899858233983626 0.305395984932244 -1.0283215714736387 84 45 19
0.2075404382914078 0.3045129753321884 -1.0324313942230232 89 52 26
0.20588230488818363 0.30349341891722453 -1.0366897239954227 91 57 31
0.20635564796865186 0.303932243723179 -1.0394478855268776 91 56 32
0.2048771023539037 0.3030359701279324 -1.043590756216684 88 56 34
0.20431456620839586 0.30276644469603214 -1.0470890248258466 85 54 33
0.20285677089680845 0.3018848468612 -1.0512301491934262 82 51 31
0.20175145921921375 0.3012445372808812 -1.0551262772705643 84 53 33
0.20098141862574548 0.3008336654827434 -1.0587875485736398 90 59 38
0.2068490575957621 0.3049604682002919 -1.0576721374164613 91 61 40
0.19979932146695467 0.3002571163206794 -1.0658650621587975 89 61 40
0.19941935146295278 0.3001133123029476 -1.0692565524995896 86 59 38
0.19766028849832584 0.29902719468045114 -1.073653037083654 83 56 37
0.19832363347439236 0.2995965948696459 -1.076292903610253 79 51 34
0.19683361530743443 0.29869474830207565 -1.0805050706429344 72 42 26
0.19449445297472867 0.2972131101468639 -1.0853472239393283 69 41 27
0.19563650149991893 0.2981097247399588 -1.0876415610955108 60 37 26
0.19720146721265436 0.29929504778380767 -1.0896205896791415 44 19 10
0.197595684429428 0.29968067854554076 -1.0924598477112701 45 16 8
0.19872919727175048 0.30057109600054077 -1.0947505944639035 47 18 10
0.2032280487635385 0.30375901487903645 -1.0945355430133514 47 18 10
0.20020431955497514 0.30181094281876064 -1.0999120714196027 44 17 8
0.19978342169149577 0.30164002711192317 -1.1033563441589112 42 15 7
0.2013887953683554 0.302852151858543 -1.1052841860286207 50 19 7
0.20193504771948373 0.30334130715854124 -1.1080030023196854 53 19 2
0.20434025773092265 0.30509886585389967 -1.1093188720343148 66 30 11
0.2062472955517501 0.3065162096002409 -1.1110025819573515 79 42 21
0.2064053250758863 0.3067401579717655 -1.1140059215276352 78 46 29
0.20612701111453474 0.3066664981777957 -1.1173417293334036 81 48 32
0.20751249883690548 0.3077276836450046 -1.1194111344662547 82 50 32
0.20648794101330623 0.30714517919989953 -1.1233190627017224 83 52 33
0.2055183143193049 0.30660034063334174 -1.1271905172063885 84 55 35
0.20697463477709252 0.3077096830675148 -1.1292017969043986 84 56 35
0.2100900231825689 0.3099498430398268 -1.1299287929443764 82 55 35
0.20534255697117929 0.3068300102851057 -1.1367239718685664 86 59 40
0.2023265518670192 0.304891054297531 -1.142198086535418 82 57 37
0.2023550602310905 0.30502737016568005 -1.145319137030558 76 54 37
0.19788046188493486 0.3020953535271178 -1.1519522965571658 63 46 33
0.19600977081041573 0.300938167693498 -1.1565701113860558 72 61 46
0.19845468047354228 0.30272125440354314 -1.1578140746730663 104 98 84
0.1989596434267023 0.3031826012743388 -1.160573843876195 143 139 132
0.2015650756532583 0.30507449091987443 -1.161677171948637 166 165 162
0.20382142406137074 0.306728291369712 -1.1630465754905306 177 178 174
0.033900821352743526 0.13456636293145197 0.12131041703524403 184 179 181
0.06000127374005042 0.15345162619161895 0.113601685488668 130 110 100
0.08317325826670662 0.17023605684195248 0.10626823056009184 118 85 68
0.09099266531212047 0.17593289257120895 0.10290274292413217 124 86 64
0.09168280705719978 0.17653173381815726 0.10000650941708414 122 84 58
0.08670071177929617 0.17307559255786342 0.09745330695423832 118 84 56
0.09020284166284012 0.1756847362559655 0.09438535068622222 104 71 46
0.09277502730521231 0.17762878571046187 0.09138157542627567 98 66 45
0.0940533141717612 0.1786478176155931 0.08845691712153214 94 65 43
0.09462085781787334 0.17915881738316508 0.08557346339349957 95 68 46
0.09481654961850894 0.17940407859006713 0.0827100134756928 97 71 48
0.09409650551536747 0.17899508458053678 0.07989143460721877 94 68 45
0.09296962180723645 0.17829557769477672 0.07708853906547271 92 66 43
0.09601306838600195 0.180575297527926 0.07408943888145832 91 64 42
0.09591348760286922 0.1806096694185505 0.07123854484752501 90 62 40
0.09581396175346828 0.18064413416513353 0.06838619725799637 90 62 41
0.09568668591808839 0.1806588351721125 0.06553351867969476 90 62 40
0.09461783619433209 0.18000124053285854 0.06271561737553448 91 63 42
0.09275559794025069 0.17877734435368442 0.059921934991241016 91 63 42
0.09344447172070663 0.1793750782939397 0.05703121432328678 89 62 41
0.09400521548099303 0.17988129207383527 0.05414613845217868 88 60 39
0.09457965131223006 0.18039724485870526 0.0512615665363418 89 59 39
0.09515398324247801 0.18091308715343318 0.04837798098646401 89 59 39
0.09570694234425393 0.18141363991333448 0.045495971481530895 89 59 38
0.09625261895452022 0.18190896235109472 0.042615057263054354 87 58 37
0.09708276240819474 0.1826072302519144 0.03972816824383326 83 54 33
0.09729222435816853 0.18286258900140753 0.03685702464353198 82 52 32
0.09680264786585296 0.1826192632191661 0.033999853004985287 86 57 36
0.0967664810038249 0.1826994776758408 0.031131346407676973 89 61 40
0.09537276327119254 0.18181143713123804 0.028284470092173965 91 63 42
0.0944646855970218 0.18126998429251043 0.02542413373460535 91 63 42
0.09442756622230587 0.18134980572270254 0.02254789271883808 90 62 41
0.09388729369121027 0.18107089014076172 0.01967614355936572 89 61 40
0.09414870976285909 0.18136369313437417 0.016793653312368238 89 60 41
0.09395028567937466 0.18132866600174827 0.013914573261551592 88 59 40
0.09302123901706089 0.18077286965602124 0.011037998384451384 87 58 39
0.09480566104065846 0.1821513989930921 0.008145782743066411 88 59 40
0.09477216351894285 0.18223403881175118 0.00526311984928924 93 65 44
0.09471464206993432 0.1822996030242115 0.002379239192593835 99 71 49
0.09485781179487118 0.18250822799156086 -0.0005056864285029015 96 68 47
0.09461954659376812 0.18244509063527678 -0.0033924111961648115 94 66 44
0.09518810145813829 0.18295685580401316 -0.006277076282805577 92 64 42
0.09587467804905614 0.18355266344935459 -0.009159969758223342 90 62 41
0.09545612085806171 0.18336120162082953 -0.01205103120739481 89 61 40
0.09552574658015718 0.1835175507607842 -0.014939614620319671 88 60 39
0.09624535475755373 0.18413684457741286 -0.01782105421471904 89 61 41
0.0981286593410301 0.1855847802485463 -0.020684524490936253 88 59 40
0.0972116601810018 0.18503852377522717 -0.023586925316094028 86 58 39
0.09671445545329121 0.1847913219237311 -0.026486321997402112 82 55 35
0.09622412339203165 0.18454912120995243 -0.029388515672925972 78 52 32
0.09504682151353484 0.18381800492993222 -0.03230835617069783 76 49 31
0.09351731188119193 0.1828363920548042 -0.035241824132989485 75 49 33
0.09510884631135227 0.18407633643284876 -0.0381036189968004 77 50 36
0.09640480946586572 0.18510576262962028 -0.040968663432818006 77 51 38
0.0951430041322878 0.18431498641673705 -0.043903694489532435 78 52 39
0.09294260066969613 0.1828565943248088 -0.046873208403769025 78 52 39
0.08822951885293184 0.17961089985869094 -0.04993345765390431 73 49 36
0.09390518199452605 0.1837562418043378 -0.052655920322240535 73 50 37
0.09570256650505879 0.18514218456316683 -0.05549876349969969 74 51 40
0.10140583714735044 0.18930596781940282 -0.058187852759771834 74 54 43
0.1055310750256811 0.19234675678107838 -0.06091990510500696 73 56 48
0.11424219408778005 0.19864809006431144 -0.06344696480269794 88 76 73
0.11563032640339635 0.1997413331793486 -0.06626147372029345 74 58 55
0.11279985588186428 0.19783511362501188 -0.0692631536907749 71 51 46
0.10979943303930254 0.19580849996145774 -0.07228437558204627 95 78 72
0.11630953079179278 0.2007553048509558 -0.0806038609005569 72 45 34
0.12565396434053006 0.20750209886859358 -0.08297206668217608 68 33 15
0.12820173927849499 0.20941819211930468 -0.08569004416495353 65 31 13
0.1352270424162437 0.21451524902630775 -0.08813907238682508 56 24 11
0.14013527580621526 0.21810736142425904 -0.09069042543556097 51 20 7
0.13325426537528356 0.21332423114938776 -0.09395457617629673 65 36 24
0.13727929723777815 0.2162885584831014 -0.09654995339717551 90 64 56
0.1420392531341826 0.21977433772698612 -0.09908334905674371 89 60 48
0.14677145468657493 0.2232397975814896 -0.1016021215044936 96 63 50
0.15114111369622538 0.2264472144903688 -0.1041296150740883 105 72 57
0.15713660133173443 0.23080844390975858 -0.1065263651761921 115 85 72
0.15878302155252297 0.23208127034364054 -0.10921949043045817 115 87 74
0.1643685382236453 0.23615020667477893 -0.11161277252007894 115 85 74
0.16499471294135606 0.23669820904978975 -0.11436684001879914 158 131 124
0.1708033902105583 0.24092442330985642 -0.11671257009264216 160 139 129
0.1701679443215223 0.24057663641694552 -0.11955600415492892 142 117 102
0.1724151787551428 0.2422745508672766 -0.12216574512970754 118 85 68
0.1731804848669829 0.24292071000381965 -0.12489288544394463 90 46 18
0.17783287945656645 0.24632458212751512 -0.12728409137646002 89 43 16
0.17689039013334018 0.2457588298653948 -0.1301504892148106 80 38 14
0.17649547099028737 0.2455816570383949 -0.132972358050286 74 36 14
0.17743546421006012 0.24635138566308773 -0.13567457452353526 70 34 14
0.17829003829521728 0.2470604461667098 -0.13838235665963966 66 33 14
0.1778566310672005 0.24685608537790377 -0.14121073421542515 60 32 15
0.17789689503897954 0.2469876851459188 -0.14399580269446954 59 33 19
0.16900774195419677 0.24078844559947005 -0.14766563008316896 60 37 25
0.16946883373856841 0.24121906243489982 -0.15042674692568128 59 39 30
0.1717092617748192 0.24291094418848616 -0.15300449436351354 59 42 34
0.15795976246029045 0.23326914804468338 -0.1572469734024103 60 44 36
0.16746837947870086 0.2401126722969934 -0.15906645732454344 61 44 36
0.17027037830567482 0.24220230519714647 -0.16157786752513498 60 43 35
0.16393861561040418 0.23792394286520863 -0.1679096908325383 59 42 34
0.15976992516508795 0.23517974611409925 -0.17404277244827598 59 42 34
0.16785027246191314 0.24100781016162195 -0.17592702707434266 58 41 33
0.1682571461560884 0.24140019381656877 -0.17869911111228537 56 39 32
0.1633489269437994 0.23802860595794886 -0.1821158201566198 56 39 32
0.15668127820250724 0.23341189432571627 -0.18576880005631222 56 38 31
0.15316276851716207 0.2310258158274578 -0.18905386251808837 56 37 31
0.1462270020055737 0.22622099617843588 -0.1927871028664038 58 39 33
0.14778510585169283 0.22764162897794304 -0.20118388337809165 57 38 32
0.14700639033460927 0.22719648486018798 -0.20415569883894713 55 36 29
0.1453690862495198 0.22614394387150694 -0.20724861262176786 51 33 23
0.14687613412304584 0.22731642875626273 -0.20991418271461448 49 31 23
0.1453207066658499 0.2263221318245599 -0.21300425068260792 50 31 24
0.1436971275247932 0.2252798813755753 -0.21611095336163033 50 31 24
0.12810538445072953 0.2157591970947282 -0.25916313507307 53 32 22
0.1271911199678939 0.2152214966328296 -0.2622443535709701 55 33 23
0.12797838215469715 0.21588573516180326 -0.26503732614089076 54 32 21
0.12804197477926868 0.21603883693793943 -0.26795438415542244 52 30 19
0.1270099530929163 0.21541830513631993 -0.2710650508657669 51 29 18
0.12366131152491953 0.21316224284945995 -0.27459261063362084 49 26 15
0.12432145070963366 0.2137369274988127 -0.2774137317036883 49 25 15
0.12582873629014069 0.2149095962884384 -0.28007969432284807 52 28 18
0.12217327203485086 0.21243786968613765 -0.2836882365953738 52 28 18
0.12878324820646173 0.2172120388313417 -0.28540907710262303 51 27 16
0.12410762512655649 0.21402074611464744 -0.28921919225238524 49 25 14
0.12135610739627815 0.21218791374196203 -0.2926842569131606 50 26 15
0.1175970638964403 0.20964461022214675 -0.2963533856376095 55 30 19
0.12306596493745975 0.21361236813728232 -0.29825754786140896 50 25 15
0.12435233956922664 0.21462884265321786 -0.3009570011835137 41 19 10
0.12424795485740833 0.21466416713050057 -0.3039263310684166 63 43 37
0.12056975907572726 0.21217890890689728 -0.30760707954858874 61 44 39
0.12528431106599505 0.2156130987449705 -0.3096199641562315 65 43 35
0.12620115816250857 0.21636864822798516 -0.3123848586232739 45 17 7
0.12761119896891296 0.21747186153384768 -0.31504664794968834 49 18 6
0.12676504250440182 0.2169842377775414 -0.3181695364670604 57 25 10
0.13073895102627092 0.21989471622717144 -0.3202935639267401 63 30 13
0.13498546290357374 0.22299683295926467 -0.3223463601959095 66 31 15
0.13442893471577716 0.2227131319867932 -0.32540212390072637 66 32 17
0.13242951588198207 0.22141268018360044 -0.3287697265417203 61 29 15
0.12350062376473975 0.21522952020208055 -0.3336411940438362 53 26 16
0.12412105086878683 0.2157761629710215 -0.3364693207170484 35 14 8
0.12165517775191408 0.2141483550458097 -0.33997391037562513 28 11 4
0.12138533973770377 0.2140679664341658 -0.34300269667652133 44 24 14
0.11762587501491872 0.21152958737828526 -0.34681322667074166 46 23 14
0.11330639616981224 0.20859735106436994 -0.3507654552280003 45 22 13
0.10929432071440137 0.20588225755657208 -0.35466551537210694 42 20 11
0.12593385531291806 0.2177102678273368 -0.3538503617708747 36 16 9
0.11404948040570576 0.20945195985183848 -0.3595627329252589 35 16 9
0.11630408956045764 0.21114979586461768 -0.3620281126240661 30 15 10
0.11431568353438568 0.20986040094440594 -0.3654825544550617 20 7 4
0.11226304317841693 0.2085261162593886 -0.36896099405852695 31 16 10
0.11935685983708039 0.21362970317653268 -0.3702653117545859 39 21 12
0.1212727545996962 0.2150883266497568 -0.37278946319144607 43 22 13
0.13174845543342273 0.22257014598660646 -0.37323150654361054 43 21 12
0.12530201805357372 0.21814383553734906 -0.3777709866002766 42 22 13
0.12882316289126808 0.2210606579023866 -0.38879929417211934 63 35 24
0.13174677985559224 0.22322665531994063 -0.3910317693695615 60 29 18
0.13486783436503885 0.22553111705698245 -0.39320364406387437 56 25 14
0.1364266176590866 0.2267367154383998 -0.3957675704411409 55 24 13
0.14284435395018902 0.2313582143143646 -0.39706428891036283 59 27 14
0.14753173775206485 0.23476244543004174 -0.3987903634443422 59 27 14
0.16056575311186075 0.24403295119777169 -0.398298931640306 59 25 11
0.15864559971267586 0.2428994439592363 -0.40465595114521513 81 53 42
0.154703973461205 0.24023784665348913 -0.40864507234488257 111 89 77
0.1504730866546477 0.2373736130055369 -0.41272904260447835 71 41 23
0.14747401802344895 0.2353754391872276 -0.4164938490553531 69 31 13
0.15274173942293126 0.23918498055672305 -0.41799620712933283 66 27 9
0.1602763666994258 0.24458610522445717 -0.41885112230310995 67 29 10
0.1594340391819018 0.2441027598685893 -0.4220159525730297 68 30 11
0.15783893807386026 0.24309093121541359 -0.4253967347098494 70 32 10
0.15814229235293784 0.24341245590728666 -0.42824768216386966 70 33 10
0.16021534383322028 0.24497652331975012 -0.43059446882696295 70 34 14
0.14944671918289143 0.23752483316437378 -0.43661755778004163 76 42 23
0.10305718275565556 0.20552026782044555 -0.46516604649717114 65 37 20
0.09619615505829894 0.20081920585769636 -0.4702659032720663 67 39 24
0.097503141159025 0.2018494370576704 -0.47294013171784777 62 34 21
0.09830211010414466 0.20252316305205734 -0.47576408390820507 57 30 17
0.09686826141278074 0.20163070766861446 -0.4792654934698603 56 29 16
0.09839356255986753 0.20281385603705254 -0.48186760668860634 50 24 11
0.09758993327671123 0.2023636389040104 -0.4851826438492556 51 24 13
0.096089091718637 0.2014247033790803 -0.48871821351330946 50 23 12
0.0954573006800856 0.20109533614888508 -0.4919896701106784 46 19 10
0.09515328552966575 0.20099589107571142 -0.4951618917062711 46 19 10
0.09495479505571394 0.2009705049881519 -0.4983031800906015 50 23 13
0.09581470020479876 0.20168702543901032 -0.5011100384465691 50 23 13
0.09857113957089092 0.2037326177288461 -0.5033082404603857 51 24 12
0.09683694053611984 0.20263100201139977 -0.5069418240275837 51 25 12
0.09638736435728823 0.2024298000056221 -0.5101675470600993 51 25 12
0.09530675532638437 0.2017865967496445 -0.5136017458625688 52 26 12
0.09377789622498989 0.20082957595216844 -0.5171882334573717 51 24 11
0.09521134372630992 0.20194783095002708 -0.5198056633618022 52 22 11
0.09654786701841753 0.20299803895074903 -0.5224508568054373 52 22 11
0.09749368430961677 0.20377447757249884 -0.5252223438638622 53 24 11
0.10173627264038365 0.20685940419802384 -0.5268855770567372 55 25 11
0.10256270386886465 0.2075518303378524 -0.5296859618645909 58 28 13
0.10022687569274216 0.20603025228673968 -0.5335573703376162 57 27 12
0.09775885067488366 0.20441651426084653 -0.5374842558906231 56 26 10
0.09666301988189702 0.20376366722242278 -0.5409510393804243 55 26 11
0.09933043341916781 0.20574489372287713 -0.5431242957403781 55 26 10
0.09310960286566798 0.20150560007164967 -0.5483739034204288 54 25 10
0.09899396787791376 0.20573784605937134 -0.5494230659794626 55 26 11
0.09921822841987753 0.20600904520765467 -0.5524374935929 55 26 11
0.09110973796505514 0.20045063339798314 -0.5583939851633428 55 26 10
0.09269552726800266 0.20167489441452857 -0.5609421292689493 56 27 11
0.0926573833812115 0.20176309693716793 -0.5640649584950693 56 26 11
0.09292863770951981 0.2020677396446388 -0.5670781285905206 54 24 10
0.09262531095594903 0.20197057635552315 -0.570298827691571 54 24 10
0.09360065943897061 0.20276760529027282 -0.5730579997239845 57 26 10
0.09193619679775947 0.20171886551360435 -0.5767776056125334 61 30 11
0.09614183787818052 0.20477417898966083 -0.5783519930618687 64 33 12
0.0945161545569394 0.2037526958100107 -0.582061330656549 64 33 12
0.09506517498973158 0.2042515052506275 -0.5849721247687404 64 33 14
0.09613917252055709 0.2051171756216785 -0.5876863538531507 64 32 14
0.09799200375576125 0.20652698861301025 -0.5901058101062467 63 32 13
0.10049968337385032 0.20839414155599087 -0.592272584172758 65 32 14
0.100999329536471 0.20885804358126003 -0.5951909306989237 66 32 13
0.10303868397224972 0.21039753833958463 -0.5975226012635794 64 31 12
0.10428382936848787 0.21138201579058935 -0.6001512778226294 62 29 10
0.10229637086991517 0.21010857477966538 -0.6040192253103427 60 29 11
0.09974002372949438 0.20843817586704244 -0.6081161201804561 59 28 10
0.09824413481024385 0.20750870855766143 -0.6118124171755811 59 27 11
0.09630282980903648 0.20626850629703222 -0.615689771043562 58 27 11
0.0967946344186908 0.20672730669202932 -0.6186212880178423 59 27 12
0.09391549829304403 0.20483290867507103 -0.6228815371165557 58 26 11
0.09303600817072051 0.20433473632678972 -0.6263618517857423 58 26 11
0.09317218762655163 0.20454560492623247 -0.6294423230516141 56 26 10
0.09397712185164794 0.2052231949352733 -0.6322557978617322 54 25 10
0.09417811368845644 0.20547929250153946 -0.6353103025682955 53 24 10
0.09597720772722684 0.2068504194263929 -0.6377191938484417 52 23 10
0.09712851703737563 0.20776941063711882 -0.6403853774189487 52 22 10
0.09785928789806918 0.20839492714028243 -0.6432199315140071 51 21 10
0.09738863554764836 0.2081824015466453 -0.6465456922499627 51 20 9
0.0986548985213346 0.20918134607867356 -0.6491586088444193 50 20 9
0.10261349585329146 0.21205763433977842 -0.6506526152653754 49 21 9
0.10179144149730537 0.21159998043627365 -0.6541217514791444 48 19 7
0.10147877415771434 0.21149763671099167 -0.6573824004968656 51 22 11
0.09902912645356989 0.20990564550570154 -0.6615433991930563 51 23 10
0.10050122601546577 0.21104771567848976 -0.6640598757185393 50 22 9
0.10197117043711501 0.21218811392946435 -0.6665726697270324 50 22 10
0.10218723931560103 0.21349883977897702 -0.6978791230619601 49 21 9
0.1119092336100618 0.22038323662183365 -0.6966893233471714 49 20 8
0.11457202544686723 0.2223523851248165 -0.6986248376293285 48 20 7
0.11524067256127765 0.22293322442579944 -0.7014484349005298 48 20 7
0.10613073841283684 0.21670865712377468 -0.7086910545622398 49 21 9
0.10935387515523538 0.21906770983798876 -0.7103715040432154 49 21 9
0.1109317693362505 0.2202815776120852 -0.7127906381798506 48 20 8
0.11297080815953042 0.22181608755035234 -0.714993485542876 47 19 7
0.12009661122374515 0.22688894506889434 -0.714849203281374 47 19 7
0.11260347505179821 0.22295352798330098 -0.7528623418079154 47 19 7
0.11275738593569071 0.22317684694204284 -0.7559377816707837 49 21 9
0.11476173589499375 0.2246856606309508 -0.7581142331662533 49 21 9
0.11213377360895654 0.22297657395594928 -0.76254533444241 51 23 10
0.11395452512036389 0.2243577140806487 -0.7648075116001918 51 23 10
0.12009864760083723 0.22874104137044554 -0.7649355603395847 51 23 12
0.11939987743483912 0.22837188967067354 -0.7684221255145369 50 22 11
0.12095336925059658 0.2295666607933299 -0.7707950783458167 47 19 8
0.121051417503769 0.22975082426127816 -0.7738882424873769 47 19 8
0.12195051018462089 0.23049107498581423 -0.7765815218832903 46 18 7
0.13073805596567106 0.23670651750105398 -0.7753099460336215 44 17 6
0.1275958364936749 0.23464128086974637 -0.7800207389219168 42 15 4
0.12911933476113346 0.2358142812321712 -0.7823829764430057 42 16 5
0.1322374642636412 0.23809355741213262 -0.7839296379067396 43 18 8
0.13453437298258222 0.2398026602737819 -0.7858841024719054 41 18 8
0.13699405292135686 0.24162438298129513 -0.7877471243746355 39 16 6
0.13995866751589256 0.2437960268175525 -0.7893416823867563 40 17 7
0.1401252538691624 0.24402666060928846 -0.7923706173450955 43 18 8
0.14199572378565203 0.24543894149320272 -0.7945166628610857 45 19 10
0.1418444132821526 0.24544905663315741 -0.7977087920295763 46 20 11
0.1419594339255161 0.2456438990092688 -0.8007636215245667 46 20 11
0.14304548341577103 0.24651195079275068 -0.8033098521014622 46 20 11
0.1396631145383156 0.24428242478129697 -0.8082061053380482 46 20 11
0.1423347324775874 0.24624955998669698 -0.8099168995513418 46 20 11
0.14178654570626875 0.24598488876929275 -0.8133268063148311 48 21 10
0.14398511527670443 0.24762375119322633 -0.8152769609037996 48 21 10
0.15096750195914982 0.25257698593479505 -0.8146612896219625 49 21 11
0.15016421837231342 0.2521351950210644 -0.8181977087052464 49 21 10
0.14412824083173964 0.24806868034388468 -0.824558138520707 50 22 11
0.145427483723749 0.2490839617795118 -0.8269771080663535 50 22 11
0.1475912128681468 0.25069782774183297 -0.828922729254029 50 21 10
0.14866645248311075 0.2515576213287939 -0.8314539510275958 51 22 11
0.15155790092452373 0.253674911580548 -0.8329886461544717 53 24 12
0.15253970967102573 0.2544696498427933 -0.8355612218025257 52 22 11
0.1544734915295269 0.2559233256003717 -0.8376064732377742 52 21 10
0.15635419593280958 0.25734001558725594 -0.8396744523398956 56 23 11
0.16024511303296984 0.2601478097821481 -0.8406200854869759 57 24 9
0.16134848057260978 0.2610259093385146 -0.8431042333713035 58 25 8
0.16557074449039172 0.2640621195568364 -0.8438409955413374 61 26 7
0.1656802087796385 0.2642520519234557 -0.8468701062568369 72 34 13
0.16706179093117796 0.26532210896373626 -0.8491834359467466 77 38 13
0.1675024222337995 0.2657410926698334 -0.8520243379874127 81 44 19
0.1677924549931616 0.2660558897304405 -0.8549501430950869 87 54 29
0.1677237628707289 0.2661225925900693 -0.8580802924775691 87 58 36
0.16818427563549307 0.2665553143242276 -0.8609095445882304 87 60 39
0.16771942083525887 0.26634816186299515 -0.8642689061672288 88 61 40
0.16733198890798195 0.26619465501112793 -0.8675868691910418 87 60 39
0.15971977389458264 0.26104672829009384 -0.8750810290176347 84 57 36
0.15985208215571908 0.26125323912368126 -0.8781182254079269 83 55 34
0.15756873136293947 0.2597901870848165 -0.8825614508776805 84 56 35
0.154818243485062 0.2580047007277573 -0.8872880377935588 84 56 35
0.15433958422849783 0.2577895149873643 -0.8906962351607325 80 52 31
0.15325437779009451 0.25715537034376507 -0.8944642702430302 78 48 27
0.15093073812258698 0.2556658671129951 -0.8989686769353289 75 44 23
0.15041472906440653 0.25542542708903 -0.9024137622049151 72 40 18
0.14908873081417615 0.2546256555882874 -0.9063434500787633 73 39 18
0.15050557058345498 0.25572039509305405 -0.9086447685677889 81 50 24
0.14857520716363717 0.25450357181784533 -0.9129438240890899 87 58 34
0.14946548423714345 0.25523465450100047 -0.9155590063613875 89 62 39
0.1484403941529509 0.25464329343271414 -0.919325465802636 88 60 38
0.14893553188928518 0.2551015745949997 -0.9221786431258626 81 53 33
0.14726467840717755 0.2540647732080512 -0.9263446148427625 81 52 34
0.15163711043908534 0.2571991333153404 -0.9268413953545563 78 50 36
0.14963972011381324 0.2559371368012036 -0.9312106378564934 61 33 22
0.14392999299687675 0.252113937244005 -0.9378637255112982 46 21 14
0.14147614006034848 0.2505379994429736 -0.9425403054220902 39 18 11
0.14725121125573765 0.25463928079947956 -0.9421529879913568 37 15 8
0.14881513579726413 0.255834952482192 -0.9443490947645528 37 15 7
0.15026953220694333 0.25695489071885347 -0.9466080325249884 42 18 10
0.15239087781803767 0.2585346022772232 -0.9484467534266955 45 20 12
0.1542127548683517 0.25990753762010854 -0.9504651655583134 50 23 12
0.15482442551188472 0.2604458328915821 -0.9532362617470588 62 38 26
0.15676271258649693 0.26189865166781434 -0.9551714261767634 71 50 39
0.15926345409108744 0.2637389343300425 -0.956744793166871 81 63 55
0.16192307941136774 0.2656883916732989 -0.9582084541352376 85 69 62
0.1704541273593382 0.271683898472866 -0.9559316281618696 86 72 66
0.170464932160015 0.27180690022331394 -0.9590521852964043 88 73 67
0.17075189962599863 0.2721202283968909 -0.961997357266983 85 70 64
0.1707216921216548 0.27221504537002306 -0.965146130414839 82 67 61
0.17123373230216649 0.27268344892020185 -0.9679472603463711 87 72 64
0.17301850099454752 0.27402845946583915 -0.9699256280833247 92 77 70
0.1758585893018699 0.2761000520075277 -0.9712141461239517 93 78 71
0.1775181568356622 0.2773583100419077 -0.973259412186882 89 75 66
0.17896660432784928 0.27847099225648086 -0.9754367095364727 96 82 72
0.17930704530315664 0.2788206597793887 -0.9783340201059549 103 89 80
0.18228883858321776 0.28098863443311345 -0.9794979440005702 108 92 84
0.18367547283399863 0.2820582094264395 -0.9817007861141307 103 86 78
0.18506019502375284 0.28312630211575557 -0.9839003892374313 97 78 71
0.18755991414114437 0.28496153713046973 -0.9853568644187358 96 78 69
0.19045337774553106 0.28706736715013387 -0.986542529694464 93 72 64
0.18940114370499334 0.2864580921509487 -0.9903476951733922 88 65 53
0.19030913514839154 0.28719754331510705 -0.9928477019947606 80 53 35
0.1918621728027698 0.28838060453643183 -0.9949124944461648 76 42 21
0.1938639358512272 0.28987209978998807 -0.9966701296538999 73 34 10
0.1956625190507213 0.2912236045722435 -0.9985578146882736 69 27 6
0.19695919763584055 0.2922297535251002 -1.0007790788030013 68 25 5
0.19808605404831164 0.2931189873014887 -1.0031115294014687 66 22 2
0.19946741963651715 0.2941830628216029 -1.0052671505390363 66 21 2
0.200142480817172 0.29476145900774553 -1.00790091670514 70 25 4
0.20146697391728874 0.2957861660984631 -1.0100879765105182 75 30 4
0.20219734954336807 0.296402411617829 -1.0126792412089969 76 30 2
0.20282833049499785 0.2969502903806593 -1.0153372639836213 78 31 2
0.20520549293265444 0.29869790015424075 -1.0167860128510466 85 38 8
0.20529100516456916 0.29887079890398316 -1.0198160915626582 89 44 14
0.205444023402124 0.2990901035839012 -1.0228001046350996 89 45 16
0.20740379851022575 0.30055041356009177 -1.0245235668808452 86 42 14
0.20817998040445296 0.3011976000262983 -1.0270687467001764 86 46 18
0.20985167460435997 0.30245966201747365 -1.0289830734896388 89 52 24
0.20840355559130788 0.301579375460198 -1.0330890593430704 91 57 30
0.20631951655067265 0.3002627730977091 -1.0376516537763345 92 59 35
0.20867605005724954 0.30199485125624037 -1.0390779271060797 91 58 35
0.20640225123826894 0.30054839694668967 -1.0437861262583368 89 57 36
0.20608657046273388 0.3004462236496695 -1.0471095088200304 89 57 36
0.20368210360061714 0.29891075040896187 -1.0519287087137295 82 51 30
0.20503724961304343 0.2999553809931387 -1.0540637715556225 83 53 32
0.20544917794053916 0.30035272657267315 -1.0568726562541197 88 58 36
0.20908767238741194 0.30296348100007586 -1.0573541021931085 92 63 40
0.2066569744608644 0.30141072022920756 -1.0622113539872904 91 61 38
0.20565010028019393 0.3008349076044965 -1.0660472851919554 91 60 39
0.20401327212443726 0.2998272983414872 -1.0703470639136798 89 58 38
0.20326353255054036 0.2994282584286051 -1.0740077884358261 84 53 34
0.19956240606411452 0.29700588234852565 -1.079832667452555 76 45 28
0.19867480399570273 0.2965128934365346 -1.0836097255339838 73 44 28
0.19923315613603937 0.2970112259642693 -1.0863276289525394 66 41 30
0.19976088634107617 0.29748853147084653 -1.0890670657009374 46 22 11
0.20026366039548021 0.29794869986693695 -1.0918240357100604 46 19 9
0.19988316951171128 0.29780360739682177 -1.0952358538757183 48 19 9
0.1978567707291211 0.2965309437160193 -1.099875891974854 49 20 10
0.20138792859546334 0.299065918977873 -1.1003766624398297 49 19 10
0.20138011291919172 0.2991762481464446 -1.1035133840336948 49 17 6
0.2009808327490266 0.29901851021027553 -1.1069453564062022 59 22 7
0.2003230493699597 0.2986838528281643 -1.1105749608424442 64 25 7
0.20612656884631297 0.3027737160505859 -1.1093299295716992 73 36 14
0.20778398090074368 0.3040239995642614 -1.111200944423932 79 43 19
0.20757102777851272 0.3039936340568219 -1.1144864138089154 76 43 25
0.2087212693450698 0.30489647464142866 -1.1167360863686056 76 43 27
0.21012050948889088 0.3059696055637736 -1.1187920335271246 81 48 30
0.2087683916573341 0.30515965609344736 -1.1229500381567368 86 54 35
0.2088037089608874 0.3052993576100035 -1.1260497823895486 87 57 37
0.20750126369460842 0.3045238062442438 -1.130180697175328 86 58 39
0.20587144214160363 0.3035245433259994 -1.1345712252070808 84 57 38
0.2080021131722519 0.3050979167464434 -1.1360585469198732 84 58 39
0.20499750447205475 0.30315866470381636 -1.1415248811257492 86 61 41
0.20312968487363034 0.3019973657611291 -1.1461203610161792 80 58 41
0.1987048006030191 0.2993212554805355 -1.1590374390611924 101 93 80
0.20085673696021272 0.30090901203177234 -1.1605038790773268 139 135 127
0.2018176530842995 0.3016824281112773 -1.1629023475962845 163 162 159
0.20496754161856226 0.3039517061217764 -1.1635658700983806 175 176 173
0.03144417678095937 0.12910366172570753 0.12152071709407243 182 181 182
0.052058840890487554 0.14400375162378612 0.11709842700412672 159 152 148
0.06015549042644801 0.1499200211793657 0.11361580398216795 130 111 101
0.08777362913178433 0.17004983346595717 0.10312357901892005 121 85 62
0.08875917778406021 0.1708617347248495 0.10020022099582974 117 80 54
0.08622255427199992 0.16914770123600076 0.09749147958519558 106 74 48
0.09108939388311976 0.17274277660543727 0.09433989283333033 96 65 43
0.09162427839824372 0.1732312595888358 0.09145007902185416 94 64 42
0.09161987416266842 0.17333308043960421 0.0885906694439818 97 69 47
0.09183217307145716 0.17359028829504397 0.08571866043683733 99 73 50
0.09247522861382963 0.1741562727861155 0.08282426088263296 97 71 48
0.0914176797975 0.17350333858625633 0.08001512262721015 94 68 45
0.0905632142444591 0.17299612712754897 0.07719140175822145 94 68 45
0.09051830302816244 0.17306919349590438 0.0743264189754397 95 68 45
0.09022364512653504 0.17296335492284434 0.07147116424026317 94 66 44
0.09378979273191274 0.17562372522791758 0.06845087469332062 89 61 39
0.09373715258721571 0.17569117018577096 0.06558850367362182 88 60 38
0.09275532532528125 0.17509305637839848 0.06276068217941447 89 61 40
0.09034152881806881 0.17346944379418028 0.05998084467088292 89 61 40
0.09213604939124416 0.1748601832126215 0.057044099526008876 90 62 41
0.09222644720204688 0.1750303473781457 0.05416922163952444 90 62 41
0.09316307820598223 0.17580649835360124 0.051267064515671784 89 61 40
0.09692402267482073 0.17860477071174174 0.04828385676128731 91 62 41
0.09546860857394221 0.17766802242205987 0.04545766485715817 92 64 43
0.09467523583113707 0.17720544112704092 0.04260795787885939 93 64 43
0.0943953472348415 0.17711055749518967 0.03974191232477432 93 65 44
0.09372658354224728 0.17673742105637502 0.036882401760918344 92 64 43
0.09311569121442681 0.176405830837832 0.0340181765994285 94 66 45
0.09319686662293779 0.17656960572265445 0.031137742781983398 95 67 46
0.09205058751555376 0.17585512681804383 0.0282771209623849 97 69 48
0.09144464698298657 0.1755274352320607 0.025403129675262467 92 64 43
0.0923841372406421 0.17630546467360958 0.02250548517254467 88 60 39
0.09232229784276921 0.17636712602527893 0.01962151023540052 85 57 36
0.0936491855655768 0.17742214455339236 0.01672297872840616 85 56 38
0.09320622048535893 0.17721123047314213 0.013841801470350565 86 57 39
0.09243321233585192 0.17676439213243966 0.010959842229285179 86 57 39
0.09276876729523018 0.17711039217685376 0.00806945944652539 87 58 39
0.09271907334735774 0.17718093599246595 0.005180050291989341 87 59 38
0.09286204792214361 0.17738927187618686 0.002289270425634496 91 63 42
0.09300508458870349 0.17759767378939395 -0.0006020988981712307 93 65 44
0.09314818334703731 0.17780614173208728 -0.00349405767942804 94 66 45
0.09178461489306149 0.17693777159532928 -0.006394241526306382 91 63 42
0.0922708521334231 0.1773916121315618 -0.009287766911597651 87 59 38
0.0926149392674071 0.17774384851373765 -0.012181869431353694 85 57 36
0.09238129634731587 0.17768327511667012 -0.015081923935095169 86 58 37
0.09382709414165412 0.17882266932213073 -0.017963157853928016 86 57 37
0.09426543961814154 0.1792421923169749 -0.020854532115863435 85 56 38
0.09391692042291828 0.1790996187814703 -0.02375803831866347 86 58 39
0.09330972787562611 0.17877237313283753 -0.026668559567035215 85 58 39
0.0936912117319503 0.17915135532792908 -0.02956294292203709 82 56 38
0.09246628656612738 0.17838315018246975 -0.03249164009139018 79 53 36
0.09063341305501463 0.1771810406840377 -0.03544015341888854 77 51 36
0.08828313003455054 0.1756097936099273 -0.03840954918334473 77 51 37
0.09463876899936569 0.18025426364185726 -0.04115331067364314 76 50 37
0.09680771690811751 0.1819092248779015 -0.04399574531539205 75 49 36
0.09780673351104358 0.18272885148295898 -0.0468672620839698 75 49 36
0.08662094086629352 0.17485183076614202 -0.05013278203773567 75 51 39
0.08967961343475102 0.17714197266187587 -0.05295076964722448 78 54 42
0.09815577424845764 0.1832975870473444 -0.055562415874471444 78 56 45
0.09829528749589425 0.18350374600770425 -0.0584613034009601 79 57 46
0.10283774574963632 0.18685121272191724 -0.06118512530500139 76 59 49
0.11254605574731756 0.19388333986037742 -0.06367773035612843 92 78 75
0.11514007475717991 0.19583945936386446 -0.06644575161876269 74 57 53
0.11590390989027506 0.19648989354068663 -0.0692884615066666 75 55 50
0.11155489220286874 0.1934938777851364 -0.07237112506040377 101 84 77
0.11514523057041039 0.19626590109948341 -0.07796178046267756 99 80 75
0.12598411140970636 0.20409957270100373 -0.08027137466675559 69 42 32
0.12728583272187188 0.20513268236250048 -0.08306320546094162 63 29 13
0.12970544992227975 0.20696253939862233 -0.08578819023761877 58 25 9
0.12941739447663564 0.20686214972075861 -0.08866329492668755 52 21 8
0.13506226447699507 0.2109902736789087 -0.09118351660148713 54 22 8
0.13692820230234182 0.21242465950922618 -0.09391838594068667 65 35 24
0.13927352666827214 0.2142004293423882 -0.09661683612597734 88 62 55
0.1431098694473459 0.2170382759376993 -0.09920971105518644 93 64 54
0.14784086590224763 0.22051302427138786 -0.1017290312906392 90 57 46
0.1522488432595404 0.223757061890167 -0.10425436360846145 98 64 51
0.15317901861458613 0.22452330580879817 -0.10701236974299103 116 87 72
0.15669628128448942 0.22713206699062788 -0.10957882045416889 117 89 76
0.15983279521609547 0.22946923464681857 -0.11216188016336122 119 90 79
0.16444262299445866 0.23285515467219556 -0.11462119199202844 145 117 108
0.17078520254800478 0.2374742526687037 -0.11692813603449623 151 127 115
0.17526317217652498 0.24076500144855528 -0.11936282838903137 140 116 98
0.171186174243826 0.23796497949894713 -0.12248696859823119 105 71 50
0.17732179848791008 0.24243512582812615 -0.12476677930317992 89 45 15
0.1789674801934958 0.24370873990450093 -0.12741155927440784 83 38 10
0.17676845466059746 0.2422459450070213 -0.1303895582649886 75 32 8
0.17665062476651566 0.24226450558345564 -0.13318984281257976 72 33 11
0.17819780529732995 0.24346785923754732 -0.13583897069283535 68 32 13
0.17847048663014844 0.24376425918090552 -0.13860266501439117 63 31 12
0.17483614190941055 0.24128115315859436 -0.1417392323602832 58 30 14
0.17401577684198463 0.24080029260236574 -0.14461666936881643 58 32 18
0.17100290360389026 0.2387601054400724 -0.14771562180022435 60 38 25
0.17752306858460423 0.24350034063806275 -0.149863988515816 59 39 31
0.16768839656710488 0.23660915654147494 -0.15367157275961257 59 41 34
0.16613791929039587 0.2356100079789014 -0.15664927247619626 60 43 35
0.16610203503147725 0.2356879911341836 -0.15947239424091048 60 43 35
0.16861538833713113 0.23757835869515087 -0.16202023788316142 59 42 34
0.1689753043176045 0.23793761813642345 -0.1647973911321052 58 41 33
0.16714339382892823 0.23673892532206225 -0.1678202217870901 58 41 33
0.158780699623402 0.23100311531715806 -0.1744344933995295 58 41 33
0.16023535065480346 0.23214102084077864 -0.17710276200863456 57 40 32
0.17264932683275364 0.24106561140535607 -0.17845509099423038 55 38 31
0.16496770107091532 0.23571154536883218 -0.18220469462112143 55 38 31
0.1575300624811531 0.23053190013836114 -0.18595404081587663 54 37 30
0.15080680986220674 0.2258607578634594 -0.18964283761491177 56 37 31
0.14848388006367286 0.22431589847975442 -0.1927983517420064 58 39 33
0.15064404690139735 0.22595519849912965 -0.1953851764898826 59 40 34
0.15165680095048378 0.2267794532321149 -0.19811523428245628 57 38 32
0.1523861665361258 0.22740239208304058 -0.20088024082198583 56 37 30
0.15279256356506157 0.22779597279919755 -0.20368711998200184 54 35 28
0.14641969585673198 0.2233769178821844 -0.20741927500521337 52 34 24
0.14462032610454362 0.22220520735512117 -0.21054339641833314 51 33 25
0.14189491915138983 0.2203765172553448 -0.21380532550737574 50 31 24
0.14240149117807493 0.22084196746740736 -0.21661909154541556 50 31 24
0.13189614911026004 0.21477632340124803 -0.2559757177536517 53 33 24
0.13025945272346015 0.2137235642639004 -0.2591721255853483 53 32 22
0.1279084311029471 0.2121648618884666 -0.26249762766751716 55 33 22
0.12860972279651525 0.21276936253576306 -0.26530709765352894 54 32 21
0.12860664866031718 0.2128747511677826 -0.2682377918357892 53 31 20
0.12683821796173858 0.21172951596475398 -0.2714805862301495 52 30 19
0.1240567672830403 0.20986696540217162 -0.27491157119630477 51 28 18
0.12467625076468061 0.21041376188171224 -0.2777423378817959 51 27 17
0.12623446388717235 0.21162536144409905 -0.2804012324049719 52 28 18
0.13111582145857759 0.21519014283759302 -0.2824448685203948 51 27 17
0.13076955348054006 0.21505259513405267 -0.28544143880751943 50 26 16
0.1271774747410218 0.21261699898897773 -0.2890490812927123 48 24 14
0.13137812560312226 0.21569890695350052 -0.2911955355494905 50 26 16
0.12400565096435615 0.21058773790017798 -0.29554115864471375 54 29 19
0.12574358558536222 0.21192619836414228 -0.2981557925368889 50 26 16
0.11837407707464974 0.20692742232358777 -0.3055052802363056 63 44 38
0.12327198959130792 0.21050208389285008 -0.3074956555665412 69 52 46
0.1280393997966081 0.21398376799567376 -0.30949476642385415 70 48 39
0.12881056633588212 0.21463758931915755 -0.3122869674496188 46 17 6
0.13172414241360614 0.21680689511750226 -0.31463902628385404 47 16 5
0.13195957840160982 0.21708149540356708 -0.31753422692949834 59 26 11
0.1332440838361056 0.21809807474934517 -0.3202110375300851 66 33 16
0.1352117564063357 0.21959764885632338 -0.3227404193618273 68 33 17
0.13440078166839386 0.21913214037732007 -0.3258531801367414 67 35 19
0.13270880459561946 0.21804387125815194 -0.3291588504433104 66 35 20
0.12463279009351155 0.21244246662018584 -0.3338514097565463 57 31 20
0.1222041506722253 0.21083444691604158 -0.33734506275985804 31 13 7
0.12054027428706052 0.20976737888283037 -0.34068100976049426 28 12 5
0.12004543242342033 0.20952683046036902 -0.3437652146034377 44 23 13
0.11601107502928844 0.2067850048317831 -0.34764423842568665 46 22 13
0.11313492139726204 0.20486221441512759 -0.3512785666591034 43 20 12
0.10893661427119225 0.20200568558049362 -0.3552258829107292 42 20 12
0.11341906222077104 0.20539259358746642 -0.36019277601489286 36 16 10
0.11458832308353131 0.20632845595404486 -0.3629151644839227 28 13 8
0.11637837413679707 0.20770265036026045 -0.36548825917157945 20 6 4
0.11433539514654915 0.20636970419031817 -0.36896444680404156 34 18 12
0.11477506349456784 0.20679018961208592 -0.3718562755803626 42 23 14
0.11915303001501944 0.2099913756283764 -0.37379876219391667 44 22 13
0.1251567316289674 0.21433975858396548 -0.37533082940288764 44 21 13
0.12444550506018122 0.2139470670774074 -0.37848459898576753 42 22 13
0.12511890001243195 0.21486041900896272 -0.390250573422775 63 36 25
0.1304761368836218 0.21874996894263973 -0.39187348085163576 57 28 16
0.13442631426477886 0.22164611506633997 -0.39383757653314444 55 25 14
0.14088912113213978 0.2263142461870416 -0.39513882557373986 56 27 15
0.14107095984945126 0.22655112762305765 -0.39805033447766847 62 31 18
0.14719562015991022 0.23097946809008316 -0.3994048554629005 60 28 15
0.16293317024746584 0.24218622712899607 -0.3981991314521913 58 25 10
0.16094603041769498 0.2409995464682193 -0.4045722035185711 71 43 32
0.15665908379023055 0.23808461148223214 -0.4086547306402041 110 88 75
0.15235621571273217 0.23515910279671054 -0.41275928964274855 89 58 41
0.153271571421484 0.2360205008346942 -0.4183979367568676 65 27 9
