ply
format ascii 1.0
element vertex 660
property float x
property float y
property float z
property uchar diffuse_red
property uchar diffuse_green
property uchar diffuse_blue
end_header
-0.03293078815731662 -0.30119592648360133 -0.7029092984010191 196 196 198
-0.04238398520582052 -0.302174282560145 -0.7092914036970724 197 197 199
0.0483119249797816 -0.292302366463482 -0.6828364970896785 197 197 199
0.04073813486420549 -0.29307850368178723 -0.6885021925743474 198 198 200
0.1619161592619216 -0.2799114324091747 -0.6515288031442673 198 198 200
0.1595788335160426 -0.28012276750798576 -0.6552968176769115 199 199 201
0.15807392989902863 -0.2802438758601156 -0.658794845236302 200 200 202
0.36789401903795943 -0.2574940514835978 -0.5912647464121429 200 200 202
0.16713193623787206 -0.27918006450918786 -0.6617328448787381 201 201 203
0.14030747040042957 -0.28199802282874054 -0.6768501392052295 202 202 204
0.20093476281664507 -0.27539966400733096 -0.659115813060087 202 202 202
0.18719186254784106 -0.27684451121873865 -0.666779787328205 203 203 203
0.14655588550995913 -0.28119567680179886 -0.6837851986525567 204 204 204
0.3507958641134546 -0.262243024067243 -0.5728384797927633 195 195 197
0.42026661200497023 -0.2545700682316406 -0.5530522175110667 195 195 197
-0.031246692639059985 -0.30415331954344277 -0.702381187227103 196 196 198
-0.038452241271964546 -0.30489963234682294 -0.7080260854641178 197 197 199
0.02564655605870341 -0.2978127910290911 -0.690292842194356 197 197 199
0.037500108528702 -0.29646676527685456 -0.6895871748608168 198 198 200
0.16503893076377518 -0.2823770702779864 -0.6534939768020814 199 199 201
0.3346980347546946 -0.2636761663298101 -0.6024360518103858 200 200 202
0.33906896169441636 -0.26312173616559 -0.6063894050058236 201 201 203
0.12545304781891764 -0.2865127194193177 -0.6819272538063903 202 202 204
0.17992428439230038 -0.28049766565726536 -0.6663242053737309 202 202 202
0.157244594689658 -0.2829431503598788 -0.6770964248074304 203 203 203
0.1555328572083312 -0.28308933942075165 -0.6806934809837593 204 204 204
0.38877868451239517 -0.2605699302007277 -0.5606295762193017 194 194 196
0.4155043463313305 -0.25755621114453037 -0.5546080366232948 195 195 197
0.365923253407717 -0.26304474201955286 -0.5733052564528417 196 196 198
0.03201063394632213 -0.3001580477524448 -0.6882218213663435 197 197 199
0.2911707796333021 -0.2711453967578326 -0.6142951605348375 200 200 202
0.36837962721370454 -0.2625175426019432 -0.5911268687462315 200 200 202
0.3760108866565261 -0.2616324147009866 -0.5912132800327845 201 201 203
0.3740822721621104 -0.26181078081867587 -0.594520336481341 201 201 203
0.11463900847356207 -0.2906222908948473 -0.6856271082632431 202 202 204
0.15932381157698686 -0.28561291351977763 -0.673392437720825 202 202 202
0.1319511850320162 -0.28861445266712155 -0.6858120143937939 203 203 203
0.13120271273902617 -0.2886561625610677 -0.689115903743601 204 204 204
0.4025929898822169 -0.2615113284643064 -0.5561992185158929 194 194 196
0.41482475805081676 -0.26009489547750414 -0.5548433516802161 196 196 198
0.3639307730674257 -0.26580708594148644 -0.5739684634667162 196 196 198
0.37242024437257315 -0.26481282283357754 -0.573859329688635 197 197 199
0.403653742180979 -0.26118163347741613 -0.5714654606960935 199 199 201
0.41469178060774314 -0.2598665829183978 -0.5729824508972812 200 200 202
0.37323930261761845 -0.26450636181335774 -0.5895059161355573 200 200 202
0.3685000151357359 -0.2650049995578713 -0.593762270670024 201 201 203
0.3669340060781875 -0.26514570739290877 -0.5969578301424284 201 201 203
0.0968425739044346 -0.29555068345177066 -0.6917076121455561 202 202 204
0.13824628224982 -0.2908434725755888 -0.680624339360143 203 203 203
0.12487591595960204 -0.2923090256868359 -0.6882588208111471 203 203 203
0.08508615081602193 -0.2967499120061805 -0.7050703056063943 204 204 204
0.05321849588236446 -0.30029689031765944 -0.7192583225091083 204 204 204
0.39827040560933596 -0.2644863864721495 -0.5576066132610799 194 194 196
0.4213533393698635 -0.2618098827279042 -0.552747039269584 195 195 197
0.3917856145590686 -0.26515920878243504 -0.5649296465307269 196 196 198
0.3950875219007542 -0.2647466629095256 -0.5664703378756609 197 197 199
0.39464858573266937 -0.26476215487004323 -0.5692293375810727 197 197 199
0.39139734743113513 -0.2650992530133261 -0.5729182001635231 198 198 200
0.4047141678136404 -0.26354169699227775 -0.5711276369592347 199 199 201
0.407894000987186 -0.2631436085060139 -0.5726712296409593 199 199 201
0.41145011244028007 -0.2627026314451027 -0.5740797554267418 200 200 202
0.3501995385205636 -0.26966813036925186 -0.5972637419103948 200 200 202
0.3520093628244624 -0.2694255962871897 -0.5993443414467556 202 202 204
0.3587187997116975 -0.2686233875492893 -0.5997574830674888 201 201 203
0.0744066255042407 -0.3010620026592453 -0.6993701345439807 202 202 204
0.11671050821730224 -0.2961893338383427 -0.6880134760201236 203 203 203
0.10386541182090644 -0.2976152363442748 -0.6955010976750503 203 203 203
0.06427780690752613 -0.30209342105486114 -0.712275918891262 204 204 204
0.015582504511653078 -0.30760942994279783 -0.7323411034475024 204 204 204
0.42916374609328434 -0.2634227698847839 -0.5451213578285952 194 194 196
0.42170522939278465 -0.2642543259557021 -0.5500790709226508 194 194 196
0.425236679254619 -0.26381112928207695 -0.5515062825966253 195 195 197
0.3930183822038668 -0.2675129778753285 -0.564544224564375 196 196 198
0.39335524187569443 -0.26743962987660136 -0.5670510643760831 196 196 198
0.39937816197910264 -0.266707264626385 -0.5676913961778932 197 197 199
0.40242108291045836 -0.26632045997090853 -0.5692964238140406 198 198 200
0.4059276947837419 -0.265880046834055 -0.5707390521446017 199 199 201
0.4090946577668736 -0.2654791118334263 -0.5722845781643007 199 199 201
0.4106282400514773 -0.2652674707447602 -0.574367478320069 200 200 202
0.34045167299884743 -0.2733596856260342 -0.600553521102024 201 201 203
0.3425758827019118 -0.2730782738908962 -0.6025429964044519 201 201 203
0.3431396564023144 -0.2729775664595021 -0.6050562225156209 201 201 203
0.05745317900923512 -0.30600583310832374 -0.7051637365029338 202 202 204
0.09733093521709688 -0.30135002337818073 -0.694664319421418 203 203 203
0.0841191661655466 -0.3028379254182213 -0.7023085730026237 203 203 203
0.023851851114482632 -0.3097682561503503 -0.726263938734775 204 204 204
-0.026214986454653755 -0.3155163626869734 -0.7468696524387252 204 204 204
0.4344554514918746 -0.2652720049209932 -0.5408952735722435 194 194 196
0.42911448741438096 -0.2658666943476977 -0.5451532713694017 194 194 196
0.41338558999379027 -0.2676816752691302 -0.5527730313250516 194 194 196
0.3317852528111009 -0.27723416292860625 -0.5817522964951205 195 195 197
0.39494969310068034 -0.26978020379111284 -0.5639316962880666 196 196 198
0.3974228956854423 -0.26945595950959084 -0.5657372128888636 196 196 198
0.3957377404645904 -0.26962004660100447 -0.5689007793986673 197 197 199
0.4001802873989346 -0.26906471120832226 -0.5700495137205024 198 198 200
0.4067896474632275 -0.2682552247722393 -0.5704669610876729 199 199 201
0.4108578272219881 -0.26774420683727873 -0.5717105835655885 199 199 201
0.41398915390721347 -0.26734326509504613 -0.5732556783476354 199 199 201
0.32836158090979317 -0.27735470529096945 -0.6046308570443497 201 201 203
0.3409643732699863 -0.27584127398152397 -0.6030997542513796 201 201 203
0.344860899510965 -0.2753493184307547 -0.604484118239248 201 201 203
0.07678116383377687 -0.3067056635170179 -0.7017162544816553 202 202 202
0.06320504818323583 -0.3082563829953941 -0.70951819682642 202 202 202
-0.03066575445848601 -0.3192159490755957 -0.7451242662347077 204 204 204
-0.021230550921242076 -0.31806773452474796 -0.7451505640819973 204 204 204
-0.0876047031455834 -0.32993541092694045 -0.7005764492095493 193 193 195
0.43083759160374335 -0.2681316479166941 -0.5420649360757618 194 194 196
0.4177455142441935 -0.2696244706824586 -0.5513853928459951 195 195 197
0.3307663655706421 -0.27994070698990403 -0.5820981770409392 196 196 198
0.33682089059082343 -0.27918579214448075 -0.5828437069718779 196 196 198
0.3987892184101779 -0.2717805337841551 -0.5653057237964617 197 197 199
0.39728781275751407 -0.27192579099096514 -0.5684064214892086 197 197 199
0.4021654477610792 -0.27131248920337 -0.5694087485604432 197 197 199
0.4108855292051069 -0.2702425729818669 -0.5691230421590449 199 199 201
0.4138516906381346 -0.26985692282543244 -0.5707267189675662 199 199 201
0.4165917490806376 -0.2694982516647231 -0.572397556189309 200 200 202
0.3107681819902217 -0.2820394077239475 -0.6105585235562719 200 200 202
0.31508605028124653 -0.281491287016413 -0.6118533237277162 202 202 204
0.333056815965492 -0.27932162078179035 -0.6085020371534534 201 201 203
0.015578799956863967 -0.31694970528168315 -0.7226938953673171 202 202 202
0.029902251561486383 -0.31520802285080535 -0.7209915013059084 203 203 203
-0.05431827200119484 -0.3251640791128654 -0.7533142683546785 204 204 204
-0.05767671658886663 -0.32552001059321983 -0.7578211753591014 204 204 204
-0.08286239235262499 -0.33262061149112526 -0.6957412991975146 192 192 194
-0.09295198572244581 -0.33379500353733127 -0.7022868767786528 193 193 195
-0.021220679843595915 -0.32506242430080134 -0.6861798936254081 194 194 196
0.33130111613636853 -0.2824623251666469 -0.5819414556896153 196 196 198
0.33687691801179565 -0.28175641856566414 -0.5828412956830107 196 196 198
0.39696262112816183 -0.2744848109256197 -0.5659172613418332 197 197 199
0.40395696738726095 -0.27360957332319763 -0.5662316275740051 197 197 199
0.4055626905777629 -0.27338346700029315 -0.5683021719978989 197 197 199
0.4048677549327615 -0.27343439784551804 -0.5711310673093389 199 199 201
0.4146483287647582 -0.27222431400280667 -0.5704745252816001 199 199 201
0.41504708942943747 -0.27214374505296357 -0.5729270973648574 200 200 202
0.30662488068775573 -0.2851580041438044 -0.6119645736276177 200 200 202
0.3038797564682142 -0.28545351851903056 -0.6156512739486979 201 201 203
0.3210420862269443 -0.28335417098383686 -0.6125916069460705 201 201 203
0.03693969884472574 -0.3174896875484238 -0.7121987244090031 202 202 204
0.01817911216236721 -0.3197055138334304 -0.7218164769523517 202 202 202
-0.044243698110420296 -0.32717023668844925 -0.7465211781809669 203 203 203
-0.07394645160567415 -0.330699050701421 -0.7601131956706706 204 204 203
-0.09542075430418011 -0.3332376528463188 -0.7709429954230417 204 204 204
-0.0382055073414211 -0.3303731136378807 -0.6817410636925153 192 192 194
-0.04447724095679102 -0.33109800852107213 -0.6870107124128549 193 193 195
-0.04449272837371338 -0.331058871734572 -0.6903169456221132 194 194 196
-0.04706864448681908 -0.3313322498858067 -0.6944405932027745 194 194 196
-0.022439535840553734 -0.32828535683785437 -0.6898583540549487 194 194 196
-0.04297419630243214 -0.33075040584503834 -0.6997391637097534 195 195 197
0.33642994169620133 -0.28438743718398163 -0.5830024062313518 196 196 198
0.3368762417569778 -0.2842993892930351 -0.5855615256290673 197 197 199
0.4058862283249554 -0.2758504456501658 -0.5656126846142753 197 197 199
0.4061578609803922 -0.2757850559886785 -0.5681198163176815 197 197 199
0.41033892307107883 -0.2752430897946629 -0.5693312590938214 199 199 201
0.41424167409635726 -0.2747351987604185 -0.5706230466980494 199 199 201
0.2913856833708399 -0.2896402932049214 -0.6171011693285036 200 200 202
0.2936285033576799 -0.28933247236319376 -0.6191267784236456 201 201 203
0.018630440910978433 -0.32275419478567585 -0.7184553192494983 202 202 204
-0.003395126708421174 -0.3253961449731448 -0.7292202673997171 202 202 202
-0.08128739824628231 -0.33483877107730586 -0.7592830115722004 203 203 203
-0.10779400033359168 -0.33802330661174795 -0.7718285921307968 204 204 204
-0.037543752218756755 -0.33342903862899703 -0.6815560432913219 192 192 194
-0.04429410338175629 -0.3342231255058979 -0.6869752707627464 193 193 195
-0.04115495904917898 -0.3337947043364671 -0.6892800596977742 193 193 195
-0.0490260347673337 -0.3347269183197011 -0.6950859475141635 194 194 196
-0.020300935616045318 -0.33113734966009717 -0.6891938478024697 194 194 196
-0.048263903718896814 -0.33455160076327617 -0.7014624812605069 195 195 197
-0.05783535652887526 -0.33569319151217036 -0.7078706276708301 195 195 197
-0.06545958627840853 -0.33659392988070924 -0.7136772002921855 196 196 198
0.020833627857511396 -0.3258981334714572 -0.6888266822241849 197 197 199
-0.005441056035018356 -0.3291025311473198 -0.7006577034534291 197 197 199
0.2765502550076204 -0.29408361196371274 -0.6249085859903659 201 201 203
-0.02838842871177428 -0.33157256219184744 -0.7377955956631012 202 202 202
-0.055071794587524446 -0.3348211199921187 -0.7502741547434255 203 203 203
-0.13298214091647592 -0.3443817837282889 -0.7805504214797528 204 204 204
-0.045494734526266976 -0.33744000582660433 -0.6939815874979133 194 194 196
-0.03897724235726164 -0.33658499907251566 -0.695197826770739 194 194 196
-0.05176535589419729 -0.33814417579522077 -0.7026101576355452 195 195 197
-0.08094582912524018 -0.3417522152289058 -0.7153676870662034 195 195 197
-0.08766040836135383 -0.3425508763908025 -0.7209146621753553 196 196 198
0.011342405392142922 -0.33013656734206626 -0.6919457288305938 197 197 199
0.004414047905949722 -0.33096342409550805 -0.6974403373944025 197 197 199
-0.010319765808308609 -0.332765238637274 -0.7055328719004871 197 197 200
-0.012722860038439726 -0.33302607370326914 -0.7095861441957773 199 199 201
0.42674667138391575 -0.27803281169964394 -0.5716166346867821 201 201 203
-0.05178200429859839 -0.337623947291641 -0.7458232238102365 202 202 202
-0.11436324233160514 -0.3453919468150473 -0.7706933832960271 203 203 203
-0.04494635572542704 -0.34047969975699255 -0.6971310034960215 194 194 196
0.03801861527363862 -0.32990358462655395 -0.6768972312519678 195 195 197
0.02170006390234934 -0.3319301768874598 -0.6853779760360504 196 196 198
0.007487862466093502 -0.3336897082539242 -0.6932233599447779 196 196 198
-0.007680461546558083 -0.3355696109004826 -0.7014288043397301 197 197 199
-0.022075050032032445 -0.3373510865736357 -0.7094282293239798 197 197 199
-0.04256087861547308 -0.33990213808131003 -0.719493499688377 198 198 199
-0.00899136854465965 -0.3356190459086144 -0.7116215863692982 199 199 199
0.4068753827024486 -0.2829857260408233 -0.5783100907246677 201 201 202
0.43345227654357127 -0.27959656862300825 -0.5719306276550318 201 201 202
0.4135443466861732 -0.282081224472317 -0.5812447409673686 201 201 202
0.15393726513691847 -0.3147363570246907 -0.6813715213753136 204 204 205
0.15131893963966972 -0.315031069418771 -0.68528755753525 204 204 206
0.11095315587938992 -0.3236606039827582 -0.6472027266805755 194 194 196
0.11016429774260326 -0.32372570227811837 -0.6505137102910338 195 195 197
0.03440468008083321 -0.3333896160933975 -0.6780855716910147 195 195 197
0.019912978547113252 -0.33520742041361684 -0.685977719291735 196 196 198
0.003952533443941551 -0.3372126677490232 -0.6943967603444072 196 196 198
-0.010297868017869034 -0.33899845818818847 -0.7023060819276356 196 196 198
-0.027914407673849694 -0.3412144364649938 -0.7113721702933611 197 197 198
-0.0499510999708093 -0.3439952665665088 -0.7219604365996463 198 198 198
-0.018891558226085445 -0.33998303179576084 -0.7149354371389713 198 198 198
0.38823444913053856 -0.2878405311998638 -0.5845901549131878 201 201 201
0.4285320347935916 -0.28265692184119556 -0.573604539403317 201 201 201
0.39615995292336836 -0.2867655077113217 -0.5871566631906333 201 201 201
0.16497741401398552 -0.31621660456161005 -0.674578216233682 203 203 205
0.1364100603103959 -0.3198316613953697 -0.6874433142720399 204 204 206
0.12602587195522919 -0.3211226467463835 -0.6940843090569172 204 204 206
0.04849582230263482 -0.33462861341352246 -0.6703887964654549 194 194 196
0.03464669921333642 -0.3363860991357851 -0.6780263182636153 195 195 197
0.018606177011478056 -0.33842690131869485 -0.6864213261415443 196 196 198
0.0010955837709189162 -0.3406574836667903 -0.6953485706255864 196 196 198
-0.010164089828302095 -0.3420780006394715 -0.7022801435647618 196 196 198
-0.026898165325669653 -0.3442068520826708 -0.7110545458135669 197 197 199
-0.045671904530430824 -0.3465991100705077 -0.7205592618549395 198 198 198
-0.05032958448762434 -0.34716360275011865 -0.725423040689222 199 199 199
0.3460401674499992 -0.2958296998848798 -0.5960967397107086 199 199 199
0.371340024263728 -0.29252484225965314 -0.5902832468128203 200 200 200
0.37173521328803527 -0.2924429789466881 -0.5928039292166718 201 201 201
0.3784063392094834 -0.2915492766448051 -0.5931941462768671 201 201 201
0.38082013636360307 -0.2912064499400234 -0.5950158892343372 202 202 204
0.22750883423348345 -0.3110022577794138 -0.6501812895711903 202 202 204
0.14204300170486506 -0.3219847914264117 -0.6855071756278525 203 203 205
0.13290045845513213 -0.32313158723721436 -0.6917075032646769 204 204 206
0.04142858183759911 -0.3385600211114754 -0.6726838056138531 194 194 196
0.030891931118568267 -0.3399046889234345 -0.6792603175608556 195 195 197
0.015210748282412673 -0.3419230507285055 -0.6875440850804206 196 196 198
-0.0011027119523873766 -0.344023668973902 -0.6960852175471962 196 196 198
-0.010696094291813923 -0.34524339663237025 -0.7024727898156516 196 196 198
-0.03216268849471891 -0.34801786608953245 -0.7128089738135094 197 197 198
-0.046667282012434065 -0.34987981935426943 -0.7209064927642311 198 198 198
-0.025253554916892212 -0.3470381079774846 -0.7170875752217356 199 199 199
0.344363458506349 -0.29860989706746677 -0.5966710784669531 199 199 200
0.35698389739099745 -0.29692708156825887 -0.5951230880899466 200 200 201
0.36042863189101537 -0.2964456759505365 -0.5966358923199997 201 201 201
0.34753404468903665 -0.2981026635604271 -0.6036846652832946 201 201 201
0.20301381021866605 -0.31698225233455696 -0.6556611941328585 202 202 203
0.20945007373853047 -0.3161068263193135 -0.656380129564459 202 202 204
0.15091054124906664 -0.3237312814525349 -0.6794436029604541 203 203 206
0.1254236494809558 -0.3270304953042817 -0.6912653303977152 203 203 205
0.1268832628653769 -0.32680480446941224 -0.6938088153952928 204 204 206
0.025069023032844053 -0.34370779312770783 -0.6811636015820545 195 195 197
0.011958940639368785 -0.345409451484095 -0.6886202000940506 196 196 198
-0.005773511591127531 -0.34772317899593896 -0.6976297883576591 196 196 198
-0.014655894422796169 -0.34886362424809225 -0.7037908978439601 197 197 199
-0.03643329763103153 -0.3517121068070966 -0.7142355772207943 197 197 199
-0.05034770090908523 -0.3535182295726306 -0.7221438282582449 198 198 200
0.33491750867420644 -0.30242323363192225 -0.599845579203213 200 200 202
0.3419328937160494 -0.30146385109560436 -0.6001967989297701 200 200 201
0.3444805141551293 -0.3010962111416786 -0.6020361294353528 201 201 201
0.34688770281884984 -0.3007472410308316 -0.6039160022973605 201 201 201
0.17568874467512946 -0.32337648415599 -0.6649920573525723 202 202 204
0.1789519180232272 -0.3229112838450637 -0.6668410198785559 202 202 204
0.14190075452968945 -0.32778066781341764 -0.682556674372494 203 202 207
0.11898136214532115 -0.3307790221690389 -0.6935046109611397 203 203 205
0.11194050523620809 -0.3316760307224487 -0.6990107068723912 204 204 206
0.023960991539984766 -0.3468954210812732 -0.6815412812378754 195 195 197
0.009140247409389589 -0.3488466463288165 -0.6895555307777601 196 196 198
-0.005705520514307644 -0.35080069348775633 -0.6976259962041242 196 196 198
-0.019140289732833153 -0.35256512429165726 -0.7052813160256808 197 197 199
-0.030559626186316163 -0.35405902503815473 -0.7123153952377765 197 197 199
0.2890349300042223 -0.3111752485429175 -0.6124332492604302 199 199 201
0.33029441515859637 -0.3056182982750195 -0.6014061148492379 200 200 202
0.3285938099782021 -0.30581595814302986 -0.6046950745556836 199 199 201
0.32862847769366377 -0.30578119202530546 -0.607404134020969 201 201 201
0.3321889685849688 -0.3052743655500852 -0.6089172556785013 201 201 201
0.16393841402924736 -0.3277673610843979 -0.6690119134725292 202 202 202
0.1607948948440201 -0.32815506585656445 -0.67307407352579 202 202 203
0.1519997796810731 -0.3292990077020617 -0.6790925729881744 203 203 205
0.11382516684772936 -0.33437400247994997 -0.6952992474443932 203 203 205
0.10105168331628459 -0.33604907394787226 -0.702804511286951 204 204 206
0.02692953292962632 -0.34956757271728023 -0.6774112054519296 194 194 196
0.03617546942606537 -0.34827939020416215 -0.6776077571018163 195 195 197
0.006710517016200845 -0.3522386599352863 -0.6903644225729333 196 196 198
-0.008427113517378827 -0.35425512217617705 -0.6985337431776961 196 196 198
-0.027940551351680172 -0.35686402618610696 -0.7081889233687175 197 197 199
0.2795354441402386 -0.3151362623250006 -0.6128164330129247 198 198 200
0.32540378992877983 -0.3088627354108016 -0.6030562575231024 200 200 202
0.3105263046986465 -0.3108478323325836 -0.6107835830878179 200 200 201
0.3112028810838924 -0.31072624640425867 -0.6133040057309392 201 201 201
0.3123234373862933 -0.3105445620722265 -0.6156725540829391 201 201 201
0.14515809691604775 -0.3331444841723327 -0.6754293746236506 202 202 201
0.14933095812099878 -0.33254679228741163 -0.6770141788918449 202 202 202
0.13375048631485284 -0.33462264199945035 -0.6853860546474975 203 203 203
0.1006842265652893 -0.3390641574007386 -0.6998550414716171 203 203 203
0.08301930698767424 -0.34142063699316005 -0.709080010750782 204 204 206
0.004171922993223616 -0.35568657857911434 -0.6879835491434839 195 195 198
-0.00626017322915224 -0.3570816986366062 -0.6946012194224328 196 196 198
0.2851100704106555 -0.31705926577865085 -0.6081979423795993 198 198 200
0.3163491273169922 -0.3127501271224788 -0.6006263189132067 198 198 200
0.32005508480765077 -0.3122131623572174 -0.6021282579668191 199 199 201
0.30065498511392413 -0.3148406843394486 -0.6113528927998124 200 200 202
0.292451766497176 -0.31593431499695823 -0.6168747245855112 200 200 201
0.28416817000034433 -0.3170386608419903 -0.6224507143701201 201 201 201
0.2887687253308855 -0.3163788891844477 -0.6236804271715453 201 201 202
0.12693605089987614 -0.33850093646379187 -0.6816566949838798 202 202 204
0.1304648579613863 -0.33798530562124346 -0.6834906051482484 202 202 202
0.1160860318739861 -0.339920401352702 -0.6914784528957331 203 203 203
0.0943633427610531 -0.3428598604421819 -0.7020525966553711 203 203 203
0.06184730010315308 -0.34727524390964754 -0.7164463988764741 204 204 205
-0.015379155590932177 -0.3614291381337532 -0.6975856585950033 196 196 198
0.2784650534368263 -0.32068572162029174 -0.6048183574369437 196 196 198
0.26342612303586754 -0.3227394486241171 -0.612549688639616 197 197 199
0.18662924596134245 -0.3333465083882516 -0.6407066883076478 198 198 200
0.2758416227873579 -0.32096048747971867 -0.6140701846219064 199 199 201
0.2590147497761698 -0.3232609653971519 -0.6224756814043729 199 199 201
0.2706564929667801 -0.32161922436007434 -0.6214069898919784 200 200 202
0.26582347247177024 -0.3222586133322642 -0.6258426517962759 200 200 202
0.25879162125781713 -0.3232021970494665 -0.6310375649971951 201 201 203
0.26325381997359076 -0.3225546941776451 -0.6323540327157446 201 201 203
0.10602036178560666 -0.3442841965855395 -0.688802913536786 202 202 204
0.1121646443558764 -0.3434015069871075 -0.6897733833958404 202 202 202
0.0988996613208287 -0.3452043856968441 -0.6974065038384588 203 203 203
0.032358639384093536 -0.35437693328022224 -0.7235061818668614 203 203 203
0.2590823287191149 -0.3261434164383756 -0.6027046065935078 194 194 196
0.2763251569681359 -0.32366974068473175 -0.6027385209124384 196 196 198
0.2821969887026122 -0.3228183736744315 -0.6036146306838929 196 196 198
0.2641798534952821 -0.3253122928017914 -0.6123177342340014 197 197 199
0.2747986640959265 -0.3237962707685633 -0.6116301625446856 197 197 199
0.25806688738809247 -0.32610951189607323 -0.6199778440419241 198 198 200
0.24224400071479196 -0.3282949673998406 -0.6280767404138976 199 199 201
0.21439406789247445 -0.3321632121742354 -0.6402523467627604 199 199 201
0.24523654143857967 -0.3278168308889499 -0.6327792975480115 200 200 202
0.2426425270790498 -0.32815016749233167 -0.6365070093318977 201 201 203
0.24012177662836132 -0.32847315752635664 -0.6402190932183308 201 201 203
0.08195315038636641 -0.3505381042190568 -0.7001376690648555 202 202 202
0.07892665405387424 -0.3509290206925836 -0.7042940025718808 203 203 203
0.3052911358634281 -0.31921173861459534 -0.631896178677396 204 204 204
0.24536742116902927 -0.33076755665675883 -0.6071389720434143 194 194 196
0.24076257994673225 -0.33139045025894 -0.6114707841062136 195 195 197
0.22650579622350545 -0.33337954654987617 -0.6189571916262866 196 196 198
0.21484382030560184 -0.33500088356734264 -0.6256417027882 196 196 198
0.2002165396043696 -0.33704151562332196 -0.6333378890772068 196 196 198
0.2500119982079454 -0.3299648873256423 -0.6198239778619036 197 197 199
0.23520261056524672 -0.33203136203397066 -0.6275732314524545 198 198 200
0.2202083878216755 -0.3341234977624183 -0.6354319672023564 199 199 201
0.20603009815350004 -0.336099710288426 -0.643066114201521 199 199 201
0.22428638131449227 -0.33348757909978316 -0.6398384034513318 200 200 202
0.22024622320247508 -0.3340295017012704 -0.6440875368194081 201 201 203
0.21789913519317466 -0.3343318527341865 -0.6477757579103335 201 201 203
0.3007340475759467 -0.3225326803318496 -0.6279529391705392 203 203 203
0.29553288099255165 -0.3232395757112764 -0.6325193764020971 203 203 203
0.2826824731972556 -0.3250274091591924 -0.6397607416532181 204 204 204
0.23802615505975172 -0.3345200243670452 -0.6095208287763558 194 194 196
0.23455446294755966 -0.3349880718539582 -0.6134971014533352 195 195 197
0.18685389963028148 -0.34178366171736874 -0.6318699934144139 196 196 198
0.1826684181823 -0.34235287271154474 -0.6361734409499331 196 196 198
0.16882724527693632 -0.34430303745929725 -0.6436620418151808 197 197 199
0.1380214017664932 -0.34867901518249 -0.6567934174791049 197 197 199
0.21942135249597602 -0.33700826862875877 -0.6328205555433706 198 198 200
0.19816334546416575 -0.34001883537785593 -0.6427906835594471 199 199 201
0.18251735406021508 -0.3422263598929372 -0.6509506867958526 199 199 201
0.20909659297589 -0.33839707049268797 -0.6449605514184441 200 200 202
0.19519757824178213 -0.3403545385914476 -0.6525645974138017 201 201 203
0.205094241214686 -0.33891060228657266 -0.6521355955904138 201 201 203
0.27832352995632437 -0.32838811979910365 -0.6328765771809355 202 202 204
0.28472282368078117 -0.32744563981492747 -0.633475609121362 202 202 204
0.2919440373616799 -0.32638593531530635 -0.6337710774698301 203 203 205
0.2927740448050237 -0.32623939209788066 -0.6362650055036096 204 204 205
0.2229182761122025 -0.3394167641490831 -0.6144043038593151 195 195 197
0.21317869472726297 -0.3407965163016905 -0.6204327063543261 195 195 197
0.1384166948057321 -0.351576168175129 -0.6476408626354214 196 196 198
0.11441459530971593 -0.35501596742002733 -0.65849695791986 196 196 198
0.11950065882595895 -0.35425067362657475 -0.659877394045356 197 197 199
0.09300756631972384 -0.3580494082010715 -0.6716634578949778 197 197 199
0.07975759073278206 -0.3599335896611037 -0.6791434664011831 199 199 201
0.15941778487517283 -0.3483631932209659 -0.6586973164118646 199 199 201
0.1946557179886729 -0.34324323095341097 -0.6498310510035257 200 200 202
0.18979467030651914 -0.34391640452305394 -0.6544036893292324 201 201 203
0.1895522119379117 -0.3439223620133074 -0.6574248307781939 201 201 203
0.26075331183506845 -0.33358300728665563 -0.6389087125615657 202 202 204
0.26893906871332357 -0.3323731625073507 -0.6389201720774488 202 202 204
0.27577727166182037 -0.33135810462949306 -0.6393726799243059 203 203 205
0.28080119239588824 -0.3306051422970427 -0.6404347935432966 204 204 206
0.2886786034343731 -0.3294404728488532 -0.6404860508302175 204 204 206
0.19600977736702727 -0.34608212484206713 -0.6230889406953689 195 195 197
0.16422440203782207 -0.3506971661060336 -0.6362950603413786 195 195 197
0.09664962554136403 -0.3605390086066764 -0.6612431560532454 195 195 197
0.08235244766994541 -0.3625972803186947 -0.6689931486612934 197 197 199
0.06783854948837868 -0.36468675187429805 -0.6768606145656291 198 198 200
0.045830965437215404 -0.36787002996688356 -0.6872479544838167 198 198 200
0.1819715058932616 -0.3479615151839734 -0.6452680623952849 199 199 201
0.1752816195064107 -0.34890955888607744 -0.6504434322050388 199 199 201
0.134539526637265 -0.35482827933452554 -0.6670396998378403 199 199 201
0.17738428918343543 -0.3485451312892871 -0.6556537483996524 200 200 202
0.1768864401292979 -0.3485890506776515 -0.6587789716593596 201 201 203
0.2527554212693874 -0.3374057225824237 -0.6445025940435848 202 202 204
0.2602264708945762 -0.3362882861760574 -0.6447614499328371 203 203 205
0.2678425678842998 -0.33514991458919063 -0.6449472011066479 204 204 206
0.2743433590305987 -0.3341744243723626 -0.6454990265998336 204 204 206
0.18595292288139026 -0.3503400773762438 -0.6263461661397715 194 194 196
0.14077256818816924 -0.35698011352321635 -0.643903703673401 195 195 197
0.1379139921259142 -0.35737325114756924 -0.6478394605934259 195 195 197
0.07180027987515347 -0.3671000483351205 -0.6724595975040877 196 196 198
0.03352440957704338 -0.37271758301676694 -0.6881473071372597 197 197 199
0.16397544017347118 -0.3534137638012713 -0.6512505945881478 198 198 200
0.15527784872995581 -0.35466822163806144 -0.6571229414363324 199 199 201
0.12402784227768895 -0.3592484759073011 -0.6705732728896149 200 200 202
0.09935305669515966 -0.3628581491822066 -0.6819121790547382 200 200 202
0.163356207036151 -0.35339137153519523 -0.663364622318988 201 201 203
0.23494190455872543 -0.34272639106876723 -0.6506463121323813 202 202 204
0.24285374728277614 -0.34153296217231255 -0.6507805079010072 203 203 205
0.25739952482647627 -0.33936218277940955 -0.6485857608487287 204 204 206
0.25967843169090116 -0.3389993023163171 -0.6506272248766456 204 204 206
0.1636543914148565 -0.3564526288216267 -0.6335467529650993 194 194 196
0.13083194804608175 -0.36131822162439214 -0.6471393501899578 195 195 197
0.12738303376334353 -0.36180401827327224 -0.6512823915180247 196 196 198
0.047979059535428234 -0.37361146026734815 -0.6802631996911058 196 196 198
0.14625022288072811 -0.3589070117606111 -0.6541424787189161 197 197 199
0.1468773807494682 -0.3587853999155084 -0.6569356471387837 198 198 200
0.14166113793254262 -0.35953445925279925 -0.6616747653381932 199 199 201
0.13462039620434585 -0.36055517562434664 -0.6670422249291638 200 200 202
0.21586549745669018 -0.34842376694378013 -0.6427390158014814 200 200 202
0.14899054036278409 -0.35835794608525734 -0.6682327780231792 201 201 203
0.22796579402842507 -0.3464591530312421 -0.6559404117841555 203 203 205
0.2575585408951662 -0.34202677515050656 -0.6485408758756045 204 204 206
0.14332958624422515 -0.36233397143880647 -0.6401119891503965 194 194 196
0.14190734178723624 -0.3625205059387603 -0.6435723230902985 195 195 197
0.13966676939959977 -0.3628302082163357 -0.647304397929796 196 196 198
0.1374201434433558 -0.36314074687130843 -0.6510465967588462 196 196 198
0.1387625173321736 -0.3629109043990769 -0.6536182016816309 197 197 199
0.13169112575274278 -0.36394761867860786 -0.6589633306951691 197 197 199
0.12929706915677258 -0.36428010407081046 -0.6627808911545081 198 198 200
0.12400041621451474 -0.36504935418399476 -0.6675741926188217 199 199 201
0.12005149208214114 -0.365615624696994 -0.6719341629401916 200 200 202
0.20402736460924964 -0.3529515417034741 -0.6467344562148826 200 200 202
0.1355791787718898 -0.36322324269055006 -0.6727786490582581 201 201 203
0.3108191401118367 -0.33683178215326426 -0.6163049715517528 201 201 203
0.34603381457133386 -0.32926717910504755 -0.8503865125480209 216 216 216
0.3647105304862077 -0.3264570169507821 -0.8440870224464811 216 216 216
0.12256693923476364 -0.3683420014392042 -0.6468186551678067 194 194 196
0.11784941429381664 -0.3690320571912167 -0.651378022440936 195 195 197
0.1175898187474185 -0.36904403224783333 -0.6545032565618099 196 196 198
0.11850177613328339 -0.3688778438355674 -0.6572474492221956 196 196 198
0.1313379286729856 -0.36689864954064777 -0.6560733819759634 197 197 199
0.12180766288175668 -0.36832020966554757 -0.6622413392459954 198 198 200
0.11806009319775809 -0.36886241899229244 -0.6665229187392142 198 198 200
0.1109203899412725 -0.36992012500535665 -0.6719476568522987 198 198 200
0.1050653043678127 -0.3707823698263499 -0.6769660168867468 199 199 201
0.19243349207038996 -0.35747691070380966 -0.6506479119133649 200 200 202
0.08981055878841826 -0.37304495983474806 -0.6882594597613334 201 201 203
0.31612240593223295 -0.3363657398773724 -0.864849678220974 216 216 216
0.3649340286258035 -0.32898815446149776 -0.8439517703904427 216 216 216
-0.004031637887168267 -0.3906393292136815 -0.6908512325163884 195 195 197
0.012421138579621457 -0.38808391784622004 -0.688731937003962 196 196 198
0.10068715734389289 -0.3745013217596055 -0.6630878470158543 196 196 198
0.11668326761784592 -0.3720179388874796 -0.6609034405722813 197 197 199
0.11063332510418575 -0.37291976683443373 -0.6659455446226362 197 197 199
0.10629434616778449 -0.37355875196378835 -0.6704404754491766 198 198 200
0.09688121557715793 -0.374976507222721 -0.6766409111601194 198 198 200
0.09147503018087555 -0.3757789634016548 -0.6815307748436397 199 199 201
0.08259796055059851 -0.377113954424884 -0.6876063186265959 200 200 202
0.07555591263107964 -0.3781670807398057 -0.6930909305222434 201 201 203
0.10112544865843617 -0.3742158297795322 -0.6875263726969232 201 201 203
0.3140352166597539 -0.33932104124427026 -0.865833785679772 216 216 216
0.3634535131092934 -0.3317770658990306 -0.8446447510812799 215 215 215
0.3699636250649712 -0.33076225337592957 -0.8442202541024748 214 214 214
-0.010564585488077066 -0.3947503458030059 -0.6897440465048666 194 194 196
0.0019153970953837002 -0.39278663948675724 -0.6889453355720123 195 195 197
0.006173656672678145 -0.3920982348622888 -0.6907829494433109 196 196 198
-0.025277315548817264 -0.3969469902725634 -0.7042810475216058 196 196 198
-0.06844751452344067 -0.40361188598872555 -0.7217289831220424 196 196 198
0.1007680873205522 -0.3773490068966052 -0.6692178738009851 197 197 199
0.09380977978980956 -0.3784009286930319 -0.6745965989085034 198 198 200
0.08519040568472999 -0.37971012198043225 -0.6805518965218538 198 198 200
0.07888011669281683 -0.380661181794674 -0.6857625043321764 199 199 201
0.0731502777370006 -0.38152210183138424 -0.6907989368958889 200 200 202
0.06527248866109389 -0.38271570719582243 -0.6965805189748022 201 201 203
0.08586001728342649 -0.3794984057688202 -0.6927231575784505 201 201 203
-0.006681592968306373 -0.3972201851810666 -0.6885129760546377 194 194 196
0.002132580125277693 -0.39581239256290146 -0.6888942822320467 195 195 197
-0.003745715574129692 -0.3967052561244896 -0.6940285903080937 196 196 198
-0.0409908540920159 -0.40250869621536106 -0.7094362111500051 196 196 198
-0.004394372984614994 -0.3967515871036301 -0.7007076772029537 197 197 199
0.08915778605334398 -0.3820273341849558 -0.6792455411584001 199 199 201
0.0680627676764944 -0.3853021184433508 -0.6893993041316773 199 199 201
0.019059872818269822 -0.39294327762053505 -0.7090084861617579 200 200 202
-0.027923427349954302 -0.40026710906519436 -0.7280913435902561 201 201 203
-0.006936655947920756 -0.4003316582491926 -0.6886149755615749 194 194 196
-0.006009605437313138 -0.4001580309276965 -0.6915495296929808 195 195 197
-0.000322974964921105 -0.3992320704552435 -0.6929339016518429 196 196 198
0.0002678216333928743 -0.3991116830902122 -0.6959673085276868 196 196 198
-0.003277401784408801 -0.39964497419344014 -0.7003585997501852 197 197 199
-0.12463263136399186 -0.4187957486795267 -0.7436466990503994 198 198 200
-0.06608204638585008 -0.4095150578863249 -0.7276553327110538 198 198 200
-0.027526514861409147 -0.40334036626478315 -0.7246946049147758 200 200 202
-0.07672401399372959 -0.4110843856766806 -0.744599355480184 201 201 203
-0.12833440896330361 -0.4192082113346678 -0.7654803235819803 201 201 203
-0.0049036953862392554 -0.40307779518048487 -0.68797982265249 194 194 196
-0.00048064500455132636 -0.40234545923923626 -0.6897788191860666 194 194 196
0.0016741108925018428 -0.40197517582681463 -0.692302956760525 195 195 197
0.0042150766755439245 -0.40154331703162405 -0.6946951810810783 196 196 198
0.015113531303700103 -0.3997781423822065 -0.694335175241599 197 197 199
-0.06215099454345293 -0.41205052600451647 -0.726368940198716 198 198 200
-0.017509098149458294 -0.4049026949482088 -0.7148212852336725 198 198 200
-0.014486516988972055 -0.40439389205348647 -0.7170682413318318 199 199 201
-0.12843728933960508 -0.4225115754851185 -0.7620924841433099 200 200 202
0.00357671382032404 -0.40477827626123386 -0.6852673348236162 194 194 196
0.010649455799546192 -0.40361316629144295 -0.6861945470708951 195 195 197
0.014242729546547171 -0.40300864869907815 -0.688232604723746 195 195 197
0.01950474537355583 -0.40213545745016144 -0.689714914730399 196 196 198
-0.11324627502221915 -0.42348802918153755 -0.7365188384782501 197 197 199
-0.06113494976507855 -0.41504259806655436 -0.7260492612763902 198 198 200
-0.09872492330126807 -0.4244376112340854 -0.7216262899268452 195 195 197
-0.013084381109949701 -0.4104890984003699 -0.6971421427882606 195 195 197
-0.062190344413917686 -0.4184457485310976 -0.7164415005788236 196 196 198
-0.14158531198600594 -0.4313242725702443 -0.7458471756698473 197 197 199
-0.09873713158646313 -0.4276712445682147 -0.7182729994140769 194 194 196
-0.10817984265187178 -0.42919452304492706 -0.7247078118136524 195 195 197
-0.035001213777128046 -0.4171627972875501 -0.7042918860859806 195 195 197
-0.08698454647811492 -0.4256652528135722 -0.7245664813548699 196 196 198
-0.14547457759641963 -0.4352337602525854 -0.7471438588599881 197 197 199
-0.08130270480209378 -0.42798856952695374 -0.712676018556242 194 194 196
-0.07844704429021926 -0.4274905489343355 -0.7151007992278207 195 195 197
-0.07609584489176159 -0.4270761032107784 -0.7176818987856914 195 195 197
-0.1317021742910704 -0.43625616921799776 -0.7392058010454472 196 196 198
-0.08193612038161507 -0.4312714402086432 -0.712900631685088 194 194 196
-0.09220709024952635 -0.432962671005725 -0.7195763059678455 194 194 196
-0.08630557641448813 -0.43195203399296783 -0.7210233677861773 196 196 198
-0.04759602667692024 -0.42865980554675853 -0.701855523220364 194 194 196
-0.054125908408758173 -0.4297367593909289 -0.707265266413816 194 194 196
-0.048992796506786666 -0.4320220728431364 -0.7023257985133644 194 194 196
-0.055031484656323335 -0.43302579838258975 -0.707578241683343 194 194 196
0.18223317397430674 -0.3926374239547575 -0.6366154683907986 196 196 198
0.18561472573094834 -0.392041875458307 -0.6384402894676307 196 196 198
-0.03867681652532612 -0.43340064460491773 -0.6957425238629381 194 194 196
-0.04646392488285161 -0.4347140850898052 -0.7015310354026236 194 194 196
-0.0597523893415288 -0.43697108029438114 -0.7091267478738125 195 195 197
0.16958109132132854 -0.3976097864230976 -0.6378147979603779 195 195 197
0.1599880071552049 -0.3992349688618463 -0.6439058563210792 196 196 198
0.17342854563360335 -0.39690937754163924 -0.6424603017894983 196 196 198
-0.13504078224940108 -0.4531862955049956 -0.7266661221243396 194 194 196
-0.054593784461801506 -0.4392420685813932 -0.704171153720751 194 194 196
-0.06699470399792021 -0.4413658004294045 -0.7114918700535188 195 195 197
0.14683609908539627 -0.40434483073311006 -0.6452335347133329 195 195 197
0.142058376881 -0.40515146243349476 -0.6497854921647319 196 196 198
0.138569643524357 -0.40573498224019694 -0.6539300536972761 196 196 198
0.16539160146546839 -0.4010747806701388 -0.6480797516734236 197 197 199
-0.09098017583541163 -0.4487472245616857 -0.712557381218881 194 194 196
-0.07331359839141294 -0.4456417542343872 -0.7102242965928453 194 194 196
0.13639984124107635 -0.40899880615574524 -0.6486471176665104 195 195 197
0.13707229234328686 -0.40886185578383033 -0.6514328978032172 196 196 198
0.13774486167109415 -0.4087248916611782 -0.65421758409824 196 196 198
0.13841683888344242 -0.40858803774282726 -0.6570014099531479 197 197 199
0.13251618900372944 -0.41262527586626113 -0.6348877710171227 192 192 194
-0.08947257348439885 -0.4516668834471464 -0.7120949552332149 194 194 196
-0.07517121529165226 -0.4491280255955145 -0.710843372477 194 194 196
-0.07432933596841987 -0.448958638825381 -0.7139069152061616 195 195 197
0.12311954420268584 -0.41416443437832046 -0.6560125696672278 196 196 198
0.12087226556509831 -0.4145407093984626 -0.6597782018344717 196 196 198
0.12155315057145977 -0.4144016225032317 -0.6625852244755288 197 197 199
0.11629180856581375 -0.4183557151026201 -0.6400600047578653 192 192 194
-0.06914480048873967 -0.4512192490785965 -0.7089215022704464 194 194 196
-0.06994694922438721 -0.4513410692392166 -0.7125074896856636 195 195 197
-0.06819544773865256 -0.45100957718866297 -0.7152661139951741 196 196 198
0.12457617766308249 -0.41677267572702276 -0.6555533362525131 196 196 198
0.13088581420417497 -0.41563408999241597 -0.6565044782408752 197 197 199
0.13050566902237015 -0.4156829042303228 -0.6596455671878841 197 197 199
0.06342854345013786 -0.4274521966115015 -0.703676896959291 201 201 203
-0.07102775015155773 -0.4547074393395151 -0.7095487261056185 194 194 196
-0.09962910553490384 -0.45980727290142365 -0.7221407158387982 195 195 197
-0.07318358917682055 -0.4550532614807141 -0.7169088336857931 196 196 198
0.10479338664563986 -0.42317730843361784 -0.662039939783702 196 196 198
0.11842100135407747 -0.4207198617871868 -0.6606170279357334 197 197 199
0.1210146280398634 -0.42023741826416516 -0.6627954295764428 197 197 199
0.06101046926934041 -0.430844516634884 -0.7045153497338046 201 201 203
-0.08101443585668247 -0.45968262169532875 -0.7094452419325893 194 194 196
-0.061792428661631954 -0.4561933381999063 -0.7065924145220586 194 194 196
-0.1028579478849879 -0.4635862347947248 -0.7232066107698661 195 195 197
-0.07010890252098798 -0.45765559915163706 -0.7159275009742636 196 196 198
0.0924225323214391 -0.42830237047352765 -0.6661029199332529 196 196 198
0.08834008171535387 -0.42902115118332096 -0.6705186427139058 197 197 199
0.11152135201576233 -0.42481978312036955 -0.6659461848755867 197 197 199
0.08070359803970593 -0.43025434724617545 -0.6978087202858048 201 201 203
-0.07606142097909538 -0.46194743845675496 -0.7078775166460474 194 194 196
-0.060517002865298666 -0.4590994292732824 -0.7062015749126798 194 194 196
-0.0686737353948274 -0.4605650544376458 -0.7121546102130104 195 195 197
-0.06982794704606307 -0.4607562036418831 -0.7158553827390821 196 196 198
0.08074037665186788 -0.43333811566695485 -0.669940879601817 196 196 198
0.07276276958296532 -0.4347721721014207 -0.6756545964750564 197 197 199
0.08115672778338853 -0.43320963107390226 -0.6790823761453774 198 198 200
0.06809374432921028 -0.43548006157773506 -0.7021249390115802 201 201 203
-0.05097418506064102 -0.4605019532917427 -0.6998514398134305 194 194 196
-0.056882464466486114 -0.46156788615200517 -0.7050502860545211 194 194 196
-0.06288076411134964 -0.4626502269576248 -0.7102980464058332 195 195 197
0.4228645692965945 -0.3758996352465586 -0.5606321724394618 197 197 199
0.3632858893690474 -0.3869042206314829 -0.5828591456111124 197 197 199
0.49490741526964543 -0.3649089882356978 -0.5320932240626763 196 196 198
0.46034136224821104 -0.371340946639663 -0.5458365560082123 196 196 198
0.40397005731076313 -0.3818375875307717 -0.5668558051693882 196 196 198
0.3429740877698914 -0.39319546324693994 -0.5895806675061441 197 197 199
0.27392907781498155 -0.40605282589976455 -0.6151692932923511 198 198 200
0.5608253596163114 -0.35485024134552706 -0.5059857896490239 194 194 196
0.5214652310838332 -0.36223620147974916 -0.5210678689833435 195 195 197
0.4772069901842633 -0.3705420875666605 -0.5378689760787204 196 196 198
0.43813057464399346 -0.3778734402510253 -0.5531153494327867 196 196 198
0.36032451692642115 -0.39248240636860954 -0.5812143027005583 196 196 198
0.30565422346957355 -0.40274255380582497 -0.6019190902526184 197 197 199
0.2524302694937972 -0.4127300538844621 -0.6223171594233221 198 198 200
0.5496588046072677 -0.3591725371097862 -0.5095998084534638 194 194 196
0.5066790053797877 -0.3673030846653089 -0.5258720258130046 195 195 197
0.46010589958906056 -0.3761136480851725 -0.5434499539090487 195 195 197
0.4111790400618428 -0.3853693475526119 -0.5619451814567593 197 197 199
0.3539992946485043 -0.39618750312413253 -0.5833077294310883 196 196 198
0.2989180848612774 -0.40660730723318567 -0.6041582314348499 197 197 199
0.23040980812812112 -0.4195693266715851 -0.629638463505783 198 198 200
0.5388020748763866 -0.3634682251032908 -0.5131141557528411 194 194 196
0.4946754807204271 -0.3718819901013367 -0.5297749921644388 195 195 197
0.44791492849679093 -0.38079796878231664 -0.547432872145253 195 195 197
0.39822553245766973 -0.3902723991207436 -0.5661967573141198 196 196 198
0.34532305240014927 -0.40035947810961947 -0.5861739755118712 196 196 198
0.2888853895408525 -0.41112062132570043 -0.6074861569631808 197 197 199
0.22854610001709286 -0.42262569971807135 -0.6302716863304287 198 198 200
0.5303602074889973 -0.3673308594395302 -0.5158501794620084 194 194 196
0.38506882828552125 -0.3952523496121375 -0.5705150258866614 196 196 198
0.33925076907066226 -0.40405552979702786 -0.5881844961601086 196 196 198
0.27816271794010256 -0.4157957460308869 -0.6110421144814165 196 196 198
0.21896594290523558 -0.4271712537987309 -0.6334654787208907 198 198 200
0.1277825344813446 -0.44469915430679896 -0.6667407993030197 198 198 200
0.03389998835062075 -0.46274496542867266 -0.7012086512021133 199 199 201
0.1542628101488449 -0.4424954435382996 -0.6400879092550266 195 195 197
0.2539766171373356 -0.42311215480402065 -0.6190447212691141 197 197 199
0.19806483532004823 -0.433939226150902 -0.6404161380753506 197 197 199
0.09540565927782318 -0.4538278693245123 -0.6775508219799238 198 198 200
0.010530218151217852 -0.47026771124383576 -0.7090526721210323 199 199 201
0.26450827570417557 -0.4237757144699369 -0.6015923547238984 194 194 196
0.12634031287548073 -0.4507600215467901 -0.649151934864857 195 195 197
0.12775799116666256 -0.45047044983108775 -0.6517044190181898 195 195 197
0.1391877307693285 -0.44822481454859453 -0.6509783154108233 196 196 198
0.23801224377339464 -0.4288935290942064 -0.624332327580507 197 197 199
0.17621616330735657 -0.44095367133825725 -0.6476815789134293 197 197 199
0.08737877629645475 -0.4582954032760392 -0.6802425718814259 198 198 200
-0.010797661136489362 -0.47746024518990665 -0.7162130228411578 199 199 201
-0.11670847639083129 -0.49813456707913145 -0.7550971431559116 199 199 201
0.24775434134164284 -0.4297179552330933 -0.6070112064164314 194 194 196
0.10592506217228624 -0.45762876881326114 -0.6557842048903855 194 194 196
0.09782476338889623 -0.45921122405691256 -0.6614669905425165 195 195 197
0.14177224566821256 -0.4505475101477037 -0.6501497347357744 196 196 198
0.16028036578720112 -0.44689214753850626 -0.6470574083161523 196 196 198
0.16196143956400216 -0.4465493537596512 -0.6494655362603327 197 197 199
0.15687433776694548 -0.44753882370804354 -0.6541154650596144 198 198 200
0.08033117544386877 -0.46259317493481794 -0.6826079238473692 198 198 200
0.0585365830373877 -0.47172703561975987 -0.19762687651578062 178 178 178
0.06153846717133686 -0.4711175047740644 -0.20032036813740697 178 178 178
0.06470227248268387 -0.4704757396167669 -0.20299161535625407 178 178 178
0.06511529646115091 -0.470382117419076 -0.2059018657191957 178 178 178
0.06924809486613932 -0.46954732866420495 -0.20847179290900264 178 178 178
0.23822020491116402 -0.4342770169440739 -0.6101025059140235 194 194 196
0.08435585886524037 -0.4647861976780319 -0.6627907310294119 194 194 196
0.07692061821131352 -0.4662491547610332 -0.6682904972856158 195 195 197
0.13628398105805345 -0.45446285042619317 -0.651962053708667 196 196 198
0.0942324428751503 -0.4627917826207754 -0.6687846219344956 196 196 198
0.13741010367862536 -0.4542164490536672 -0.6575903464912203 197 197 199
0.13099200243378753 -0.455477804402996 -0.6627202078759613 198 198 200
