ply
format ascii 1.0
element vertex 694
property float x
property float y
property float z
property uchar diffuse_red
property uchar diffuse_green
property uchar diffuse_blue
end_header
0.1405604493788305 0.1927497433628947 -0.2684479018208756 64 39 26
0.1423692084047864 0.1922618870838646 -0.27115367464622286 65 40 27
0.14214371104451978 0.1924424599378739 -0.27412554674525047 63 39 25
0.14299438633353262 0.19226933928927278 -0.2769544977793758 62 36 23
0.14531369895661136 0.19161329856977496 -0.27958178445322857 62 34 22
0.1413072652481617 0.19303721814253813 -0.2830753787153751 63 35 23
0.14263209306789926 0.1927081866827462 -0.2858392471348943 63 35 23
0.1407200814601913 0.19344384385479962 -0.2890571136261884 63 36 23
0.1386217674398058 0.19424107065118187 -0.2923091096331853 62 35 22
0.14296661398318805 0.19291827619034332 -0.2946385346738046 66 37 23
0.1352663885302771 0.19555951954650103 -0.29871462024439466 61 33 19
0.1470777270761982 0.19263306651262466 -0.32354860359741644 85 52 29
0.1440505252552143 0.1937382525998981 -0.32699780446432236 79 51 30
0.12999190592222504 0.19848188924879792 -0.3322679342570691 69 43 29
0.12373285968266069 0.2006545610997463 -0.33629313023900753 51 30 22
0.11875421329762251 0.20240560892173473 -0.3401259138112394 36 17 10
0.11588378414054609 0.20346165263226085 -0.34362012707931694 51 30 21
0.11930878424797016 0.20244042548223076 -0.34605103608815563 64 41 28
0.11556838258888853 0.20378403905705605 -0.3497062666272334 66 39 24
0.11436078666530608 0.20429195079359713 -0.35293467709088233 68 41 25
0.11343476226651143 0.20470707800986482 -0.35611896216620575 69 42 28
0.11575012109921674 0.20405185017241095 -0.35873332827766324 68 42 27
0.11409545009635827 0.2047077908873597 -0.3620513401418622 62 38 24
0.11676352271628138 0.20393581412015194 -0.364596025474222 47 24 13
0.12641862311762977 0.2008547539224735 -0.3658608558425623 41 21 14
0.12425037783599878 0.2016802373332488 -0.3692678546704375 65 45 39
0.1253264044141069 0.2014335939365453 -0.37208182541605733 76 54 42
0.12682042775156074 0.201048671632428 -0.37481539613178155 82 57 43
0.12458676625076091 0.20189629533668854 -0.37824878707881493 79 55 41
0.1238628996307283 0.20224488267937257 -0.38140348993040263 58 34 20
0.14474555238371914 0.19598696772039315 -0.3953582930546095 61 33 21
0.15891729319591846 0.19140216750787184 -0.39548976981588146 59 30 18
0.15815333635828518 0.1917627111733278 -0.3986160925898736 58 29 15
0.16270423757611222 0.19036269132706535 -0.40065552872609583 59 27 12
0.1659403989978912 0.18939779856576816 -0.40295320009395014 74 41 29
0.1694737328481512 0.18833408257042705 -0.4051794903979621 103 79 67
0.175110367990846 0.18657283150652565 -0.40695327641766843 106 85 72
0.1788516318299574 0.18543930342782325 -0.4091112180815243 103 77 61
0.17772513353750538 0.18591942268463102 -0.4122973824576989 87 53 29
0.18516506471796573 0.18355875911785996 -0.41364533139545856 83 44 20
0.1867865202889759 0.18312723406006884 -0.41623151825495486 78 38 14
0.18427374800228744 0.1840671311017309 -0.4197169305097699 80 39 14
0.1886130855372874 0.18273371209058453 -0.42170345742528437 80 39 14
0.18803623396140537 0.18303140272527058 -0.42476737023157896 75 35 11
0.18826066979859724 0.1830632305567938 -0.42765543201739 76 40 18
0.18721779944212819 0.18351582477550554 -0.4308293851286857 80 49 31
0.07482141101101744 0.22173883584081852 -0.4812092249823583 86 70 60
0.07334633970955629 0.22234300946967378 -0.4847040040921376 79 63 53
0.07211236890419648 0.22286722117419847 -0.4881468081540127 85 69 60
0.07103978719602315 0.22333794449886155 -0.49155584186518286 88 72 64
0.07133322594730104 0.22335433891267104 -0.4946349461860245 93 76 70
0.06965123900231791 0.22402814240970312 -0.4982021162991413 95 79 74
0.06596082373150147 0.2253706990087491 -0.5022754806429798 99 84 79
0.06685440535500002 0.22518770878541838 -0.5052156787007567 96 81 76
0.06712403073608605 0.22521241855598653 -0.5083114553093744 91 76 69
0.06739372355117859 0.22523712421973238 -0.5114077219165793 90 75 66
0.06603490245731936 0.22580428866875984 -0.5149201528272107 91 76 68
0.06478061611894755 0.22633684358738132 -0.5184117020946319 94 80 71
0.07132664032860211 0.2243849250653971 -0.5230550003504024 97 84 77
0.06998039983623894 0.2249481918940737 -0.5265723125680267 94 80 74
0.06935297009516019 0.22527202710199568 -0.5299060607347573 96 83 77
0.06872468295001394 0.22559627584752673 -0.5332435633620672 98 86 80
0.06809598108742151 0.2259207907302719 -0.5365847089451697 105 92 86
0.0674595770613158 0.22624800282853724 -0.5399314599920513 111 98 92
0.06704400464552727 0.2265016663328095 -0.5432220686729194 114 100 93
0.0669628027610217 0.22664385322266925 -0.5464245316947071 115 102 94
0.06698136228694464 0.22675280524692237 -0.5496013822697916 114 100 93
0.06699988164291262 0.22686181993767013 -0.5527796050649247 116 102 95
0.06701836097702371 0.2269708972858932 -0.5559592011562378 116 103 95
0.06172256496164036 0.22885468448944707 -0.5606218156252227 115 102 94
0.06133532412857809 0.22909969725160764 -0.5639269187893959 115 103 94
0.0623659701957647 0.22887114360238975 -0.566834654863724 117 106 99
0.06172721469289902 0.22920030551147474 -0.570214242536068 119 108 102
0.061087833298680144 0.22952980663864087 -0.5735976028109675 120 109 103
0.05986438872297663 0.2304029549039714 -0.5867770450644496 135 125 121
0.05940736056973232 0.23067203021806426 -0.5901225414199411 137 126 122
0.06017229034664334 0.23064868991333265 -0.5963231291285407 137 126 121
0.06085195121228698 0.2305375627818297 -0.599334739890623 137 126 121
0.061509286664934826 0.23043387752730687 -0.602352201534003 137 128 122
0.06284897042870081 0.23010171317707198 -0.6051624463091644 135 125 120
0.06256316612906213 0.23031375037690655 -0.6084640936962511 134 124 119
0.06246535904373017 0.23046291033489755 -0.6117106444027556 134 125 120
0.062369764171352954 0.2306113935853133 -0.6149582928279839 137 128 123
0.06234886958462993 0.23073491287664502 -0.6181846062647282 138 129 125
0.062432492786215 0.23082346235035497 -0.621379930116728 138 129 126
0.06266206142870434 0.2308631374092784 -0.6245307753526436 139 130 126
0.06306228256965617 0.23084562848997567 -0.6276286276318936 138 129 124
0.06356829825346848 0.23079265045633957 -0.6306931189013733 137 127 123
0.06409885242382185 0.23073143334555699 -0.6337495350442248 138 126 122
0.06411077166883963 0.23084416209695113 -0.636971325151112 133 119 115
0.06450690502488708 0.23082804631099577 -0.6400710922504584 128 115 111
0.06279279763759742 0.23152000519067972 -0.6438525094686112 124 112 109
0.06311402047866878 0.23152916726750875 -0.6469804045016826 119 108 103
0.0633818126409117 0.2315562770470074 -0.6501260964448892 116 104 100
0.06387383763027138 0.23150812559155315 -0.6531987577107863 115 102 98
0.06436583280254472 0.2314599759519998 -0.6562712023155216 111 98 94
0.06485779815773172 0.2314118281283474 -0.659343430259095 109 95 90
0.06534973369583241 0.23136368212059594 -0.662415441541507 104 89 84
0.0683765604633043 0.23093214080132768 -0.6775782353219585 90 73 66
0.06969916366373612 0.2306045696658446 -0.6803625492870542 88 72 62
0.07102048735248609 0.23027731733471596 -0.6831442223168305 87 70 60
0.07234053212194672 0.22995038377186425 -0.6859232587158144 86 69 59
0.07365929856451049 0.229623768941212 -0.6886996627885321 85 67 57
0.07420664498875801 0.22955665133213304 -0.6917433043949182 84 66 54
0.09104551459622394 0.2243543361433636 -0.6986793830413144 82 61 44
0.09367056138382186 0.2235863647696907 -0.7009497024395734 84 60 43
0.09653286797658417 0.22273818361424738 -0.7031268261445308 84 59 43
0.09612270638716607 0.22299242089321497 -0.7064817133735314 83 58 42
0.09865532554448167 0.22225494938458465 -0.708767698846297 83 58 43
0.10199481106946276 0.22124522318785542 -0.7107511289691374 82 56 41
0.09544260273282876 0.22403572176425668 -0.729225623719508 76 48 36
0.10823236816172413 0.2198360657342118 -0.7276324092946411 76 48 36
0.11688983177442805 0.21737562914493763 -0.7371192876430631 74 46 36
0.12015240386727538 0.21638901442794056 -0.7390530556869661 74 46 36
0.12398577771859107 0.2152091980539418 -0.7407561948209088 75 49 37
0.18586619520959327 0.19913064689751536 -0.850230058645321 77 39 19
0.18878788521996795 0.19824879938659778 -0.8520082923605653 80 42 18
0.1883467623392946 0.1985123594312532 -0.8553437216673507 84 46 19
0.1900585061893549 0.19804239530574727 -0.8576757066277939 94 58 31
0.1921849457578254 0.1974309207655615 -0.8598084508684022 99 66 45
0.1919210174029996 0.1976340981794772 -0.8630610427756368 99 70 51
0.19092115206478824 0.198088288740629 -0.8666639726879605 97 69 50
0.19115320138454725 0.19812254346507177 -0.8696872338633371 98 69 51
0.18923671755418275 0.19888966700816227 -0.8737346119594895 96 67 49
0.1876891684075866 0.19953122513522867 -0.8776138417356434 90 62 44
0.1838485939478796 0.20095546173066567 -0.8826005169116505 91 63 46
0.18033739956920375 0.20226783310583488 -0.8874436468577521 88 62 44
0.17655970329802106 0.20367167980967557 -0.8924295865951939 85 59 40
0.17570313508634286 0.20407875307435805 -0.8960128932126956 83 55 36
0.18223480447678678 0.20196306705424705 -0.8960022112505706 82 54 35
0.18064845013041622 0.20261924325885425 -0.8999381152746136 79 50 33
0.17841083957790485 0.20349815092210774 -0.904200659094031 74 43 23
0.1764778305742137 0.2042733266211663 -0.9083226603387171 79 47 25
0.17491600922296272 0.2049219566140971 -0.9122695865836292 97 68 45
0.17404915935702434 0.20533329936089498 -0.9158788617560998 99 71 49
0.1740200833421483 0.20545840087390257 -0.919075680090307 97 67 47
0.17338671445860424 0.20579018551498496 -0.9225759501098646 87 61 40
0.17355977687174926 0.2058463094192502 -0.9256756492088873 86 60 40
0.17214165937565573 0.20644674349381256 -0.929576785686224 83 56 37
0.1728664928740613 0.2063142572799805 -0.932402426681559 72 45 29
0.16865766510897393 0.20786997958348497 -0.9377269480675748 57 30 17
0.1896518336969254 0.20194804591139315 -0.961964170161807 87 69 58
0.19434240807073247 0.20045436857349166 -0.9626654695866419 87 69 58
0.1990476505692263 0.19895510075990955 -0.9633435521507667 86 68 58
0.2014702416912924 0.19823845171875817 -0.9652202697244454 89 71 61
0.20346744785368834 0.19766751706686725 -0.9673167387431376 91 72 63
0.20816894544867126 0.19616817622253127 -0.9679592890122095 93 74 65
0.2076625550459556 0.1964561257581905 -0.9713845949986415 96 76 68
0.20948993075571354 0.1959428670016317 -0.9735550072188109 101 82 75
0.21163413219190053 0.19532061530515454 -0.9755488937731087 103 84 77
0.21588859458135173 0.19397327553680105 -0.9763911663531925 100 81 72
0.21905482524452108 0.19299930290348583 -0.977812096800447 95 76 67
0.221089914315391 0.19241365579261846 -0.9798410296150235 104 84 77
0.22453834808323225 0.19134204256775947 -0.9810892952537348 111 92 85
0.22605711837895168 0.19093336181711038 -0.9833877976796158 109 90 83
0.22663051869005907 0.19084957235848804 -0.9862038965222153 100 81 74
0.22786884821215903 0.19053710002905466 -0.9886512590662795 89 70 60
0.2284593798091034 0.1904473292045415 -0.99145538278593 88 67 55
0.23186432588036415 0.18938932449568605 -0.9926905197099202 85 59 46
0.23490476909019553 0.1884563443084666 -0.9941185196037918 80 50 33
0.23351445649463332 0.18904785861612636 -0.9980220029677161 77 44 22
0.23964319239611992 0.18705143799281504 -0.9977011112531051 76 39 15
0.24093877522886836 0.18671822580343156 -1.0000877288193688 74 34 8
0.24041126887553976 0.1870126703668686 -1.0035035444788725 73 32 9
0.24104287855533435 0.18690802260297673 -1.006264181280135 72 32 9
0.24209431904187106 0.1866587213463405 -1.0087846775632854 72 31 8
0.24243315799081167 0.18665485689047523 -1.0117102516928345 72 31 8
0.24305411792328327 0.18655377838498485 -1.014474213054402 72 31 9
0.2445459925200413 0.1861524866374263 -1.0167362045005657 71 30 8
0.24552901985119252 0.18592647171319007 -1.0192879418770562 72 31 10
0.24670712980521883 0.1856331132901016 -1.021724572295524 72 31 10
0.24704828987964478 0.18562829450333537 -1.024644547050399 76 35 12
0.24923324830025512 0.18498748188727368 -1.026490270790131 78 41 14
0.2499973230269171 0.18483664750564063 -1.0291600631848383 84 48 21
0.2500145463696934 0.18494348287197218 -1.0322664646279929 92 57 29
0.25003184065846434 0.18505034402764153 -1.0353742136433937 96 63 37
0.24964982752993495 0.1852950986356054 -1.0387189672079122 97 66 42
0.2506428584710886 0.18506519248306563 -1.0412527003168244 102 72 47
0.25051319430687086 0.1852229167902095 -1.0444508185339334 104 75 49
0.2497491964209508 0.18559981270999673 -1.048028648548978 105 76 51
0.24983432916670364 0.18568351286331225 -1.0511034766786511 107 77 55
0.25097967329046056 0.1854009119467618 -1.0535441471677582 106 76 52
0.2515763042215383 0.18530784899017366 -1.0563118814663333 101 71 47
0.2527916036691541 0.1850009042996344 -1.0587058910472318 99 69 45
0.24868062142961025 0.18653534166520155 -1.064317875870259 96 67 43
0.2482459073137982 0.18679911360829662 -1.0677165145445504 92 65 43
0.24825377354750733 0.18690992127032907 -1.070848946169908 92 65 44
0.24766191357931755 0.1872282480159097 -1.074348798456406 90 62 44
0.245308069427148 0.18815635841576964 -1.078930793165664 81 52 37
0.24124753734183907 0.18967546851029685 -1.0845707199683552 70 42 28
0.23835217552496582 0.1907918656815044 -1.0895095981904028 64 40 27
0.23645325780234788 0.19156373066352578 -1.0938452041314226 45 23 10
0.23668698765915916 0.19159743139031085 -1.0968681958493642 51 28 14
0.24186829918080516 0.18991762647192334 -1.0968178294484965 61 38 24
0.24811329395958315 0.18786871957765855 -1.0960869765958525 55 29 17
0.25163396533420274 0.1867629281501997 -1.0970372436750897 53 29 16
0.2479678834146671 0.18826132780031898 -1.1056349064615214 59 30 15
0.25466658708191253 0.18605326874366165 -1.1045664443894747 67 33 15
0.24998455272843043 0.18779049800752773 -1.1106718322371194 74 37 16
0.24902063846674674 0.18823894611411515 -1.1144378125715981 84 48 24
0.25092453581106855 0.18769281397420182 -1.116384622271672 89 54 30
0.2502530249519806 0.18803998927278612 -1.1199688512209804 92 56 32
0.2512774550574603 0.1877988066446154 -1.1224719725094232 92 56 30
0.25425136284788313 0.1868809289410717 -1.1237218672036184 93 58 32
0.25435526578879547 0.18695899956737377 -1.1268091099020607 93 59 32
0.2522781364253343 0.18779438034840576 -1.1313050320803901 92 59 32
0.2516959310455741 0.18811094482471943 -1.1348425877935082 91 59 32
0.25198645551339466 0.18812450571783876 -1.1378173104976113 91 59 34
0.2510923145294632 0.18854964487882184 -1.1415635969624138 89 59 36
0.25019573430111897 0.18897580578439843 -1.1453162886180073 84 57 34
0.24955607043183076 0.18931285162592887 -1.1489056099197643 79 55 33
0.24778636312361305 0.19004285327789952 -1.1532407136259266 73 55 38
0.248230646328384 0.19000339049043044 -1.1561262211684207 88 75 63
0.03708942191708143 0.20915989715420968 0.11703442336090755 184 185 185
0.04997057733711169 0.20515087527489356 0.11310822693672433 162 156 153
0.06528342324411256 0.20046775085226667 0.10614055560311542 124 96 83
0.07360971794614736 0.19791089921867047 0.10264176304518535 124 93 77
0.08435709106749642 0.19457926876363557 0.0989963297758546 143 113 92
0.09006537951180188 0.1928575306143744 0.09573077354020336 137 104 76
0.09871204993424391 0.1901956196897888 0.0922830620753854 106 70 37
0.10487182884710364 0.1883281505534705 0.08902485896312333 85 49 18
0.09461727699670924 0.19171055618423605 0.08684259719167219 76 38 15
0.09599498834188007 0.19137264185764843 0.08389554462756804 71 34 15
0.09793539198144025 0.19085456628423228 0.0809169656851138 62 29 10
0.09989893094658703 0.1903289155789532 0.07794175494201094 56 24 5
0.10075857844660022 0.19015644150871897 0.07503574139658627 55 24 6
0.10028331436881113 0.1904112886642694 0.07220694029434017 56 25 7
0.10102037450027357 0.19027803904397458 0.06930849670913686 58 27 8
0.10062488326663864 0.19050746408366703 0.06647190760028512 61 28 9
0.1005096561346783 0.19064720365891102 0.06361826125547107 62 29 9
0.10300791860461368 0.1899497101953462 0.06063079132129998 61 28 9
0.10287699971549776 0.19009444634942685 0.057778790693100615 58 25 7
0.10274596044517038 0.1902392796333213 0.054925167552339865 57 24 7
0.10270656935774619 0.1903547946991089 0.05206570206944926 57 24 7
0.10163415465426343 0.19080154002588637 0.049250775895161754 56 23 6
0.10118119437426634 0.1910498205407155 0.046404747892159294 53 21 4
0.10003835810909789 0.1915194429120142 0.043584599464056184 54 22 7
0.09959191787500071 0.1917658596394463 0.04073198288775891 55 22 6
0.09903528228894956 0.1920477229122465 0.03788096550516174 54 21 5
0.09867709432463917 0.19226601602006455 0.03501971277412907 55 22 5
0.1014191374765175 0.19148944016898867 0.032047210551165224 55 22 6
0.10012295430993015 0.19200881087000626 0.02921757357702435 55 22 5
0.09928764130890345 0.1923804126399441 0.026367921948596322 55 22 5
0.10313153534945733 0.19124967691366263 0.023371849394059976 56 23 6
0.10302144817694253 0.1913883850709351 0.020500832292856777 58 25 8
0.10297298372405253 0.1915073561996987 0.017626552778952028 59 26 9
0.10285044258920881 0.19165017529504963 0.014752800003035537 60 27 10
0.10302570771201408 0.19169736153659497 0.011870206250587354 59 26 9
0.10242112918324496 0.19199519530542059 0.00900462596301962 58 25 8
0.1018795972300607 0.19227287607005272 0.0061345935978092785 56 23 6
0.10063961649246679 0.1927752045377224 0.0032753191490616854 54 21 4
0.10244573486844771 0.19229826314436294 0.0003560144963504659 55 23 5
0.10143809508008098 0.1927260672524409 -0.0025125487031404537 57 26 8
0.10138349882274214 0.1928474771804042 -0.005399709030273638 57 26 8
0.10117106106460987 0.19301971735119053 -0.008286173798044232 55 24 6
0.10189588419208856 0.19289044572467043 -0.011185599893372955 55 22 5
0.10110007927740343 0.19325051189108633 -0.014068444368561653 55 22 7
0.1006563268116429 0.19349739351883088 -0.016958071895888105 53 20 6
0.10026522636197949 0.19372741920537012 -0.019850705967127697 52 19 7
0.10114576554530087 0.1935480753675479 -0.022752864116557036 52 20 7
0.10110420535104253 0.19366563823482505 -0.025649842657992424 53 21 8
0.10148936020451108 0.19364580365278566 -0.02854923190191347 55 23 10
0.10124861936199991 0.193827609916397 -0.03144812937893623 53 22 11
0.10106061641745509 0.19399249514285752 -0.0343489926178321 50 21 10
0.1008421747107794 0.1941672561246807 -0.03725176448730594 48 20 9
0.10027203549059399 0.1944554494244325 -0.040157824117957805 45 18 7
0.10281573252006848 0.1937398932679018 -0.043050073283979 44 17 6
0.09989408794530547 0.19478635584244192 -0.045973743951765275 44 17 6
0.10270417741802262 0.19398471284292118 -0.048858836271845466 45 18 7
0.1040548778590232 0.19365353209496222 -0.051751128829813225 46 22 10
0.10807727795719907 0.1924603209407167 -0.05460920483959983 47 22 11
0.1061025722934167 0.19320177883036732 -0.05753541646988943 46 23 13
0.1093206971096595 0.1922676475350841 -0.060392070598198726 66 48 37
0.11219516313450836 0.19144412422935622 -0.06324549626032812 70 51 42
0.11574712380039766 0.19040159954680352 -0.06607895238183042 80 57 46
0.1207109965295837 0.1889028186271732 -0.06887487705488415 81 54 42
0.12299248060489312 0.1882698021678057 -0.07171308706456567 104 79 67
0.1269540715514032 0.18709388386974676 -0.07450721916042906 126 106 95
0.13147997792354968 0.18573525098341287 -0.07727641386843426 116 95 83
0.13084091426849268 0.18604506277098093 -0.080166110221332 84 57 43
0.13538011434594724 0.184681489551981 -0.08291702833621072 75 44 26
0.1384487995646937 0.18379276783112003 -0.08569752202464234 71 39 21
0.12619527699266792 0.18785728565316034 -0.0889382108227602 66 33 14
0.12819617431527242 0.18731409403937266 -0.09176034876181678 64 30 12
0.13629049068064591 0.1848000757670503 -0.09437179283344914 87 60 47
0.14322468191144666 0.18266043892652495 -0.09699988085261793 96 71 61
0.15472077229057687 0.17904419707539895 -0.09943891990780127 94 62 47
0.15869564889198196 0.17786037558660203 -0.10213230787221048 100 66 50
0.17063673156681247 0.17409802024284432 -0.10449513307588255 99 64 45
0.17592761351737934 0.1724869513619752 -0.1070983874266121 112 76 57
0.18150050028976428 0.17078402564043962 -0.1096739110775492 115 77 59
0.18663507269622115 0.16922243652606742 -0.11225264017943197 125 92 77
0.1975021176559585 0.16610445197674462 -0.12291170186919465 106 67 39
0.2003712499133311 0.16527490774861145 -0.12554989866365113 98 55 21
0.2006949910825367 0.1652701578787392 -0.12831852016087264 84 44 17
0.20159569544751182 0.1650783611496743 -0.13105504996750003 80 40 16
0.20346533387465657 0.16457231793894672 -0.13373418759521208 77 40 18
0.20052321370699522 0.16562664265620125 -0.13669303920940565 73 37 17
0.20126663058478372 0.16548585195946186 -0.1394387260111976 67 34 15
0.2002516137410802 0.16591551218234904 -0.14229280848417952 62 32 15
0.19882589267578704 0.1664786014923905 -0.14517757894533365 64 40 26
0.20615093723895955 0.1642018654624529 -0.1474950520432663 67 44 32
0.19286478543688063 0.1687158241328429 -0.15398210478175894 64 44 33
0.19318418939440477 0.168713164306547 -0.1567699879014455 64 44 35
0.19285398380454816 0.16902263476439772 -0.16241755252365878 60 41 34
0.16985058291155458 0.17783104593373558 -0.2012645936151239 61 42 35
0.16770846478775656 0.1786316994816172 -0.20433699160340218 62 43 36
0.16562657225933228 0.1794130303486773 -0.20741165658119443 62 43 36
0.16447610712816318 0.17989122912020436 -0.21040195540131232 62 43 36
0.16237119929701968 0.18068057680174682 -0.2134933469240926 62 43 36
0.15985064786142555 0.1816056598839302 -0.21663530696282318 62 43 36
0.15936827745351115 0.18186677672288137 -0.21957479187529574 62 43 36
0.1600090258717483 0.18176187215791734 -0.22239854489832378 62 43 35
0.1570507621538172 0.18283038040918476 -0.22560718676722608 63 43 34
0.15705663370956946 0.18293266243462095 -0.22850420102267582 64 44 35
0.156884495060863 0.18309304943220334 -0.23142211475084148 65 45 36
0.15757950145169314 0.18297062239768694 -0.23424472787112097 66 44 36
0.15821876835769605 0.18286634684943423 -0.23707269918087984 66 43 35
0.1571131625298856 0.1833314568757976 -0.2401009456265285 65 42 34
0.15584879198897833 0.18384856088389467 -0.2431525874746705 66 44 35
0.15229738565095371 0.1851124648148752 -0.24648052977684737 66 44 33
0.15135299343297542 0.18552561131524675 -0.24950816982978796 67 44 33
0.14966499933263488 0.18618175039834628 -0.25263064207628755 67 43 33
0.13774314764351792 0.19018078067036595 -0.2570219218815468 67 43 33
0.1440871909238972 0.18821405718543827 -0.2591709217835991 67 43 33
0.14334530009571866 0.18856191993309154 -0.26219746493876794 67 43 31
0.14221868799775308 0.1890356428086126 -0.2652770141975154 66 42 30
0.14151344488035786 0.1893718148925616 -0.26830680917080746 63 40 27
0.1413284261505816 0.18953804494969473 -0.27127180987878946 61 38 24
0.14102655290319144 0.18974255166214737 -0.2742542491938157 60 37 23
0.14198063515970635 0.1895363990740695 -0.27706981524139124 61 36 23
0.1415495598086654 0.18978325696864826 -0.28007236939018904 62 34 22
0.1409821411492621 0.19007481665433784 -0.28309642246516303 62 35 22
0.13957732458374655 0.1906404941847311 -0.28624047365959265 61 33 21
0.139028580384847 0.19092621711905391 -0.2892695326750147 58 33 20
0.13969306603610074 0.19081492801052677 -0.2921284201611225 61 34 22
0.14151157323018804 0.1903257977873158 -0.2948197638481532 65 37 23
0.13527607096007174 0.19247373937078416 -0.2986828614555702 57 30 16
0.1472707476818693 0.18950068106373918 -0.3234757920346658 82 48 26
0.1452595048197753 0.19026672392855434 -0.32675832554291834 78 51 29
0.13243799331278144 0.19457979278369145 -0.3318219114636365 70 43 30
0.12826386542796123 0.1960567881140684 -0.33549623571721426 52 29 21
0.12618879124457139 0.19684539646727378 -0.3388343756668136 34 15 9
0.12387108395303151 0.19771394523635288 -0.3422216268431542 42 23 16
0.11913252365758352 0.1993776433434981 -0.34603074956782576 64 43 31
0.11816676801969249 0.19980301638132875 -0.3492069870083943 66 40 24
0.11784873433886743 0.2000158108921077 -0.352275108231289 65 39 23
0.11968234461302434 0.1995218696053502 -0.35496798217839465 63 37 22
0.11955660027927843 0.19967152886403824 -0.35800325544591655 58 33 17
0.11883337228877039 0.20001759649774334 -0.361147096051413 58 35 21
0.12170141151256166 0.1991834193854073 -0.3636466614038498 57 35 23
0.12088104632347797 0.19956147428501664 -0.3668097029348764 38 17 11
0.12880540824167702 0.1970644216200954 -0.36837016340064443 60 41 35
0.13042824904505004 0.19663878197956508 -0.3710739783601357 86 65 54
0.1311178849589601 0.1965199446908365 -0.373948300942556 74 50 36
0.12922417572324324 0.19725093221815798 -0.3773090636674874 63 40 26
0.1269333958064088 0.19811284229410092 -0.3807529651399389 53 30 17
0.12840960966315618 0.19773537434928656 -0.38348263397083404 58 35 22
0.14643356879910396 0.19234044658705163 -0.39494696310070015 62 34 22
0.16125470826311245 0.1875650820156548 -0.3949438107812407 56 27 15
0.17037060776125101 0.1846679382732087 -0.39605411131256635 56 27 13
0.1621449901060144 0.18748500069631938 -0.400693697398485 58 27 12
0.1577612522052368 0.1890366925478696 -0.4045671892049229 69 35 23
0.1611086195147594 0.188040092761251 -0.40684463940117815 98 76 63
0.16479180960279774 0.18693240435890215 -0.40904174164430984 105 84 71
0.16849324518290829 0.18581830667371213 -0.41122408450517745 111 86 70
0.1775524103090797 0.18293647152477438 -0.41225176982311845 87 53 29
0.18649135088397928 0.18009326793482874 -0.4132765680020868 84 45 21
0.19015233275627502 0.1789907035771659 -0.4154171819775733 81 41 16
0.19114650531053587 0.17876792128293478 -0.4181294933590351 81 41 16
0.18822820842245364 0.17983659965474463 -0.4217009679689872 81 41 16
0.18779502482425786 0.1800851723834479 -0.4247323208434639 79 40 15
0.18721305763627702 0.1803829760675177 -0.42779966153279547 79 44 21
0.18788157174760917 0.18026787961572954 -0.43058876385716177 85 54 36
0.08495036510359226 0.21516100789711723 -0.4786859123812632 86 67 54
0.08282595681759455 0.2159760880883224 -0.48231818685787486 81 61 48
0.08160692372227554 0.21649189769234656 -0.4857400544272716 77 57 44
0.08058503429821136 0.21694266003753368 -0.4891193968372345 79 57 46
0.0792366472623397 0.217501668189483 -0.49258358354910103 80 57 48
0.07962940755533196 0.21748445350547502 -0.4956239752209969 81 60 52
0.07517488942200373 0.21907230448064716 -0.49986884270521487 82 62 53
0.0765532766666729 0.21872896108476836 -0.5026709719660828 86 65 57
0.07728086386859598 0.2186010776285764 -0.5056337683300609 82 61 52
0.0775498111527364 0.2186251076704192 -0.5087117910658089 80 60 50
0.07470785941119665 0.2196800070118471 -0.5125841292187809 85 64 55
0.07235132958418425 0.22057441738306166 -0.5163427279837509 87 66 57
0.07192041448666932 0.2208308440177104 -0.5196128192482043 88 69 59
0.0714892154314492 0.2210874675426378 -0.5228858416660648 91 73 63
0.07744594300302113 0.21922589902071096 -0.5244888026420514 87 69 59
0.08111716715911871 0.21812169317849592 -0.5266755384646836 88 69 60
0.08049975027581219 0.21843976514807167 -0.5299889003338736 87 69 60
0.07988146997199792 0.21875824889486553 -0.5333059772686285 86 67 59
0.07908335978573922 0.21913653487367685 -0.5366748492441965 86 68 59
0.07658841323645903 0.22007816793464902 -0.5405064739644152 92 73 63
0.07794504380286327 0.21974153745604114 -0.5433003463697508 97 79 68
0.07781395171309059 0.21989876614073284 -0.5464982053334566 95 77 66
0.07783476093143568 0.22000561614681602 -0.5496560936256787 99 80 69
0.07503188535586054 0.2210504130314053 -0.5535976096282573 101 79 67
0.07131430779205808 0.22239947857390258 -0.5578049581872212 103 82 69
0.07093341892060549 0.22264034662835813 -0.5610906078590656 101 80 67
0.07055222738171955 0.22288141271254017 -0.5643790527330246 103 82 70
0.07017051311664273 0.22312275009394847 -0.567670358615911 105 85 73
0.06978871762513937 0.2233642121534027 -0.5709644039379946 107 86 75
0.0694064003947658 0.223605945449954 -0.5742613174432161 105 85 74
0.06992855981351569 0.2235469662411397 -0.5772996742026149 106 86 74
0.0682661241988138 0.2242146593493472 -0.5809724607361719 107 88 76
0.06843913685845068 0.22427195039522851 -0.5841158813676663 108 88 76
0.06731590362159175 0.22476061349622456 -0.5876411843549747 108 89 76
0.06935240330411419 0.22419783275411836 -0.5902375559622293 108 88 75
0.06958483352180025 0.22423540133757092 -0.5933648858889071 110 90 76
0.07038576081503944 0.22408371477415914 -0.5963228566710156 108 88 74
0.07083516338941821 0.22404904194264535 -0.5993852605463998 108 88 75
0.0712845539184839 0.22401436984470746 -0.6024475768964135 111 91 79
0.07340591314680434 0.22342271425450067 -0.6050012946980147 113 92 80
0.07349081395320543 0.2235093775465271 -0.6081720609009738 115 94 81
0.07357366809533313 0.22359676413941282 -0.6113446036314976 115 94 80
0.07366106993101178 0.2236826764591358 -0.6145168948786346 114 94 80
0.07144800536530296 0.22453554324005673 -0.6184056350137899 114 93 80
0.07238983868903372 0.22433678171276136 -0.6213169921523846 113 93 79
0.07221909155084255 0.2245089972245037 -0.6245763180667452 108 87 74
0.07270093918950293 0.22446360806362942 -0.6276314138407469 107 85 72
0.073403154162148 0.22434469314785407 -0.6306162857071538 107 85 72
0.07379711277082833 0.22432860279726352 -0.6336986813335979 107 84 71
0.0741913038291415 0.22431243842455212 -0.6367811011895728 101 79 66
0.07003253259544148 0.22581606663360204 -0.6413336659380744 97 76 65
0.07035276726630456 0.2258248803482224 -0.6444480649103399 96 77 66
0.07067304863743859 0.22583369121873298 -0.6475628032227693 94 76 65
0.07052600066015191 0.22599859658839436 -0.6508311821038971 94 75 65
0.07101589922085316 0.22595080141551785 -0.653891504103191 91 72 62
0.07150576816193219 0.22590300804651642 -0.6569516108761648 91 71 63
0.07199538841195216 0.22585528968876067 -0.6600115754038425 91 70 62
0.0731578149428431 0.22558268932246547 -0.6628460257611151 90 67 58
0.073398471505909 0.22561814053851342 -0.6659881807447321 90 67 59
0.07404815950462136 0.225516852201809 -0.6689925974449347 88 66 57
0.07461479247488377 0.22544331110005866 -0.672024478096915 83 61 52
0.07589844930811404 0.2251299226263539 -0.6748108547058113 82 60 51
0.07721147165576114 0.22480660402827937 -0.677584194440415 83 62 50
0.07740946560024016 0.22485626738650213 -0.6807393250738738 82 62 50
0.07983412554832743 0.224160771992842 -0.6831228834668035 81 61 49
0.07993671762632786 0.22424228700008222 -0.6863089921286092 82 61 49
0.08131573008284192 0.2238965109030236 -0.6890490712282177 81 60 46
0.09642636898707438 0.21929768957275286 -0.6965493942356593 80 55 40
0.09883899810167138 0.21860436364810645 -0.6988854883706376 82 54 40
0.10153689324044372 0.21781518080407383 -0.7011118321702254 81 53 38
0.10409954500203736 0.21707105182321612 -0.7033793211765164 77 49 35
0.10579896830215593 0.21661608356811057 -0.7059537011911519 76 48 34
0.10834853252692764 0.21587586464838293 -0.7082126627864217 77 50 35
0.11100551984634807 0.215099350301916 -0.7104247773093212 76 49 33
0.09829241178826532 0.21970960534558306 -0.724724235170365 73 45 33
0.10029854679331252 0.21915172700025037 -0.7271848729160054 74 46 34
0.12737509371629388 0.21063248982424404 -0.7328748824390346 71 43 32
0.188312012955399 0.19516823041387543 -0.848815832460875 76 39 19
0.1908088545344647 0.19443460478239732 -0.8507857560998141 78 40 17
0.19002983324910633 0.19481100983380936 -0.85427335661795 82 45 18
0.19069011322624538 0.19469964759560407 -0.8570925276753394 89 52 26
0.19011361664913326 0.19500759459613837 -0.8604909647923454 98 64 43
0.19063160963689946 0.19494449893811386 -0.8633775143116895 98 69 50
0.19118171135488055 0.19487049790424754 -0.8662484849092185 97 69 50
0.19075295002275194 0.19512855940755416 -0.86958333862958 95 66 48
0.1915620310210283 0.19496670797430019 -0.8723316871228427 94 65 47
0.19056084480334604 0.19541917281453017 -0.875943875162576 90 63 45
0.19235916101720818 0.1949215440855776 -0.8782179695403608 89 62 45
0.1880462126933674 0.19649855823954115 -0.8834299330712245 86 60 43
0.18683655214521555 0.19702238775969064 -0.8871588077566972 86 59 40
0.18516511262265373 0.19770326086459672 -0.8911174477554615 81 54 34
0.18226026867868186 0.19880338750484333 -0.8956840189588263 81 52 34
0.18146959214803213 0.1991856208872715 -0.8992292713621722 80 51 33
0.17976761743668015 0.19987769266376681 -0.9032257455629453 77 46 26
0.17791372553449744 0.20062167065954328 -0.907304528168442 79 47 26
0.17602601333022486 0.20137743652130982 -0.9114080956068048 96 68 45
0.17488381940679895 0.2018800057315602 -0.9151502323532322 101 74 51
0.17500094253980716 0.2019544995514815 -0.9182712836532222 100 71 50
0.17519323387619196 0.20200346255785354 -0.9213558426735627 96 70 49
0.17415439339527006 0.2024713012324049 -0.9250581871018282 93 68 46
0.17394495938264887 0.20265709763156664 -0.9283485563955253 89 63 41
0.17325314253246696 0.20300714904817543 -0.9318846267730516 78 49 33
0.1704205269785768 0.20408608457430305 -0.9365090496300685 61 34 20
0.1663941056879512 0.20557189439596196 -0.9417519472493332 52 25 13
0.18517427347046692 0.20032047699905994 -0.9639828288071781 85 67 56
0.19225945678809486 0.19801770008564035 -0.9634269689714182 90 72 61
0.19787091450406155 0.19633080408774894 -0.9667938648479023 94 75 67
0.1999345966522114 0.19574020661929017 -0.9688602232365761 94 75 68
0.20255724540790201 0.19495853979744585 -0.9706213776712179 94 75 68
0.20409176910763596 0.19454818654880285 -0.9729589795254973 96 77 70
0.2043202943844749 0.19458377792038023 -0.9759963361372102 100 81 74
0.20740554800487096 0.19364343077692442 -0.9774896084887293 97 78 71
0.21215420188934112 0.1921343495177328 -0.9780707311381979 96 78 69
0.21749190196246587 0.19042338717443075 -0.9783154940049007 96 78 68
0.2218677354346166 0.18904057871161054 -0.979067730217613 102 84 76
0.22428135949681816 0.18832812499228888 -0.980880805909039 110 91 84
0.22838579883389373 0.18703721561960868 -0.9817570192404605 105 86 79
0.22829585439095218 0.18718041422439227 -0.9849333914943381 102 83 76
0.22871912127515256 0.18714811134491258 -0.9878275272718237 91 72 63
0.22931287130188496 0.1870574734468852 -0.9906269238317448 87 65 53
0.233339346142529 0.1857920556561073 -0.9915134837178292 83 56 44
0.2357994495601039 0.18506231373306442 -0.9932622380931151 80 50 34
0.2348988428777301 0.1854828510597255 -0.9968877301360585 77 44 23
0.2355289900931367 0.1853794003082871 -0.9996569263814384 74 37 14
0.23647485395085058 0.18516779160231 -1.002247124231395 73 34 8
0.2386291585104282 0.18454216135396892 -1.0041512153455807 73 32 10
0.2402412892334771 0.18410205790195527 -1.006356837841263 69 30 7
0.2427665247447462 0.18334889301861854 -1.0080377948544539 69 28 6
0.2439191534063652 0.18306590401395864 -1.0104955543949006 69 28 7
0.2433734193082907 0.18336503312555152 -1.0139244020433456 68 27 7
0.24430801866317822 0.18315671459766691 -1.0165051682241986 67 26 6
0.24449447400656715 0.1832048955770744 -1.019515689167366 69 28 8
0.24654772891405163 0.18261277797925676 -1.021446345805798 68 27 8
0.24785637988162976 0.18227589664516877 -1.0238033460696832 68 27 6
0.24915198610208852 0.18194337175843467 -1.0261646160655553 72 35 11
0.2504502489352813 0.1816098170288491 -1.0285210498972632 77 39 14
0.25094403619331224 0.18155229632774636 -1.0313457530882761 85 49 22
0.2506357112214516 0.18177015686640055 -1.034641747467292 88 54 29
0.24945251239985045 0.18228854343167133 -1.0384563530576691 93 62 40
0.25092015046325544 0.18189666129127563 -1.0407083323723165 99 69 45
0.2511320761391427 0.18193601741970572 -1.0437016527374459 105 75 50
0.25145611183249617 0.18193687698150343 -1.0466289082849574 108 78 54
0.25016849422061566 0.1824916154698014 -1.0505188505687055 107 76 55
0.2512375106647128 0.18223652736491125 -1.053003354992527 106 76 54
0.2517031048613528 0.1821888055185777 -1.0558479496739717 103 73 50
0.24841566592632147 0.18343160476482925 -1.0609541238903921 99 69 46
0.24862296186668786 0.18347294902068711 -1.0639612506413456 97 67 44
0.24807593091667735 0.18377380341695995 -1.0674264577201515 93 64 43
0.24857449449315097 0.18371503398162212 -1.070259230011012 91 62 43
0.2476262869622826 0.1841541251249203 -1.0739741907992912 89 60 44
0.245016351951153 0.18516535064811684 -1.0787108488130586 82 53 39
0.24281430910352328 0.18603655352687362 -1.0832082597712631 73 45 31
0.24025482653605187 0.1870311767970522 -1.087935271140473 72 48 34
0.2393700610841681 0.1874494323276079 -1.0916392447492769 52 31 18
0.2386408612177009 0.1878142723358098 -1.0952516266120018 53 31 19
0.24028170809833088 0.18736272179993163 -1.0973962082271855 57 34 21
0.24834071559332918 0.18469936392589864 -1.095538235873817 50 25 14
0.2524406676364851 0.183399508529509 -1.0961254593067542 52 27 15
0.260077172056405 0.18088002647257362 -1.0944829751623928 52 28 14
0.2467900568889257 0.18557385021277895 -1.1059633420094837 58 30 13
0.24739822979275944 0.18547760455776097 -1.1087360186341084 66 33 14
0.25041634004754154 0.1845500869172139 -1.1099844693452234 74 37 16
0.2511356500822808 0.18441528421442624 -1.1126806821670294 82 46 22
0.25117126134535234 0.1845163537076387 -1.115810443612994 89 53 29
0.2524147944008283 0.18420058964366973 -1.1181712483662924 93 57 33
0.25254490847060296 0.18426905405590835 -1.1212410237145767 93 57 31
0.25287494254829224 0.18426853059237952 -1.1241835634821609 93 57 31
0.2535746148582065 0.18414037162535155 -1.1268885813189957 93 60 33
0.25258416363256697 0.1845959242914819 -1.1306828253074734 94 62 35
0.25243863127293215 0.1847597795080028 -1.1339355799196997 94 62 36
0.25229293386334006 0.18492376450753625 -1.1371904648806395 92 61 36
0.25196044439940796 0.18515237586809738 -1.140568920296894 90 61 37
0.25105088837482636 0.18558055229818043 -1.144326665604481 89 61 37
0.24972567467256268 0.186152606710751 -1.1483612939269483 86 62 39
0.24812294593778125 0.18682085418273187 -1.1525844691380094 73 54 36
0.24851740326361252 0.1867986271660155 -1.1555006760441968 82 69 55
0.04136392756083031 0.2046602691740204 0.11654979268259494 184 182 182
0.05387270093279573 0.20078975389111353 0.1126609048091468 147 136 130
0.06090280825042776 0.19865929419946174 0.10922078160291675 126 104 92
0.06884324822958271 0.19623871176973484 0.10573396407053458 121 93 79
0.07918552293436444 0.1930536227018813 0.10209715411170678 135 105 88
0.08941905361389815 0.1899020255796513 0.09849851987125427 150 118 93
0.09724864810385683 0.18751396212115193 0.09509596068042346 124 86 53
0.09912060964784551 0.18702033545979732 0.09211818742119791 104 64 30
0.09692256429498378 0.18782152775328242 0.08941329810139491 80 43 16
0.09574723396382734 0.18829754478252037 0.08663457621378912 72 36 16
0.09878229603384142 0.18743362358383955 0.08358636141806235 71 36 16
0.09865840089756939 0.1875750393121843 0.08073997223737175 65 32 13
0.10001721960596155 0.18724442144522035 0.07780334390806684 61 28 10
0.1005503736338438 0.18717663177136012 0.07491776778218434 56 25 7
0.10093954548455747 0.1871546862576578 0.07204077811075814 56 25 8
0.09929759103454627 0.18777978019772673 0.06927580521236443 58 27 8
0.10045939346257979 0.18751177512775985 0.06635421477683377 62 29 10
0.10096716339889167 0.18745210736226023 0.06346904493101123 62 29 10
0.09985776410670129 0.18790786255617747 0.06066594055525805 61 28 9
0.10014332210009474 0.18791909655392333 0.057789849044940944 60 27 8
0.09943544388076872 0.18824708720283342 0.054960549021203196 58 25 8
0.09892664638413509 0.18851171446026796 0.05211869842871526 56 23 6
0.09928099361191117 0.18850114379811952 0.04923576344267921 56 23 6
0.10013166681496792 0.18833224844728116 0.0463314492973137 54 22 5
0.09925218349673859 0.1887153234465828 0.04349992854757341 53 21 6
0.0987575621786781 0.18897572497519435 0.04064917253481364 54 22 7
0.09871046182009016 0.18909339047187834 0.03777857482241382 54 21 6
0.09865848366075909 0.1892126622786792 0.03490677879114463 54 21 6
0.09827744731467009 0.189437045373083 0.03204512919057648 54 21 6
0.10030831528728365 0.18889130964035006 0.02910022421220514 56 23 6
0.10058242565423993 0.188906484172085 0.02621654262686687 56 23 6
0.10114396582459022 0.18882985416048909 0.023323736236688323 57 24 7
0.10127555576053247 0.1888905755410132 0.020443848980960518 59 26 9
0.099202642494043 0.189655790054841 0.017623341416012787 60 27 10
0.09867497842876116 0.18992739840520528 0.014755357918922806 60 27 10
0.09925874646676947 0.18984382063764357 0.011857597885349201 59 26 9
0.10012513490522534 0.18966986193787957 0.008954014374848905 57 24 7
0.09906296078472178 0.1901125646471011 0.006092564697024437 57 24 7
0.09987144348081098 0.18995712929693684 0.0031900256610863324 58 25 8
0.09985241690682271 0.19006636030142018 0.00030364131167852186 60 27 9
0.09986894858387119 0.19016426104213965 -0.0025846268404582217 62 29 10
0.09988541466952772 0.19026222528862036 -0.005474083932609219 62 30 11
0.09974600814568618 0.19041012021903975 -0.008362658165115732 60 28 8
0.09951706502332386 0.19058673691180628 -0.011251858673695077 60 27 10
0.09981357015474485 0.19059519156796018 -0.014148368829922195 59 26 10
0.09890313431616216 0.1909901494919811 -0.01703479028702782 56 23 9
0.09925906715521013 0.19097966079742834 -0.01993424351624393 55 22 10
0.09904086063564452 0.1911530943923875 -0.022830674002903145 56 24 11
0.0992427239952946 0.19119200999061212 -0.025730687686627715 56 24 11
0.09968301840667099 0.19115454296757475 -0.028631884315791903 58 26 13
0.09963856757838377 0.19127243392679258 -0.031532560494798564 53 25 13
0.10038398350176161 0.19113717524098947 -0.034434028106518653 44 16 4
0.09937609199455029 0.19156401521149924 -0.03733848289298437 44 17 6
0.09850901092531719 0.1919458588077862 -0.04024679823548362 43 16 5
0.10126764338769736 0.19116497870831978 -0.04313930467982927 43 16 5
0.10081294561407393 0.19141461727707895 -0.04604698190576288 43 16 5
0.10125458687273006 0.19137677067343514 -0.04894963744089538 45 18 7
0.10254998548825693 0.19106495247632854 -0.05184348658669459 45 20 8
0.10629020516872473 0.18996836465688116 -0.054705846186730446 48 21 10
0.10647327243608312 0.19001327512184626 -0.05760502331310081 48 26 15
0.10945365493259382 0.1891600931222472 -0.06046327851669138 85 66 55
0.11122483235925619 0.1886949210338637 -0.06333330093549451 63 45 37
0.11429664942057863 0.18781186023795957 -0.06617557401930818 68 47 37
0.12431840689473377 0.1846959531637447 -0.06887329708761435 85 59 48
0.1318810518556785 0.18236904846077437 -0.07159276669231815 112 87 77
0.1342431550849723 0.1817125045607908 -0.07440790855572668 127 107 97
0.13011026106815854 0.18314323843845237 -0.07737475245297884 114 93 82
0.1346173189374113 0.18179710535744803 -0.08013219539320347 86 58 46
0.13674580525879354 0.18121525237866784 -0.08294199511495838 74 43 25
0.12714236491404846 0.18440584064964405 -0.08608702744896364 69 37 19
0.12983658335358209 0.18384812255227082 -0.09464736402235237 88 60 49
0.1363402662426253 0.18185824141536605 -0.09729943660218233 97 71 63
0.15543940630475422 0.1758137943202784 -0.0994669604455648 93 61 48
0.15991140957544822 0.1744758364941992 -0.10213873794396387 102 70 55
0.16866368983296243 0.17175931668135275 -0.10462595883001521 102 68 52
0.17535936201239893 0.16970412358454107 -0.1071724312213294 116 81 62
0.18170664112955331 0.167760426521641 -0.10971399893828626 112 75 55
0.18324720386980559 0.1673644660221691 -0.11245226047666436 132 98 85
0.1844369722769381 0.16708139753154352 -0.1152031454245352 151 126 116
0.1892469716432426 0.16563162468239978 -0.11777763088391895 146 120 107
0.19915722036572697 0.16263700810746262 -0.12286961047268724 102 63 35
0.19994778429943566 0.16248165234453538 -0.12561363130185324 91 49 16
0.20186344468572714 0.1619634345032954 -0.12829518031321444 77 37 11
0.20232222313819145 0.16191493316954886 -0.13105337431846706 76 36 12
0.20287852776775134 0.1618349620733484 -0.13380570617976398 76 39 17
0.20111598524515728 0.16250313643989672 -0.13669460733569314 74 38 18
0.20175674677401545 0.16239600267620036 -0.13944437862675083 68 35 15
0.20103209983714454 0.16272953741062163 -0.14227841316999496 63 33 15
0.1959326656475549 0.16447544944534218 -0.14539556696843203 64 40 26
0.19865218249943872 0.16369745738436603 -0.14801800316069347 64 41 29
0.19855727075666307 0.16382806228898952 -0.15082183207637684 64 42 31
0.1963880756074745 0.16462868778912654 -0.15376966784804677 63 43 32
0.19519650892374885 0.16511378715152272 -0.1566569255734137 63 43 34
0.18959312296714617 0.16702452867837173 -0.15986634187557197 61 42 34
0.17222620384094345 0.17406274150110393 -0.2010509268516762 60 41 34
0.1666811651848174 0.1760639869813069 -0.20731671566084392 60 41 34
0.16396063392805243 0.17704830648963518 -0.2104597031380989 61 42 35
0.16190003297121078 0.17781907934972693 -0.21354622441250473 62 43 36
0.16189693271433636 0.17792311512780926 -0.2164300808200161 62 43 36
0.16259206204962098 0.17780079781532454 -0.21924263008184158 62 43 36
0.16171377925703384 0.17818870937140674 -0.22222028209858982 62 43 35
0.16205977197587434 0.1781796591998302 -0.22507082470331571 63 43 34
0.1554999076589791 0.180411006488123 -0.22867271676001452 63 43 34
0.1557231556621604 0.18044219252768107 -0.2315482392383538 64 44 35
0.15631995621409855 0.18035216750249364 -0.23438247077615465 65 42 34
0.15693867204106554 0.18025500546960688 -0.237213555128876 65 42 34
0.1547909907978794 0.18105592754495664 -0.24036268814756004 65 42 34
0.15453867299630722 0.18124170423770278 -0.24329856167042413 65 42 34
0.15462449286692137 0.18131774017565958 -0.2461964661318329 66 43 33
0.15181022108418932 0.18233582811931548 -0.24944360944591404 66 43 34
0.15100883009592694 0.1827003406016226 -0.2524561683203751 67 42 33
0.13460764569202052 0.1881339663350319 -0.25739629620094684 66 42 32
0.14253644291823858 0.18566237776965666 -0.2593511509582619 66 42 32
0.1417038843855402 0.18603783409343552 -0.2623903993089224 67 43 31
0.14087220249550256 0.1864131477617542 -0.2654335193211091 66 42 30
0.14044944454850164 0.18665563392561008 -0.26842754668262564 64 40 29
0.14029181367367358 0.18681198837152668 -0.27138939190632805 61 37 25
0.14024641006819533 0.18693190122433323 -0.2743381080145375 58 34 23
0.14084415064302314 0.1868426223510925 -0.2772016549993176 60 35 23
0.1401143369749912 0.18718530915319234 -0.2802454804100317 60 35 23
0.13848152667377112 0.18782201623373607 -0.28341750270503263 60 34 23
0.14081946473776602 0.1871664084246404 -0.28604206225491363 58 32 21
0.140870539744279 0.18725512360217483 -0.28898313367569034 54 31 17
0.14053758925863188 0.18746893101892687 -0.2919801684927838 54 29 16
0.14205755345212195 0.1870793429583187 -0.2947119911951772 65 38 24
0.14240657231933732 0.1870710606687127 -0.29761117162299705 62 34 20
0.1462077927063084 0.18678141879860752 -0.32360489899366424 77 44 21
0.14444879920540415 0.18746107096719677 -0.3268468690400618 76 48 26
0.13619350782723338 0.19026131710458263 -0.3311612997032439 70 42 28
0.13534737806165742 0.19064384860626665 -0.3342768175286233 52 29 20
0.13105659466101244 0.1921512374791487 -0.33797262463461003 32 15 9
0.1257546948801609 0.19398937367032054 -0.34185459435028 38 21 14
0.12094264078748981 0.19566818131888428 -0.34567171482564996 61 41 29
0.11967332332546671 0.1961902411002785 -0.34889590383830227 66 40 24
0.11805138245372933 0.19682771448560268 -0.35218688031954914 65 38 23
0.11819843067417625 0.19688731590219333 -0.3551740961164114 63 37 22
0.11948095175887721 0.19657580587490334 -0.3579610483163571 60 35 20
0.11972137623724241 0.19660487464303955 -0.36093140105479155 55 32 18
0.12395736124002636 0.19532750106223823 -0.36318148819405954 53 32 19
0.1263814034481525 0.19464224981994188 -0.3657488346375086 39 20 12
0.13055359657437918 0.19338494828541655 -0.3679884176258296 50 33 26
0.13190036949052897 0.19305155286527714 -0.370739249680498 68 47 39
0.13318862472807205 0.19273719415173596 -0.37349791511856134 76 52 41
0.13126065866451525 0.19347531125951023 -0.3768603349982519 54 30 19
