ply
format ascii 1.0
element vertex 695
property float x
property float y
property float z
property uchar diffuse_red
property uchar diffuse_green
property uchar diffuse_blue
end_header
0.17586331213658307 0.1512290512430953 -0.8217470934394728 71 42 29
0.16953434744494528 0.155649988519667 -0.8281801347541219 75 47 33
0.18040262960834436 0.1491509957596831 -0.847747942094518 65 29 10
0.18902485069060543 0.14338849095554912 -0.8462772427798624 66 28 9
0.18814891561267572 0.1440975483478431 -0.8498905849277427 70 32 12
0.18728459041860412 0.1447988783569616 -0.8535028396813727 80 37 13
0.18927939158363188 0.14355154755850688 -0.855567974872505 86 44 20
0.18913216423567486 0.14376419336592702 -0.8587938678936274 87 52 29
0.18968443897178347 0.1435000192437677 -0.8616393271560597 91 62 40
0.18910937095545388 0.14400449135964788 -0.8651031199565091 94 67 47
0.18843680219642686 0.14457559245867543 -0.868624618445021 94 68 50
0.1888091193490374 0.14443424901918017 -0.8715724741137191 93 67 49
0.18688009989958343 0.14586256353682697 -0.8757982108386329 93 66 47
0.1886046181652541 0.14479900990314806 -0.8779973760090383 95 68 49
0.18680428790082038 0.14613994504382077 -0.8821627160693376 96 69 50
0.18294133161146467 0.1488884970369756 -0.8874950901869266 92 65 46
0.1815075742227351 0.14998009559318676 -0.8914761955705942 90 63 42
0.18312908091049157 0.14898695901322007 -0.8937369481878237 87 58 37
0.17852190333454276 0.15224474188200268 -0.8995280867747235 84 56 35
0.17804447837037207 0.1526843858206797 -0.902987265227422 82 52 32
0.17753118411530167 0.15314864457607213 -0.9064705544660849 77 45 25
0.17701751457046755 0.15361329354549477 -0.9099578130078874 84 53 32
0.1772486283956001 0.15356953953517502 -0.9130199297449805 93 66 43
0.17695566264482132 0.15388368935307448 -0.916385613444733 100 73 50
0.17802157184531575 0.1532699020827945 -0.9189659847098159 98 72 49
0.1777788446744626 0.15354984100494012 -0.9223053132365919 92 65 42
0.17745506992579801 0.153885237460886 -0.9256946305361042 88 60 37
0.1775792488133709 0.15391471265396367 -0.9288243281541448 84 56 37
0.17770366009822783 0.15394406928276816 -0.9319550158313946 65 36 22
0.17837848680634 0.15359735824417445 -0.9347618784085049 53 25 12
0.17594110777681482 0.15537745771411132 -0.9394114144097537 49 21 9
0.1737707766880635 0.15697545949436012 -0.9439139531736828 51 23 10
0.17521042858928632 0.15610627857949 -0.9462734201396531 53 25 12
0.18010469111460686 0.15287532604593157 -0.9465603239311232 56 29 13
0.17716740114478757 0.15499803860608619 -0.9515334521097325 67 41 26
0.17978228985964387 0.15332487986901064 -0.9531733348499853 76 53 39
0.18071535387712306 0.15280148352080283 -0.9558213662316778 72 50 37
0.1847836179875845 0.15013381165747633 -0.9565640487576619 78 56 45
0.1864182164313201 0.14913018340350986 -0.9587737637373462 85 62 51
0.1896722965212146 0.1470185493254179 -0.9599885055515541 90 70 59
0.19181891335512397 0.14566414216102835 -0.9618704892764769 88 68 59
0.19250300963597802 0.14531014228879366 -0.9646451303195233 91 72 64
0.19555849467379502 0.14333339869487388 -0.9659543473493875 96 77 70
0.2000886048763811 0.14034708736305104 -0.9663388500888833 92 74 66
0.20179460190475293 0.13929307178576597 -0.9684616018155728 91 74 66
0.2048361121915781 0.1373246921930571 -0.9697458655540361 94 77 69
0.20671493906700336 0.13615186799272347 -0.9717466591961244 96 78 70
0.20723107504401275 0.1359117959829338 -0.9745968658980713 96 77 70
0.2087001550373239 0.13501919491381079 -0.9768461861143023 93 74 67
0.21016728915516908 0.13412776493445272 -0.9790922129736762 94 76 68
0.214428797030186 0.13132236120188892 -0.9795615326251949 94 77 69
0.21736307402446906 0.12942547154746895 -0.9808591148634734 95 78 70
0.22028751979550681 0.1275349350119981 -0.9821522833714786 90 73 65
0.22149324869138334 0.1268215204316419 -0.9845356297689833 93 76 68
0.2248583428907855 0.12462842805902777 -0.9855279281106505 95 78 70
0.22536821534481485 0.12439144521803792 -0.9883484714436275 95 77 69
0.22733474437545698 0.12315615240883192 -0.9902263196557786 94 73 64
0.22711043909424378 0.12342223270733255 -0.9935191742213143 80 52 38
0.22991866038899395 0.12160966544084854 -0.9948403689151212 81 48 30
0.2329350640097109 0.119654013113713 -0.9960153861423116 79 43 23
0.23305954249892774 0.11968075968442354 -0.9990741977966026 77 40 17
0.2315079814592122 0.12085681712154184 -1.0032358422048726 74 36 13
0.23221581603578084 0.12048371324825637 -1.0059156926010044 72 34 11
0.23302513795968188 0.12004095491557897 -1.008527040761487 73 35 11
0.2338611013036571 0.11957985840867989 -1.0111189160254745 74 36 13
0.23785792088719412 0.11695032010478011 -1.0116044103362165 74 36 12
0.24151031998434985 0.11455653781821114 -1.012304668363776 73 35 11
0.24360062326699708 0.11323410851336961 -1.0140377362752377 72 34 10
0.248793352129024 0.10978242836056389 -1.0136783086200178 69 31 7
0.24461799520154318 0.11275943704524777 -1.0196150233188248 70 33 7
0.2458972856322971 0.11199314048935134 -1.0218816465996226 73 36 10
0.24285337354770953 0.11419442202331795 -1.0270777575285301 77 40 14
0.2432935130335309 0.11400429003761131 -1.0299170897637524 80 43 17
0.23879032109409726 0.11720830701649501 -1.0361312086873178 85 49 25
0.2400604634828457 0.1164485785646814 -1.038412116476147 88 55 31
0.2412227331704925 0.11576279900536608 -1.040763369222861 93 63 39
0.2423313205924213 0.115113772582866 -1.0431483083943713 92 63 39
0.24263531591240303 0.11501732405339461 -1.0460863367803803 93 65 41
0.24431109499571393 0.11397848210725131 -1.0480735478871592 95 67 44
0.24368312077737658 0.11452228088437594 -1.0516575250080666 96 68 46
0.24491352548770312 0.11378925800659825 -1.0539493465409793 96 68 45
0.2413293614167117 0.11636477885143803 -1.0596066248261482 94 66 43
0.24012250708177313 0.1173069857948684 -1.0636122005922395 93 65 42
0.23877181456747454 0.1183483057100758 -1.0677258355448331 94 66 44
0.24449768956747975 0.11452510789676643 -1.066849652934825 94 67 45
0.24164111001356117 0.11660175362809493 -1.0720296250606414 91 66 44
0.23640949247442652 0.12031197455050247 -1.0789107683872288 88 62 44
0.23456181229549347 0.12169599263496275 -1.0834046154414043 79 55 39
0.23804720746564906 0.11941250468258525 -1.0840963868326376 68 45 32
0.23736790744591493 0.11999314991699087 -1.0877603849806081 56 33 22
0.2378296205082569 0.11978904665834561 -1.0906085614385301 45 24 14
0.23934666978102764 0.1188588775547816 -1.0926953705530154 46 25 15
0.23620479895834762 0.12113415420510015 -1.098147058019297 47 26 15
0.23676700803921566 0.12086105656502773 -1.100926832452787 51 28 16
0.23629170264695254 0.12130196373011909 -1.1044607262349042 53 30 16
0.23805781515962418 0.12031407229377597 -1.1095513388634632 69 34 15
0.24068017378095555 0.11862260082883262 -1.11081676705221 75 39 13
0.24146738861828532 0.11819432020568453 -1.113423560855922 81 46 18
0.24548160785904122 0.11554387179318841 -1.1136460623924422 91 55 27
0.24669387956798322 0.11482249447024484 -1.1159277168033774 97 65 38
0.24529408559800175 0.11590005273115517 -1.1201456049661542 95 67 42
0.24506803671046057 0.11616937731087347 -1.1234970010640224 94 66 42
0.2509559319194869 0.11222687052401027 -1.122284288351215 92 66 41
0.24951443029404718 0.11333333761071207 -1.126538266589344 91 64 40
0.24871225101310274 0.11399955533552308 -1.1303198331881246 90 64 41
0.24817884648192634 0.11448073374617132 -1.1339040285445212 90 64 42
0.2487460058288746 0.11420353087090497 -1.1366606351971786 90 63 42
0.24653136894542535 0.11584376491901159 -1.141524327004229 88 61 40
0.2450282297079857 0.11699391714701729 -1.1458585995624768 88 61 40
0.04213318438702718 0.20251016437435973 0.12229030463973106 183 183 184
0.05251073972849139 0.19579489131264222 0.11848310978221371 182 182 181
0.06271948247232245 0.18918932028716634 0.11472473905000365 153 141 136
0.0728998247940814 0.18260120223855247 0.11100290750298199 121 98 87
0.08291599204989583 0.17611978160622843 0.10732830300452664 130 99 85
0.09286890018740263 0.16967875313035916 0.10369222988725102 136 98 76
0.0958442042442954 0.16782354488381343 0.10062086400382343 109 68 39
0.09448567645214696 0.1688172991975171 0.09788097801620152 77 38 10
0.09361060952472045 0.1694933870690537 0.09509988454181738 64 28 7
0.09421042026599923 0.16919978793694532 0.09220982227601572 63 28 9
0.09529487862531456 0.16858743977287244 0.08928700381642098 65 31 12
0.09295408675803245 0.17022778805503644 0.08659750976595343 67 35 15
0.09712264581618117 0.16758687744016426 0.08347113049244398 69 37 15
0.09586854277824897 0.16851264877931538 0.08070451836045008 66 34 13
0.09418719496715497 0.16971970113724766 0.07795872207828143 65 32 13
0.09252445923666087 0.1709147640222633 0.0752045632304953 64 31 12
0.091650307113041 0.17159118583697805 0.07239698337463184 58 25 6
0.09306254572207452 0.1707631559047488 0.06945492586353202 57 24 5
0.0917447128631999 0.1717317495186687 0.06666698575279206 59 26 7
0.0919881348624958 0.17167294367244526 0.06378973803241002 59 26 7
0.09482093976973603 0.17011235684254356 0.05505389148103806 61 29 8
0.09448554718646598 0.17043460763905305 0.05220518117708743 61 29 8
0.0939719421562631 0.1708743022873167 0.049361881801078186 62 30 9
0.09345805306174035 0.17131429600446182 0.04651543153572296 64 32 11
0.09265732086150087 0.1719433258251727 0.04367759103804203 66 34 13
0.09315717871125992 0.1717158124655479 0.04078446922083921 66 34 13
0.09226205405187679 0.17240723882701986 0.03794410216609479 66 34 13
0.09248810368231167 0.1723601740197567 0.03505912164468508 66 34 13
0.09263250389350683 0.17236692641954557 0.03217635490534077 65 33 12
0.09345904031628673 0.17192421920831044 0.029270752222567593 65 33 12
0.09425588435666661 0.17150102425659483 0.026367613731401163 65 33 11
0.09405769411943939 0.17173357444030504 0.023494482744420224 64 32 10
0.09503291827539517 0.17119276263192082 0.02058769371323867 62 30 10
0.09393386510516169 0.1720192295737025 0.017735172193474022 60 27 10
0.09272929201771497 0.17291544739990083 0.014879862270967987 58 25 8
0.09478511469722099 0.1716622200474152 0.011948451721248487 57 24 7
0.09391249635234296 0.17233974705726815 0.00908106318212445 59 26 9
0.09303855867726377 0.17301830206207275 0.006209236925162414 63 28 9
0.09224271808407086 0.17364550962341263 0.003331668795661934 65 30 11
0.09083090774565242 0.17467914172425084 0.0004588482465930305 66 31 12
0.09065664586623846 0.1748966706135657 -0.0024361279884742093 66 31 11
0.0901878751080718 0.17530855673842544 -0.005329867865828737 68 33 13
0.08962687996067105 0.17578139652514999 -0.008225801943671143 64 29 9
0.08918501401040882 0.1761757515085286 -0.011125990607336784 61 26 6
0.09051707137743174 0.17539962376508278 -0.014039119067888775 57 24 5
0.09194728150984405 0.17455860113913618 -0.016949262906864503 55 22 3
0.09321756221742591 0.17382300234500908 -0.01985536098852152 58 25 6
0.0878223389557095 0.1774870257846774 -0.022756386198073304 58 25 6
0.08748087584503447 0.17781559850701278 -0.025670475881722683 54 21 6
0.08834024366444378 0.1773514730786733 -0.028583232843109152 50 20 5
0.08951825492102948 0.17667689915784485 -0.031492696287195865 42 14 2
0.09007920560594501 0.17640968765473583 -0.03440356467104162 42 14 3
0.09342142859664523 0.17430572699539537 -0.037289807207822885 45 17 6
0.09122445960757698 0.1758597756863058 -0.040223204908580334 43 15 4
0.09453848401552585 0.1737740434443989 -0.043098572193812114 41 14 3
0.094169579474361 0.17412081318083672 -0.04601501529715744 42 15 4
0.09503193573825518 0.17365425333522883 -0.04891472979917573 42 15 4
0.09143554464081874 0.1761335617528399 -0.051891103314062784 42 15 4
0.09104311924653219 0.17649628759486619 -0.054819700487137496 44 17 7
0.09188570061939799 0.17604297740975489 -0.05772496604042085 45 17 6
0.08999110101422952 0.17739860693745166 -0.06069142123080283 44 19 11
0.10793475338476657 0.16564220603491875 -0.06317519870598835 77 57 52
0.11354162996439686 0.1620384918615496 -0.06592336667498401 74 54 47
0.11921113661746799 0.15839270976957925 -0.06865100959255992 80 53 43
0.13487515160124508 0.14813836444705736 -0.07105853641158272 110 88 75
0.13847373762768264 0.1458599267409711 -0.07379634461485882 151 132 122
0.13905041400060428 0.14557940584895118 -0.07662448563480125 125 105 95
0.13993706790724394 0.1450938581048167 -0.07944089978733423 96 72 57
0.13439356263737 0.1488611968619389 -0.08249547078110361 68 36 19
0.14413552132548724 0.1425184054791776 -0.08497335311657368 60 27 14
0.14030489914456218 0.1451531486629804 -0.08797294966869897 58 25 10
0.14168479104063586 0.14434116211075304 -0.0907650854695791 61 28 12
0.14427732236257948 0.1427266901546026 -0.09349960978914042 73 47 34
0.15154600503332777 0.13801760483648268 -0.09600948274474971 101 81 73
0.1558491430856844 0.13527020592942152 -0.0986372352067912 90 70 60
0.16014510904168308 0.1325270516978911 -0.10125116196895996 88 59 48
0.16523438881145625 0.1292582873804339 -0.10380986675141826 93 63 52
0.1698179739891802 0.12632368007910033 -0.10637860920835794 108 78 67
0.17210096873380853 0.12491162954767665 -0.10905949516038466 111 81 71
0.17598985062609154 0.12243606059584572 -0.1116416490896656 111 84 72
0.18007241312552877 0.11983179052980986 -0.1141996444105481 147 126 116
0.18389004844075402 0.11740248925273182 -0.11676030090095843 153 132 123
0.18636247389922084 0.11586368086967866 -0.11939268163188306 127 98 83
0.188016503254217 0.11486668039289342 -0.1220701553495071 114 79 55
0.18858707147669043 0.11458723241545479 -0.12481472468546645 94 57 27
0.19540420948160747 0.11016943896673989 -0.12713349829851514 87 48 19
0.19485628662064142 0.11063060364731683 -0.12994339520625722 69 27 6
0.19511245774760383 0.11055907445948594 -0.13269897542050224 70 31 10
0.19340573373574654 0.11178834567967108 -0.135599217707092 69 33 11
0.19249043090166393 0.1124933677879458 -0.13844739202295922 68 31 9
0.1929497746461857 0.11228741676762335 -0.14119420114728132 67 30 11
0.19186331112750682 0.1131061397499171 -0.14406271647116733 69 41 26
0.1906940723486221 0.11397992554692038 -0.14694320906653865 65 44 33
0.18987470043349627 0.11462194438056375 -0.14980040216948404 65 44 33
0.19305361159447573 0.11261295795730611 -0.1523244091199749 65 46 37
0.18988305512218515 0.11481418677121095 -0.15538572774702722 65 47 40
0.18224836478590623 0.11997650098575896 -0.15885306762078258 65 48 40
0.1798282624002664 0.12168118024458097 -0.16188089613465598 64 46 38
0.17782854929856795 0.1231073622951692 -0.16488035759285138 62 43 36
0.1782791993220759 0.12290828676828433 -0.1676592764432051 62 43 36
0.1768970341777517 0.1239252041043187 -0.17061269207080304 62 43 36
0.17582396427836539 0.12473725550272763 -0.17354247706567438 62 43 36
0.17439269401255963 0.12578719273489355 -0.17651301726920507 61 42 35
0.17538762689674112 0.1252271987890278 -0.17924546875664668 60 41 34
0.17621321602240173 0.12477952116136173 -0.18199302975221637 59 40 33
0.17519551713407844 0.1255553333767658 -0.18493158184760236 59 40 33
0.17518720709195718 0.12566124236406523 -0.18776788203682146 58 41 33
0.1722533783852238 0.12770949866249517 -0.19092206553238267 58 41 33
0.16939012251222021 0.12971132547462833 -0.19408061575503005 59 42 34
0.16530552076519894 0.13252460236695057 -0.19738765543251818 59 42 34
0.1622231883771934 0.13467284123991496 -0.2005971242341051 58 41 33
0.16009040751479453 0.13619086084243334 -0.20370960049360587 58 41 33
0.15919848251806473 0.13688497989578685 -0.2066856695670452 58 41 33
0.1642603899474468 0.13362409812741255 -0.20895670078223752 56 39 31
0.16229497202221926 0.13503135748433362 -0.21206108773860652 57 40 32
0.16032919997754796 0.13643915729866024 -0.21517413716541414 59 42 34
0.15915342746268019 0.1373223067453585 -0.21819728200141011 58 41 33
0.15783540426150794 0.13830019384161968 -0.22124415262157088 58 41 33
0.1472766244719957 0.14562574745402673 -0.23129475291631066 58 41 33
0.15459619415466544 0.1413755235375311 -0.24771309627435156 59 41 31
0.14674761366634476 0.14690603824778112 -0.25759209237575903 59 39 30
0.1432452317057695 0.14934001508697586 -0.26104076473476473 60 39 30
0.13814107013260704 0.15284045955508663 -0.26474804150948605 60 39 31
0.13845331078896314 0.1527367443517065 -0.2676398863400259 60 39 30
0.14014504583517232 0.15171482686323695 -0.27031656824244443 62 42 31
0.14241614166294228 0.15030706819571646 -0.27289683903233153 63 43 32
0.14352523508106876 0.14967265985884326 -0.27565587628316235 59 39 28
0.14490222554476193 0.1488597868426994 -0.278368883905745 58 36 26
0.1436567294119568 0.14979303887092452 -0.2815072344740652 60 36 26
0.1444221784475962 0.14938732893002324 -0.28431891045470886 59 35 25
0.14248093285864158 0.1507842536610536 -0.287582058369213 53 29 19
0.14469646310430404 0.14941275747088126 -0.29015059257653447 44 22 11
0.14264015214842793 0.15088667120240848 -0.29344300150062796 53 30 19
0.14130229790823184 0.15188226563019044 -0.29662027596215035 61 37 27
0.13871328342835867 0.15371170282993107 -0.3000226546035669 52 26 18
0.13382049723317416 0.15707662808537268 -0.30384309084233246 85 64 60
0.13052898914143118 0.1593751498955737 -0.30739738578114895 73 56 52
0.12589548339349266 0.16256856242991174 -0.31120749953782706 83 60 51
0.1328591675096464 0.15803266735612687 -0.3129227501553698 61 30 13
0.1412724224613558 0.15252961083058308 -0.3143465037532195 59 26 9
0.13948924509072302 0.1538231550299054 -0.3176367085487643 59 26 9
0.1415079350476867 0.1525821404620194 -0.3202207828621576 59 27 10
0.14367030429065789 0.15124510339582783 -0.3227714763760532 63 31 16
0.14075515098987912 0.15329387694849628 -0.3262884348730214 64 36 21
0.13716154247894208 0.15579557489653945 -0.3299490395317927 69 42 28
0.13310716637075395 0.15860513453216274 -0.3337145886894456 60 35 24
0.13196965532238092 0.15946953387276147 -0.3369214771078339 31 15 9
0.12930839610771183 0.1613506824867288 -0.3404374990672029 25 12 4
0.12819997014648524 0.16219618315200057 -0.3436528595307373 53 34 20
0.1274045240525106 0.1628330413883681 -0.34681034970077207 61 40 21
0.1279587864786645 0.16256934934524253 -0.34969593006403793 59 37 20
0.12509672814304823 0.16458569382104057 -0.35328683344432416 59 36 22
0.12682626848789902 0.16353772451610474 -0.3559325298275545 61 38 23
0.1278416619674507 0.1629662946469409 -0.35872343987773464 59 34 19
0.12423836859707812 0.1654782248961016 -0.36249248393765593 53 30 17
0.13021637165183123 0.1615935579387071 -0.3642245235241863 39 20 14
0.13362156999904642 0.15942609731279728 -0.366491365319212 40 21 16
0.13819113716534176 0.15648066573145014 -0.36849305575865693 49 29 23
0.14156975255008958 0.1543300749175301 -0.3707407707794032 65 44 35
0.14199279701457082 0.15415321570004775 -0.37363250155734584 70 48 37
0.13962200074457604 0.15584264478543391 -0.3771488291135446 54 32 21
0.14022906509700775 0.1556489770068824 -0.3829965167074873 58 34 24
0.1339469626436588 0.1599527048192305 -0.38743082723080347 70 47 36
0.13834372594380812 0.15712095414453234 -0.3894216608626114 74 48 38
0.1428853134012243 0.15419187441866203 -0.39136355612673596 59 31 23
0.1505184268903859 0.149195846357956 -0.3925632969325341 50 21 12
0.1523621707727176 0.14806887657464055 -0.39510685432887294 53 23 13
0.15590082485894408 0.1458085970654962 -0.3972401983283825 54 24 14
0.1680448383643765 0.137794296022202 -0.3972906114718772 55 25 15
0.16805573454836575 0.1378915082649688 -0.4002393485715954 60 27 15
0.16763596207674614 0.13827677599776922 -0.40329477206053777 74 38 26
0.17794310736318683 0.13180001207187658 -0.412525607453911 79 47 24
0.1779032662470045 0.13193080774512161 -0.41547695648309174 77 37 17
0.1831583823570263 0.12851856534098677 -0.41707505017806623 72 33 9
0.18191132066633844 0.1294570039176969 -0.420330699514813 74 37 11
0.18216958843220973 0.12938817490872306 -0.42320162950876433 73 36 10
0.18153808992213039 0.12991492511665825 -0.4263057786654342 71 34 8
0.18074474943151858 0.130550151349165 -0.4294564303912943 71 35 13
0.17804276832183535 0.13246333834766189 -0.43311814442974994 77 45 26
0.16904412536187322 0.13859287569857287 -0.4384749057351163 78 50 37
0.10771827337033558 0.18031025935768105 -0.4734143060010022 74 48 29
0.10714565346055371 0.18080355539555312 -0.47667127241491714 72 45 26
0.10589367662687506 0.18175221560790555 -0.4801239818540567 73 45 28
0.10404006499810739 0.1831042922630471 -0.4837542317824816 71 42 26
0.10295927792402394 0.18393870573395021 -0.4871717251351199 70 41 25
0.09981033120806648 0.18615960179488153 -0.49119138385259187 71 42 26
0.09658093770572203 0.18843490957338982 -0.49524804046730814 72 45 28
0.09949731739139225 0.18659038134928413 -0.4975225175857968 71 44 27
0.10100670227622374 0.18568890225618373 -0.5002012249980481 72 45 28
0.10078052482561575 0.1859510871174931 -0.5033895722839181 72 45 28
0.10170166580974194 0.1854439224338169 -0.5062383950230317 70 43 26
0.10210029078610532 0.18528714124969628 -0.509241943643062 70 43 26
0.10199360778384778 0.18546930781845938 -0.5123980440305809 68 41 24
0.09985406850235329 0.18701526995197781 -0.5161737135870128 68 39 23
0.10005227448666308 0.18699316063478694 -0.5192444310085368 68 39 23
0.09655771164829002 0.1894488499904863 -0.5234521096181618 73 42 26
0.09659980321158625 0.18953180891555568 -0.5265798614435313 75 43 27
0.09938283735478128 0.18777532666763594 -0.5288550878745345 76 45 27
0.09975319339465169 0.18763787044869076 -0.5318774198172043 74 43 25
0.10123627471382399 0.18675349834036606 -0.5345489078098645 76 45 27
0.10312192142974723 0.1855987271649405 -0.537088456246911 76 47 29
0.1040208409546676 0.18510623125386952 -0.539937299090774 79 50 32
0.10388323424967717 0.1853096515292642 -0.5431171640528151 84 55 37
0.10465504141103961 0.1849024494486246 -0.5460052316896441 87 58 39
0.10463783996516508 0.18502509142755913 -0.549148364962958 86 58 37
0.10619771889492012 0.18408852163564854 -0.5517773551272146 85 57 36
0.10696849307004068 0.1836818605417236 -0.5546614440550962 81 53 32
0.10749338521411624 0.18344033261372314 -0.5576254624335751 80 50 29
0.10731567877269342 0.18367084318035398 -0.5608228676652782 78 47 26
0.10422666950198096 0.18585765372628094 -0.5649972524144423 81 50 29
0.10531450599990663 0.18523806817047822 -0.5677786414070202 82 51 30
0.10527566171768638 0.1853756049669755 -0.5709389663305824 82 54 33
0.10365693418318728 0.18657511556849454 -0.5746391893665421 80 52 31
0.09595483752179002 0.19186424020812615 -0.5804314227102901 77 49 28
0.09387369671760717 0.19337560151899885 -0.58431857327138 70 42 22
0.09362148294824622 0.19365762029373076 -0.5875817010251326 73 44 26
0.09359985022513494 0.19378468187304768 -0.5907670462141675 78 49 31
0.09447289462808456 0.1933101393399413 -0.5936405621018882 79 50 32
0.0962493622137361 0.19222792488238674 -0.5961939262845438 79 50 31
0.09614242291658338 0.19241235685174873 -0.5994092310603403 79 50 31
0.09519186183274879 0.19316436343501792 -0.6029270839647548 80 51 32
0.09483378894692375 0.1935179502295588 -0.6062379984111098 81 53 33
0.10856632478143148 0.18439094712386367 -0.6044768360665478 82 54 33
0.10876229630059096 0.18437094815144256 -0.6075654995083016 81 53 32
0.10830101284148817 0.18479329491707325 -0.6108942687969499 79 51 30
0.10736476284846073 0.18553543576157172 -0.6144002821830686 76 49 28
0.1073923888963563 0.18562896260807776 -0.6175568265756859 75 48 27
0.10317290052316215 0.1885816346112893 -0.6222861566398314 78 51 32
0.1025412315203375 0.18911943399633985 -0.6256991930617964 79 51 33
0.10323101116455138 0.18876761439844558 -0.6286222066564916 76 47 31
0.10399055684243988 0.18836877501646898 -0.6315178738004978 77 48 31
0.0955775157401669 0.19414728431178974 -0.6378778157100942 76 47 30
0.0967963327444732 0.19343965029513835 -0.6406142937943391 76 47 29
0.10553320178682904 0.18766772550769859 -0.6404774519429167 79 50 31
0.10713277538768715 0.18670283573083096 -0.6430466195266354 77 47 29
0.10867072977349831 0.18577929457225706 -0.6456348421677294 75 46 28
0.10948559771591469 0.18534281906940914 -0.6484989134258254 73 44 26
0.1079428105068718 0.1864950659290635 -0.6522800072855989 73 44 26
0.10801218572206726 0.18656106574634324 -0.655437426841505 75 46 28
0.10940051369336469 0.18573811026325734 -0.6580770372384885 74 46 27
0.11113759406180022 0.18467992621071005 -0.6605748037677986 70 43 24
0.11111771498130993 0.184806028992455 -0.6637657625008607 68 41 22
0.11084865694264086 0.18510019509662984 -0.6670579434312736 69 42 23
0.11155739239565823 0.184735128225261 -0.6699602032240267 71 42 26
0.11017909121998358 0.18577745550482822 -0.6737033168083406 72 43 27
0.1130179100952988 0.18397583345683038 -0.6757436401165048 69 40 24
0.10806041548440025 0.18743257068516694 -0.6809507935110725 69 39 22
0.10657992545255393 0.18854453755580358 -0.684755653246523 69 38 20
0.10746660422670119 0.1880597548857985 -0.687594139260195 68 37 19
0.11054711280267804 0.18609467975252098 -0.6895238265129731 68 37 19
0.11501728935822114 0.183191491672749 -0.6908656735386702 68 37 19
0.1141933352033114 0.18386054136123692 -0.694400881710126 69 38 19
0.1155410844234168 0.18306401004056058 -0.6970302883850115 71 40 20
0.11724675292871364 0.18202574917152248 -0.6995051402746305 71 40 19
0.11516559677287214 0.18354368966788814 -0.7035778228663643 73 40 23
0.11728831601177636 0.18222375927199916 -0.7058724701302028 73 40 23
0.1157303206838349 0.1836154836267903 -0.7161336851612956 70 37 20
0.11573431393473871 0.18383963972137748 -0.7225390502350151 65 34 16
0.12860969617603904 0.17581882653322412 -0.7360404622414368 68 35 18
0.12997525957346462 0.17512156204280016 -0.7418056067512806 71 38 21
0.12762219588741586 0.17682550743327685 -0.7460625123359389 71 38 21
0.13165331815572484 0.17421282690617226 -0.7474239666942957 69 36 19
0.12635622653771011 0.17790807579621545 -0.7530363736168176 67 34 17
0.12921356136951961 0.17654222326359392 -0.7677294808174406 62 33 15
0.13582735683498295 0.17218012124713405 -0.767830247492585 61 32 16
0.13706082269593384 0.17145840011754807 -0.7704419572908333 61 32 16
0.14064342014841366 0.16914656195729352 -0.7719383494699098 61 32 16
0.14204218068986235 0.1683125448919327 -0.7744600383761396 64 35 19
0.14729806076693802 0.1648671622607346 -0.7751363837273053 67 38 22
0.14832884268563534 0.16428172768460372 -0.7778186409650403 67 40 23
0.14943263641378415 0.16364676414150667 -0.7804631950943592 66 39 22
0.15812379074633826 0.15787352289230847 -0.7794369116003769 65 38 21
0.16325407621375174 0.15451077808013022 -0.7801057626069895 65 38 21
0.16251053563862994 0.1551259635478814 -0.7836188169541644 65 37 22
0.161512113334892 0.15591397306642937 -0.787261235535048 64 36 22
0.15972509481881594 0.15723644689340893 -0.7912968993406208 69 41 27
0.16188657387307742 0.15588388919066734 -0.7933926422918977 67 39 25
0.16226399433755184 0.15574001299574378 -0.7963653548378269 69 41 27
0.15656701466819037 0.15971278140207637 -0.8023607204574136 70 42 28
0.1601379196239675 0.15762928143827798 -0.8100881645305977 70 42 28
0.1613867393624469 0.15689487851426753 -0.8126279406640292 69 41 27
0.16460414913373922 0.1548255255103319 -0.8141647236590609 70 42 30
0.16348448038551916 0.15569688955369201 -0.8179009530075675 72 44 32
0.16563284797372224 0.15435206784195343 -0.8199707488985989 68 40 26
0.17179236354954197 0.15028631769226286 -0.8199723346641469 67 39 23
0.1745548114977438 0.1485241399121708 -0.8217029113002486 68 39 23
0.17140349677341027 0.15077365182916075 -0.8264866307941577 72 43 27
0.17440814286041476 0.14951801262356035 -0.8470388584671551 73 37 18
0.1894508375871002 0.13941606360752187 -0.8421672799549019 69 32 14
0.18310437888198994 0.14383679511018857 -0.8487063715013455 69 33 12
0.18587241641651212 0.1420684316365024 -0.8503664502168549 72 35 10
0.18510553633709934 0.1427007040919898 -0.8539269794232219 79 39 14
0.1863525808359517 0.14196510415925412 -0.8563998521895473 86 45 18
0.18962466930204927 0.1398536393958196 -0.8577666341902651 91 53 27
0.19042517730163916 0.13942103688768423 -0.8604723790555169 90 59 34
0.18876911245608835 0.1406576371609412 -0.864524058312293 92 65 44
0.18831169850004853 0.1410799542043275 -0.8679241273770626 95 68 49
0.18757316403571278 0.14169345929533106 -0.871483051292274 94 67 49
0.18660138707917295 0.14246566992061518 -0.8751760060186811 94 67 48
0.18649372484227605 0.14265065420156875 -0.8783934321417478 91 64 45
0.18473675811899373 0.14395702779169678 -0.8825346275818886 93 66 47
0.18371876630756356 0.14476125205734797 -0.8862701701559733 92 65 46
0.18458229514819177 0.1442862137603173 -0.888952285169732 89 62 43
0.18322989902053782 0.14531813763258147 -0.8928845200784767 86 58 38
0.17802465594590985 0.14897088431692276 -0.8990088568138267 84 56 34
0.18186107368850124 0.14647397541181656 -0.9000102086833064 83 54 35
0.18314598422371742 0.145712379869162 -0.9024548157262873 78 47 29
0.18091159257801576 0.14734512828067678 -0.9069132856799909 83 54 33
0.17802791332064175 0.14942007292553533 -0.9117561747598479 96 68 45
0.17733541593007973 0.15000433321361234 -0.9153473976921976 98 70 46
0.17689702202799434 0.15041580917080738 -0.91879586946599 100 72 48
0.1766408601116619 0.15070336629245573 -0.9221418132925605 94 67 42
0.17662240065035686 0.15082920312889345 -0.9253517268316093 86 58 35
0.17578971192553744 0.15150944634799657 -0.9290402390131899 82 53 34
0.17618772076893333 0.15135189279110783 -0.9320104866589347 71 39 24
0.1777486335437693 0.15040243701284542 -0.9342948074104344 57 27 13
0.17772456760018207 0.1505322484425036 -0.9375124549987703 52 23 9
0.1727441523672965 0.15403797151520293 -0.9436758230248081 53 24 10
0.17238509891145096 0.15439646071211213 -0.9471069169434065 54 25 11
0.17895424285756056 0.15003513461980628 -0.9463971590447577 55 27 12
0.178134855205425 0.15070697923033075 -0.9500964385876911 65 39 20
0.17968198570598842 0.14976643247624988 -0.9523754367719004 78 53 38
0.18162331415797428 0.14855707650398672 -0.954411403588603 68 44 31
0.18551160583542706 0.14602052469578883 -0.9552601940347474 79 56 43
0.1889729152587659 0.14377450239063377 -0.9563542709481746 83 63 54
0.18994726652354083 0.14322340025282346 -0.9589541532843957 91 73 63
0.19102972382892508 0.1425985079567065 -0.9614853777518304 91 73 65
0.19276580369102478 0.1415278394194681 -0.9636118881611059 95 77 69
0.1961349713025878 0.13934332605048644 -0.9647253815745005 97 79 72
0.19773324649575033 0.13836612271459928 -0.9669225667698896 90 73 65
0.1990886821740729 0.13755437568741222 -0.9692655297474824 92 74 66
0.20085077692100167 0.13646508409184643 -0.971351058698784 94 76 68
0.20220623079899744 0.13565300924657492 -0.9736851022927234 95 76 69
0.2047570597321959 0.13402519092197346 -0.9752652219075468 92 74 66
0.20718597750653808 0.1324802411092808 -0.9769130333730559 91 74 66
0.21017047550988405 0.1305558359863287 -0.9782014506756118 92 75 67
0.2145287641829823 0.1276934072395002 -0.9786085494802383 90 73 65
0.2164487250907973 0.12649477606888546 -0.9805490650105704 94 77 69
0.22036191112685355 0.12393520678444461 -0.9812118709245359 94 77 69
0.2213476142393233 0.12337382948396669 -0.9837331810051588 93 76 68
0.22460214548595037 0.1212631700017407 -0.9847953872101967 94 77 69
0.22482342390614965 0.12122346446152872 -0.9877992683005028 95 77 69
0.22500543703543566 0.12121060028618623 -0.9908292157326329 98 76 67
0.22708032634827077 0.1199048569270252 -0.9926328580482442 85 58 46
0.22781536563056648 0.11951413255241786 -0.9953008468982415 82 51 33
0.23112248372960117 0.11736614085288512 -0.9962890441226804 77 43 20
0.23210669324703848 0.11680487163180374 -0.998785561601943 74 39 13
0.23006813336225182 0.11830908592428344 -1.003264693457613 73 35 12
0.23258516140489482 0.1167003159986701 -1.0047526528968465 72 35 9
0.23088341958799455 0.11797470307329867 -1.0090200011771797 72 35 9
0.23183540776081787 0.1174354130799178 -1.0115365824092013 74 37 11
0.2357290311071499 0.11488502848181233 -1.0120940869641963 74 37 11
0.23700954762716261 0.1141207303121834 -1.0143804450469756 73 36 10
0.24027055297383282 0.11200206670159796 -1.0153372846527755 72 36 10
0.24471200199544121 0.10907571253514442 -1.0154892757521456 68 32 6
0.24698723567682643 0.1076303033703641 -1.0170833125053715 69 32 6
0.24528826767495285 0.10890300867387705 -1.0213548742325227 73 36 10
0.24411203403730997 0.1098184307514131 -1.0252809095219901 75 38 12
0.2427624288189696 0.11085270083780102 -1.029331440359578 80 43 17
0.24147069007039987 0.11184763670494365 -1.0333498470012994 85 49 24
0.23929251147929417 0.11344942505997943 -1.0379818825047111 87 54 28
0.2391875050541959 0.11363274738758508 -1.0412018818579178 88 57 31
0.24105319778433806 0.11246727518286116 -1.043067194788285 92 62 37
0.24234607521910012 0.11169369333962055 -1.0453217956464824 94 63 40
0.2436939955969538 0.11088229161308819 -1.0475344031568377 94 65 41
0.24291511511328823 0.11152693869045588 -1.0512207093236745 94 66 42
0.24354283927515574 0.11120857031116212 -1.0539315956190929 95 67 43
0.24423915482272798 0.11084319116169614 -1.0565934910585504 94 66 42
0.24111017367737625 0.11309776292209348 -1.0619364828863689 92 64 40
0.2389270994282182 0.11470492890015102 -1.0666291306113527 95 67 43
0.24243871671424666 0.11241125074083316 -1.067315137209485 95 67 44
0.23721092532969415 0.1161048204244613 -1.0741720835161357 93 66 44
0.23887318145564132 0.11507806920971998 -1.076162668633084 90 63 44
0.2344228911334466 0.11824000049933345 -1.082499335873784 81 55 39
0.23400934380185823 0.1186360128796132 -1.0859742796156253 70 47 31
0.23413049382786955 0.11866564201157222 -1.089069708164886 63 40 26
0.2342627036868741 0.11868772970931903 -1.0921583300687772 47 24 14
0.23463057642829216 0.11854828692227604 -1.0950782584869707 44 21 15
0.23514972071921808 0.11830512469137489 -1.0978889613238958 44 22 14
0.23637942093001765 0.11757468159201691 -1.10018413038628 51 27 16
0.2367480685767266 0.11743463927929684 -1.103101572768154 52 28 16
0.24154613923895546 0.1143689775790378 -1.1059675577671846 70 35 15
0.25036164671144473 0.10843366846299084 -1.102682253308676 76 39 14
0.24823172195076057 0.11000702113910261 -1.1074107672443982 80 44 18
0.2424365063199067 0.11409588612536067 -1.1148536738681076 91 56 27
0.24444347367283922 0.11283122488032124 -1.1165513420579387 93 61 34
0.24512547519210823 0.11247571262810828 -1.1192250549713056 95 67 40
0.24436973348008145 0.11310706596847005 -1.1229672781198334 95 67 43
0.2469979337652194 0.11141549439041608 -1.1241892281866084 94 66 42
0.24850323635339655 0.11049454314734791 -1.1262418705241852 93 65 41
0.2493173766759444 0.11004801394384145 -1.1288084265724958 92 65 40
0.24834260387666604 0.11082992975642109 -1.1327196367277805 91 65 42
0.25416352989952723 0.10705693644387392 -1.134677323432595 88 61 40
0.24743047228973786 0.11179462243869738 -1.1429608993195184 88 62 41
0.24282439432242514 0.11507207423546449 -1.1496559000195077 82 58 38
0.2425275775531818 0.11538931865780659 -1.1530823833113084 69 50 37
0.23841362877820063 0.1184435342253024 -1.162647220781087 110 103 90
0.05264112630906239 0.1921601942063613 0.11827352679094137 180 177 176
0.06410506372629882 0.18475321987674065 0.1144150036098288 140 125 119
0.07076616252162839 0.1804911221645668 0.1109853442179816 117 94 82
0.08155824559329447 0.1735218893480869 0.10724904719676014 138 107 88
0.09136964459514589 0.16719392650258358 0.10362530366888603 134 94 70
0.09806880513442506 0.1629041376802769 0.10027107510804717 97 52 25
0.09307961392012504 0.16627321351138835 0.09780718958223644 72 35 10
0.0911174796777122 0.16765906407347472 0.09510496317405631 59 24 5
0.0953668785946065 0.1649738835431754 0.09195480017031657 60 26 8
0.09555909297172539 0.1649477390682845 0.08909828738948807 61 27 9
0.09200767330727957 0.16737582404161697 0.08649305250262222 64 31 12
0.09482022622578044 0.16563198561028938 0.0834568982184426 67 35 14
0.09283550805615673 0.1670333747810776 0.08073531121834426 65 33 12
0.0928736716975637 0.16710854585907928 0.07787991622251485 62 29 10
0.09133413165671155 0.16821843915573362 0.07511844331278927 67 34 15
0.09172866336564338 0.16806005929619514 0.07223700049523077 64 31 12
0.09340223206190436 0.1670627106205755 0.06928295649450526 59 26 7
0.09216291718154325 0.1679760501944988 0.0664937547604722 60 27 8
0.09553074367546247 0.1658670282015351 0.0634533768115892 59 26 7
0.08931332005482287 0.1702482671115758 0.05517875116868118 61 29 8
0.09245989609002386 0.16828398763456204 0.052161867203741004 61 29 8
0.09261894100539839 0.16828028885553525 0.04928763018242901 61 29 8
0.09158062277465429 0.16906260362185555 0.04646376995553727 63 31 10
0.09166992453706126 0.16910482044911385 0.04358869581341531 64 32 11
0.09241817413228631 0.16871443885705661 0.04068674147527383 64 32 11
0.0929215460617967 0.16848480289181608 0.03779523907348491 64 31 11
0.09152218773548464 0.16950463338362698 0.03497205861290679 60 28 7
0.09104116461021113 0.1699215774879826 0.032111430788399384 59 27 6
0.092407233108414 0.16912545555451253 0.02918834617590714 61 28 8
0.09215560414697545 0.16939181917050442 0.026317891220877382 61 28 8
0.09158933250876422 0.16986495875220667 0.023454193654725196 60 27 7
0.09227743134768106 0.16951410999080047 0.02055344200435444 58 25 7
0.09115044459710639 0.17035582597282337 0.017699301860865456 57 24 6
0.09031254048418418 0.1710077701180306 0.014833068899293853 57 24 7
0.08964520674789675 0.17154777188587528 0.011958828390138898 58 25 8
0.08893295688944498 0.17211742519021617 0.009081745830846168 60 27 10
0.0942412655775214 0.1687299087667014 0.006092346781767515 64 29 10
0.0934722423683723 0.16933678139055316 0.003219069738168023 65 30 11
0.09091570313667714 0.17111895267781585 0.00036755186347728667 66 31 12
0.08944251768818659 0.17218920096067525 -0.002508152437584621 66 31 12
0.08907036391503458 0.17253569984060038 -0.005402474780896302 68 33 13
0.08815366359785701 0.17324039286376017 -0.008294516306509805 66 31 11
0.08787343982930099 0.17352665524906086 -0.01119587569362598 65 30 10
0.08862692306643925 0.17313309544777128 -0.014105380470572113 62 29 10
0.08977419563317166 0.17248045621129124 -0.017015082039073513 59 26 7
0.09187104604443486 0.17120303256063518 -0.019924004037294784 60 27 8
0.08619906762707788 0.17503668390681765 -0.022824922921393525 58 25 7
0.08752044726657775 0.17426956679283817 -0.025736692411956086 56 24 8
0.0870822052766543 0.17466024804585903 -0.028650971263505378 55 25 11
0.08883755128061877 0.17360740965629923 -0.031557011798051406 45 16 4
0.09302225171639221 0.17095546441618595 -0.034441457445612854 42 14 3
0.09248946332030315 0.1714082629117942 -0.03735323619709995 43 15 4
0.09107378422907021 0.1724423822533937 -0.040277525832549836 44 16 5
0.09182465038554187 0.17205035860300882 -0.043181742710947775 44 16 5
0.0921014389453109 0.171970433364911 -0.04609130982190534 43 16 5
0.09351258927612827 0.17114355994784247 -0.04898333671730994 42 15 4
0.09111443483875581 0.17282517353748136 -0.051938746194593204 43 16 5
0.09028448248575796 0.17347430002463468 -0.054873717377187076 43 16 5
0.09078935342333322 0.1732443646931476 -0.05778477807404145 48 20 9
0.08611741454678769 0.1764245764073463 -0.06081433580886869 48 23 13
0.10184137627191255 0.1661685852219596 -0.06335697300839568 82 62 55
0.11032177406911213 0.16068318632941136 -0.06603698325898491 69 49 42
0.11810550755310353 0.15565581855673907 -0.06870770596249491 65 39 29
0.13231531039771346 0.14639280279811237 -0.07115816726934916 110 87 76
0.1345800935177525 0.14500044474056467 -0.07394048699197878 154 135 125
0.13697294136021523 0.14352343922034433 -0.07671171127680054 125 105 95
0.13669791432705322 0.14380478709905076 -0.07957049004323284 90 65 51
0.143128107179062 0.13966585244761268 -0.08218131165964268 73 41 23
0.14365767468308108 0.13941646807429275 -0.08500124367880664 54 22 8
0.14398454815855666 0.13930071446549633 -0.08782892090605189 55 24 8
0.14563967773718606 0.13830907260622677 -0.09060002233879359 59 27 11
0.14459704080466398 0.1390964331076925 -0.09348664894534303 69 44 30
0.14916458762498772 0.13618372873996132 -0.09611845774144423 102 83 74
0.1537868411720512 0.13323440785808136 -0.09873252019009728 101 82 71
0.15877872869715962 0.13004070684033106 -0.10131280221707946 98 69 58
0.16305635332472235 0.12731765443387597 -0.10391337656247374 100 70 59
0.16829985127042865 0.12395681208502259 -0.10644812988831115 103 73 62
0.1708082597401115 0.12240017001961252 -0.10911668807182566 103 73 63
0.1747816949829742 0.1198764284995964 -0.11169377557179232 113 86 74
0.17903733918093265 0.11716597083309661 -0.11424119220809711 148 128 118
0.18313696200868257 0.11455800381432663 -0.11678403294425749 158 137 128
0.18494706526003982 0.11346094195907966 -0.11945667185026404 126 98 83
0.18660208989978094 0.11246607853302809 -0.12213407586635061 114 79 55
0.18692440428455548 0.11235098221992632 -0.1248950587806279 90 51 22
0.19072994480101893 0.10993584644732157 -0.12741925670558724 80 41 13
0.19472002957092677 0.10739840267897105 -0.12991809707727892 67 28 6
0.1934920063403131 0.10830678504748684 -0.13277768485832325 69 30 11
0.19321369393147841 0.1085880756728521 -0.13557328496280194 65 29 9
0.191637977065114 0.1097264818662856 -0.1384689005798511 64 28 9
0.19173849588096284 0.10975774903589408 -0.1412423330895427 66 31 12
0.19054513889307773 0.1106439177819615 -0.14411884551365045 66 37 23
0.18900089966365752 0.11176213718115047 -0.14702936252597848 65 43 31
0.18816465184782366 0.112412738390365 -0.14988838564737683 64 44 33
0.19118351486854152 0.11051567137026941 -0.152426506404942 64 46 37
0.18625277108886906 0.11387262641453838 -0.15564022007049438 65 46 39
0.18665753996351106 0.11370336500617162 -0.158403603324731 64 47 39
0.1902577841405957 0.11142161294357786 -0.1608797599389038 64 45 38
0.18582297568587536 0.11445182750891297 -0.16408068642966878 62 43 36
0.18172063673029532 0.11726282388586043 -0.16726805690281735 62 43 36
0.17637296761723387 0.12089790418096306 -0.17059045658961017 62 43 36
0.1730322169193592 0.12320645649792117 -0.17373878134911083 61 42 35
0.16437312794242823 0.12903307262154434 -0.1774270423276935 60 41 34
0.16714159924976757 0.1273018439318013 -0.17999642123549564 59 40 33
0.16436366598322272 0.1292394521133086 -0.18312626905818016 58 39 32
0.17566103157760854 0.12186524862386314 -0.18479734891266203 58 39 32
0.17338157262699466 0.12347293970408606 -0.1878715234365025 57 40 32
0.17226819876739535 0.1243093401249062 -0.1908293320069134 57 40 32
0.1697283255172352 0.12608997905757993 -0.19394943880674917 56 39 31
0.16619440712769828 0.12852890919982324 -0.1971913509355024 56 39 31
0.162864843016247 0.13083307630733235 -0.20042438059774786 56 39 31
0.15892751266984795 0.1335400538052274 -0.20374117929107158 56 39 31
0.15654783080436804 0.1352163453059238 -0.20689111286941786 56 39 31
0.16573604575636586 0.129233712039502 -0.20867306798436747 56 39 31
0.16388857264545337 0.13055755056923737 -0.21175762070775653 56 39 31
0.16205445154709514 0.13187283388582172 -0.21484870810074339 51 34 26
0.159275745672351 0.13381400971890067 -0.21806566780366543 55 38 30
0.1558572266230199 0.13617938879526056 -0.22137517132840037 56 39 31
0.15608158102910835 0.13613208003581698 -0.22423116155649314 57 40 32
0.15543419892494817 0.13686524302592432 -0.23297928529624543 58 41 33
0.15387916118855924 0.13799729774524222 -0.2360814518995411 59 40 33
0.15377548648343733 0.13816769473789067 -0.23899111924273 59 40 33
0.15489595923058944 0.13762847406418915 -0.24462825245372383 58 39 32
0.15291323316911226 0.13904470262424318 -0.24780969922495483 58 40 31
0.13321359716050982 0.1524145332661082 -0.2594505854420211 57 39 29
0.13640565604696223 0.15040088061774035 -0.2619136870324789 59 41 31
0.13615910885480437 0.15066762762456495 -0.2648902608912114 60 42 32
0.13940362618489352 0.1486186695833047 -0.2673308297751553 60 41 31
0.1409804383866063 0.14767571466541043 -0.2700210498216856 61 41 30
0.14034974500615666 0.14819723403658794 -0.2730554417337432 61 41 30
0.14201443965635996 0.14719579805736246 -0.27572685620217335 57 37 26
0.1435063761354803 0.1463088385405709 -0.27842143285866805 57 36 25
0.14251298117669411 0.14707118169534902 -0.281518212944544 59 36 26
0.14211372543365813 0.14743935160124555 -0.28452187018223063 59 36 25
0.14219898353085975 0.14748600166214082 -0.28744742277455826 53 31 20
0.14321914834143326 0.14691203506014833 -0.29021601928553337 52 30 19
0.14414688900313843 0.14639934873030525 -0.29299804213836256 51 29 18
0.14293488126722145 0.14730738376394353 -0.2961477750554569 57 34 23
0.14138497431805502 0.14844001476706364 -0.2993624713373499 47 23 14
0.1382022515118922 0.15065730232406202 -0.3028726102822408 83 62 58
0.13370232425021294 0.15374993965256592 -0.3066310344848879 68 51 47
0.13160039560930686 0.15525031831750444 -0.3099754387413332 80 57 47
0.14253777535030474 0.14819232148176203 -0.31390624903492825 60 27 10
0.13846721784351626 0.1510007585251408 -0.3176161400913918 63 30 13
0.1398381477034108 0.15019377942142575 -0.3203211486742927 67 35 18
0.14220958794548275 0.1487217413993732 -0.32283276717972953 69 37 22
0.14171052251639843 0.149157340691044 -0.3258865806672111 71 43 28
0.14001581702006222 0.15038782408893225 -0.3291748796030305 69 43 28
0.13233361507191127 0.15559899394695292 -0.33363986902536286 60 37 24
0.13064327436783 0.1568275172165589 -0.33695412518085954 34 17 10
0.12673465855447116 0.15953128793859148 -0.3407175532876253 27 12 5
0.12646706367666047 0.15981440021072754 -0.343765806149797 44 25 14
0.12570661434567157 0.1604253724053672 -0.34691643866076194 49 28 12
0.12713156578809306 0.1595829489472345 -0.34962424165639483 53 31 17
0.12472353005127623 0.16129002681758273 -0.35311960890754807 55 32 18
0.12734351821305012 0.15965258580709724 -0.35557782353022815 58 35 21
0.12599609889113897 0.16065442636473887 -0.3588617836374217 60 35 19
0.131767563393725 0.1569197246532583 -0.36064215299342955 50 27 15
0.13336904640030695 0.15595921434611457 -0.36329468195556147 40 21 14
0.13531736848970632 0.15476771735515457 -0.36586775721564707 44 27 20
0.13856275848829822 0.15271271161857602 -0.36815247153289576 61 43 34
0.14243804574331959 0.15034272968165818 -0.37326902755926106 59 38 26
0.13982301332941421 0.15218850424870978 -0.37683578223443037 51 29 18
0.13592441617152715 0.15488933190543405 -0.38070309903491223 51 28 17
0.1379143605425176 0.15366948239444989 -0.38324861367721125 57 33 23
0.1432249000933995 0.1502379780590937 -0.3850272859438664 59 37 26
0.14603525917599794 0.14847104998215563 -0.3873648819599546 68 44 34
0.15128087145564306 0.1450816519570232 -0.3891261457600572 64 38 29
0.15577638008535627 0.1421913094283675 -0.3910451220057356 54 26 16
0.15387541421863188 0.14356202957685835 -0.3944624541564411 55 25 15
0.15725264334659975 0.14141613931248898 -0.3966291876562868 52 22 12
0.1671956833967674 0.13489454726790767 -0.39720566882703234 54 24 14
0.17716028248986823 0.12887278365400318 -0.4124182450824295 82 47 25
0.18291393004247625 0.12513924584302483 -0.4138979717737739 75 36 16
0.18121053396190745 0.12637817041620578 -0.4172638163755315 69 31 8
0.1813273657977333 0.12640332243527574 -0.42016873403271204 73 35 12
0.18083294844278047 0.12683623973312336 -0.42323325722684135 74 36 13
0.18078337352335913 0.12697251446123264 -0.4261848294760785 74 36 12
0.1803161540392306 0.12738748989753806 -0.42924799930385943 73 37 16
0.1783865856633868 0.12877832407737447 -0.4327022210077428 78 45 27
0.17431362767877226 0.1315997780858511 -0.43673778883199044 78 50 37
0.10341814662498741 0.17956160023215623 -0.47425145493645465 78 52 33
0.10576874040210091 0.178100834313734 -0.4766934985026102 80 53 34
0.10572216698498081 0.17824075342529774 -0.479805071916437 73 45 26
0.1025959006476968 0.18043771237255035 -0.4837940290726451 65 36 18
0.10493488445194188 0.17898444325314988 -0.48623203596375936 62 33 15
0.1033259019413976 0.18016835943730297 -0.48980031090999443 67 38 20
0.09534003570786159 0.18561306652616583 -0.49522621795710314 69 41 23
0.09982218667440525 0.18272793890261965 -0.49704344112836146 67 39 21
0.10083014043711513 0.1821639079796878 -0.4998661855092567 67 39 21
