ply
format ascii 1.0
element vertex 847
property float x
property float y
property float z
property float nx
property float ny
property float nz
property uchar diffuse_red
property uchar diffuse_green
property uchar diffuse_blue
property uchar class
property uchar detection
end_header
-0.0084 0.0986 -0.5302 -0.533 -0.835 0.133 65 39 26 0 0
-0.0055 0.0984 -0.5664 -0.775 -0.602 0.194 62 35 18 0 0
-0.0028 0.0984 -0.5963 -0.671 -0.741 -0.013 72 43 25 0 0
-0.0085 0.0961 -0.6043 -0.774 -0.632 0.039 75 44 23 0 0
-0.0061 0.0950 -0.6669 -0.879 -0.476 0.027 71 38 19 0 0
-0.0123 0.0916 -0.7007 -0.681 -0.706 -0.193 66 35 17 0 0
-0.0821 0.0610 -0.8830 -0.922 -0.099 -0.373 71 49 37 0 0
-0.0719 0.0641 -0.9008 -0.921 -0.289 -0.260 55 35 24 0 0
-0.0699 0.0645 -0.9082 -0.995 -0.096 -0.041 53 32 19 0 0
-0.0757 0.0623 -0.9152 -0.881 -0.424 0.211 75 50 38 0 0
-0.0771 0.0616 -0.9210 -0.972 -0.118 -0.202 77 55 41 0 0
-0.0772 0.0614 -0.9242 -0.984 -0.085 -0.156 80 55 41 0 0
-0.1467 0.0332 -1.0352 -0.964 -0.219 0.151 83 58 37 0 0
-0.1453 0.0312 -1.1129 -0.811 -0.584 0.044 81 48 22 0 0
-0.1567 0.0255 -1.1636 -0.875 -0.476 0.084 190 190 188 0 0
-0.0499 0.1059 0.0517 -0.937 -0.280 -0.210 84 64 54 0 0
-0.0485 0.1062 0.0459 -0.681 -0.272 0.680 109 93 86 0 0
-0.0582 0.1007 -0.0191 -0.994 0.078 0.075 57 35 21 0 0
-0.0587 0.1004 -0.0220 -0.993 0.029 -0.114 56 34 20 0 0
-0.0583 0.1004 -0.0279 -0.989 0.140 -0.036 54 32 18 0 0
-0.0583 0.1000 -0.0397 -0.861 0.460 -0.216 50 31 20 0 0
-0.0575 0.1002 -0.0427 -0.861 0.460 -0.216 44 27 19 0 0
-0.0556 0.1008 -0.0457 -0.812 0.467 -0.351 20 10 6 0 0
-0.0533 0.1015 -0.0487 -0.786 0.454 -0.419 10 6 6 0 0
-0.0431 0.1040 -0.0817 -0.945 -0.328 0.019 70 54 47 0 0
-0.0596 0.0979 -0.0901 -0.841 -0.444 0.311 46 26 19 0 0
-0.0934 0.0852 -0.1121 -0.797 -0.572 0.195 81 63 57 0 0
-0.0939 0.0849 -0.1150 -0.797 -0.572 0.195 86 69 62 0 0
-0.0950 0.0843 -0.1208 -0.664 -0.688 0.292 129 118 116 0 0
-0.0958 0.0839 -0.1237 -0.549 -0.805 0.223 125 108 104 0 0
-0.1000 0.0823 -0.1264 -0.390 -0.659 0.644 67 41 30 0 0
-0.1090 0.0787 -0.1404 -0.809 -0.585 -0.057 34 14 5 0 0
-0.1041 0.0799 -0.1553 -0.964 -0.260 -0.065 49 38 37 0 0
-0.0510 0.0958 -0.2501 -0.356 -0.909 0.216 47 34 28 0 0
-0.0518 0.0954 -0.2531 -0.326 -0.919 0.222 48 34 29 0 0
-0.0584 0.0924 -0.2735 -0.666 -0.703 -0.249 47 32 26 0 0
-0.0525 0.0930 -0.3202 -0.812 -0.536 -0.232 49 26 13 0 0
-0.0505 0.0936 -0.3236 -0.873 -0.345 0.345 49 27 14 0 0
-0.0346 0.0983 -0.3541 -0.735 -0.677 0.023 23 16 11 0 0
-0.0344 0.0982 -0.3572 -0.720 -0.649 0.245 22 15 12 0 0
-0.0650 0.0859 -0.4008 -0.495 -0.473 0.729 47 26 15 0 0
-0.0906 0.0761 -0.4229 -0.781 -0.601 -0.169 60 30 14 0 0
-0.0098 0.1030 -0.4822 -0.558 -0.826 0.083 58 35 21 0 0
-0.0183 0.0998 -0.4864 -0.412 -0.902 0.128 55 32 20 0 0
-0.0168 0.1002 -0.4900 -0.451 -0.883 -0.131 56 33 20 0 0
-0.0107 0.1022 -0.4947 -0.554 -0.819 -0.149 54 31 19 0 0
-0.0108 0.1015 -0.5171 -0.512 -0.858 -0.041 63 36 25 0 0
-0.0066 0.1012 -0.5730 -0.731 -0.670 0.132 62 34 20 0 0
-0.0076 0.1006 -0.5791 -0.901 -0.135 0.413 64 37 21 0 0
-0.0083 0.1003 -0.5822 -0.981 0.011 0.192 63 36 19 0 0
-0.0125 0.0983 -0.5971 -0.643 -0.739 -0.202 72 43 25 0 0
-0.0105 0.0984 -0.6171 -0.625 -0.744 0.236 83 47 21 0 0
-0.0076 0.0978 -0.6669 -0.903 -0.423 0.081 65 33 14 0 0
-0.0840 0.0646 -0.8537 -0.873 -0.482 0.067 71 36 16 0 0
-0.0839 0.0643 -0.8634 -0.832 -0.554 -0.004 73 46 26 0 0
-0.0867 0.0630 -0.8718 -0.933 -0.289 -0.213 75 53 39 0 0
-0.0847 0.0635 -0.8792 -0.860 -0.505 -0.077 70 48 35 0 0
-0.0844 0.0635 -0.8825 -0.861 -0.507 -0.039 72 50 38 0 0
-0.0701 0.0676 -0.9120 -0.676 -0.737 -0.019 52 33 19 0 0
-0.0753 0.0656 -0.9193 -0.950 -0.266 0.162 73 49 36 0 0
-0.0773 0.0648 -0.9216 -0.835 -0.509 -0.208 75 52 38 0 0
-0.0765 0.0649 -0.9252 -0.835 -0.497 -0.236 77 53 38 0 0
-0.0739 0.0655 -0.9363 -0.816 -0.549 -0.182 70 43 25 0 0
-0.0825 0.0616 -0.9613 -0.665 -0.078 0.743 99 83 71 0 0
-0.0875 0.0598 -0.9619 -0.142 -0.613 0.777 100 86 78 0 0
-0.1530 0.0317 -1.1121 -0.864 -0.328 0.382 86 56 33 0 0
-0.1511 0.0316 -1.1358 -0.818 -0.555 0.149 85 62 44 0 0
0.0230 0.1373 0.1182 -0.872 -0.482 -0.084 169 167 166 0 0
0.0238 0.1374 0.1152 -0.832 -0.499 -0.241 134 122 116 0 0
0.0180 0.1353 0.1118 -0.623 -0.207 0.754 122 100 88 0 0
0.0226 0.1368 0.1091 -0.348 -0.914 0.210 109 82 70 0 0
-0.0490 0.1092 0.0458 -0.669 -0.161 0.725 108 93 82 0 0
-0.0574 0.1043 -0.0132 -0.989 0.147 -0.009 59 36 22 0 0
-0.0578 0.1037 -0.0280 -0.985 0.170 0.020 57 35 21 0 0
-0.0574 0.1035 -0.0398 -0.844 0.434 -0.317 54 33 21 0 0
-0.0561 0.1038 -0.0428 -0.844 0.434 -0.317 48 29 20 0 0
-0.0544 0.1044 -0.0458 -0.813 0.447 -0.374 26 13 7 0 0
-0.0527 0.1048 -0.0488 -0.813 0.447 -0.374 11 7 5 0 0
-0.1102 0.0813 -0.1434 -0.817 -0.539 0.202 40 16 8 0 0
-0.1113 0.0808 -0.1462 -0.681 -0.724 0.108 43 23 14 0 0
-0.0491 0.0985 -0.2872 -0.851 -0.525 0.002 43 29 22 0 0
-0.0546 0.0955 -0.3201 -0.856 -0.470 -0.216 47 24 12 0 0
-0.0391 0.0994 -0.3691 -0.673 -0.629 0.388 37 25 21 0 0
-0.0485 0.0952 -0.3952 -0.523 -0.760 0.385 50 31 18 0 0
-0.0958 0.0777 -0.4160 -0.772 -0.504 0.388 66 36 18 0 0
-0.0111 0.1051 -0.5046 -0.766 -0.597 0.238 55 32 20 0 0
-0.0144 0.1036 -0.5165 -0.620 -0.756 -0.211 61 37 25 0 0
-0.0176 0.1013 -0.5509 -0.714 -0.674 -0.188 58 32 19 0 0
-0.0170 0.1014 -0.5543 -0.676 -0.725 -0.134 60 33 17 0 0
-0.0155 0.1018 -0.5579 -0.542 -0.839 0.057 63 36 19 0 0
-0.0103 0.1033 -0.5691 -0.682 -0.727 -0.076 63 35 21 0 0
-0.0097 0.1034 -0.5725 -0.751 -0.659 0.033 67 39 25 0 0
-0.0092 0.1035 -0.5759 -0.757 -0.622 0.199 68 40 26 0 0
-0.0093 0.1034 -0.5791 -0.855 -0.441 0.271 66 39 23 0 0
-0.0111 0.1025 -0.5850 -0.908 -0.407 0.097 65 38 21 0 0
-0.0140 0.1011 -0.5971 -0.981 -0.192 0.019 65 36 18 0 0
-0.0093 0.1005 -0.6668 -0.907 -0.349 0.237 63 32 12 0 0
-0.0096 0.1003 -0.6699 -0.861 -0.411 0.299 62 31 11 0 0
-0.0115 0.0996 -0.6726 -0.947 -0.315 0.063 62 31 11 0 0
-0.0330 0.0896 -0.7430 -0.313 -0.864 0.394 57 28 12 0 0
-0.0857 0.0669 -0.8632 -0.828 -0.558 0.050 74 48 28 0 0
-0.0788 0.0677 -0.9150 -0.667 -0.728 0.157 69 45 33 0 0
-0.0765 0.0684 -0.9193 -0.853 -0.458 0.252 71 47 34 0 0
-0.0790 0.0675 -0.9214 -0.835 -0.509 -0.208 71 48 34 0 0
-0.0782 0.0676 -0.9250 -0.835 -0.497 -0.236 72 50 35 0 0
-0.0773 0.0679 -0.9287 -0.835 -0.497 -0.236 67 48 29 0 0
-0.0768 0.0679 -0.9322 -0.861 -0.466 -0.202 65 42 24 0 0
-0.0762 0.0680 -0.9358 -0.868 -0.480 -0.128 66 39 21 0 0
-0.0904 0.0621 -0.9611 -0.976 -0.047 0.214 102 89 77 0 0
-0.0912 0.0617 -0.9640 -0.998 0.058 0.003 104 92 81 0 0
-0.1529 0.0346 -1.1226 -0.784 -0.621 -0.008 88 63 43 0 0
0.0198 0.1394 0.1180 -0.425 -0.575 0.699 161 158 156 0 0
0.0159 0.1378 0.1117 -0.661 -0.523 0.537 122 99 87 0 0
0.0181 0.1385 0.1088 -0.348 -0.914 0.210 111 83 71 0 0
-0.0354 0.1181 0.0729 -0.987 -0.159 0.030 64 32 14 0 0
-0.0527 0.1078 -0.0548 -0.875 0.465 0.137 8 7 5 0 0
-0.0525 0.1073 -0.0727 -0.957 0.102 0.270 35 21 19 0 0
-0.1104 0.0849 -0.1260 -0.754 -0.567 0.330 65 39 28 0 0
-0.0594 0.0983 -0.2769 -0.854 -0.227 0.468 42 29 24 0 0
-0.0555 0.0996 -0.2805 -0.758 -0.652 -0.023 41 28 22 0 0
-0.0392 0.1030 -0.3600 -0.864 -0.468 0.183 31 19 17 0 0
-0.0394 0.1028 -0.3631 -0.847 -0.528 0.064 39 28 26 0 0
-0.0418 0.1018 -0.3658 -0.499 -0.737 0.455 23 11 10 0 0
-0.0495 0.0983 -0.3891 -0.819 -0.397 0.414 63 43 33 0 0
-0.0507 0.0978 -0.3920 -0.819 -0.397 0.414 54 36 25 0 0
-0.0534 0.0968 -0.3945 -0.662 -0.194 0.724 49 30 17 0 0
-0.0588 0.0948 -0.3965 -0.569 -0.818 0.084 45 26 12 0 0
-0.1029 0.0780 -0.4238 -0.517 -0.664 0.539 58 29 13 0 0
-0.0125 0.1081 -0.4982 -0.962 -0.266 -0.059 50 28 15 0 0
-0.0121 0.1082 -0.5015 -0.822 -0.458 0.338 52 28 16 0 0
-0.0161 0.1059 -0.5261 -0.841 -0.541 -0.030 56 31 19 0 0
-0.0163 0.1058 -0.5292 -0.785 -0.610 0.111 56 31 19 0 0
-0.0180 0.1051 -0.5320 -0.712 -0.618 0.333 57 31 18 0 0
-0.0112 0.1062 -0.5757 -0.818 -0.575 0.038 68 41 25 0 0
-0.0108 0.1062 -0.5790 -0.840 -0.503 0.201 66 39 23 0 0
-0.0117 0.1056 -0.5852 -0.883 -0.446 0.146 64 37 20 0 0
-0.0149 0.1044 -0.5875 -0.964 -0.260 0.050 65 38 21 0 0
-0.0147 0.1039 -0.6070 -0.742 -0.669 0.052 70 39 20 0 0
-0.0107 0.1044 -0.6342 -0.845 -0.523 -0.109 80 45 21 0 0
-0.0129 0.1023 -0.6758 -0.701 -0.606 -0.375 61 30 12 0 0
-0.0887 0.0693 -0.8592 -0.960 -0.272 0.063 71 39 18 0 0
-0.0860 0.0700 -0.8669 -0.914 -0.344 -0.215 78 55 38 0 0
-0.0795 0.0708 -0.9153 -0.633 -0.772 0.062 68 46 33 0 0
-0.0781 0.0712 -0.9192 -0.771 -0.636 0.034 70 47 34 0 0
-0.0799 0.0705 -0.9216 -0.649 -0.755 -0.096 71 47 33 0 0
-0.0794 0.0705 -0.9251 -0.649 -0.755 -0.096 69 47 32 0 0
-0.0789 0.0706 -0.9286 -0.742 -0.663 -0.094 66 45 27 0 0
-0.0777 0.0709 -0.9324 -0.768 -0.639 0.042 65 41 22 0 0
-0.0893 0.0658 -0.9624 -0.948 -0.227 -0.224 100 86 74 0 0
-0.1181 0.0548 -0.9828 -0.848 -0.363 0.387 106 91 84 0 0
0.0203 0.1429 0.1211 -0.420 -0.510 0.751 183 182 184 0 0
0.0110 0.1393 0.1114 -0.561 -0.559 0.611 123 99 86 0 0
-0.0418 0.1185 0.0578 -0.792 -0.342 0.506 41 15 5 0 0
-0.0435 0.1178 0.0548 -0.792 -0.342 0.506 38 16 6 0 0
-0.0521 0.1113 -0.0519 -0.940 0.321 0.117 9 5 4 0 0
-0.0882 0.0965 -0.1098 -0.565 0.159 0.810 75 56 47 0 0
-0.1191 0.0845 -0.1343 -0.863 -0.448 0.233 33 13 6 0 0
-0.1067 0.0883 -0.1585 -0.848 -0.429 -0.310 47 38 33 0 0
-0.0594 0.1022 -0.2558 -0.405 -0.907 -0.119 44 33 29 0 0
-0.0566 0.1027 -0.2744 -0.929 -0.187 0.320 42 28 25 0 0
-0.0487 0.1046 -0.3031 -0.761 -0.055 0.646 38 22 17 0 0
-0.0492 0.1043 -0.3061 -0.776 -0.619 -0.118 59 47 41 0 0
-0.0487 0.1044 -0.3093 -0.776 -0.619 -0.118 76 64 56 0 0
-0.0404 0.1058 -0.3601 -0.911 -0.412 0.035 28 18 16 0 0
-0.0404 0.1057 -0.3632 -0.911 -0.412 0.035 36 26 24 0 0
-0.0157 0.1104 -0.4946 -0.593 -0.785 -0.177 47 28 14 0 0
-0.0185 0.1083 -0.5290 -0.956 -0.291 0.042 55 31 19 0 0
-0.0232 0.1064 -0.5374 -0.914 -0.384 -0.133 58 31 19 0 0
-0.0121 0.1091 -0.5791 -0.797 -0.603 0.006 62 36 19 0 0
-0.0150 0.1072 -0.6041 -0.969 -0.212 0.129 59 31 14 0 0
-0.0165 0.1066 -0.6069 -0.816 -0.550 0.179 61 31 14 0 0
-0.0170 0.1062 -0.6132 -0.851 -0.525 0.033 68 35 16 0 0
-0.0170 0.1054 -0.6391 -0.817 -0.555 0.156 75 40 18 0 0
-0.0170 0.1053 -0.6423 -0.814 -0.576 0.074 76 41 19 0 0
-0.0154 0.1056 -0.6494 -0.569 -0.821 0.044 76 44 19 0 0
-0.0183 0.1045 -0.6517 -0.562 -0.827 0.025 73 41 17 0 0
-0.0183 0.1044 -0.6549 -0.562 -0.827 0.025 71 39 16 0 0
-0.0466 0.0904 -0.7745 -0.230 -0.972 0.052 60 30 12 0 0
-0.0603 0.0852 -0.7819 -0.792 -0.585 -0.173 57 28 12 0 0
-0.0578 0.0858 -0.7926 -0.925 -0.128 0.359 58 29 13 0 0
-0.0861 0.0725 -0.8900 -0.804 -0.583 -0.116 60 42 32 0 0
-0.0874 0.0719 -0.8926 -0.854 -0.499 -0.148 57 39 29 0 0
-0.0856 0.0725 -0.8967 -0.955 -0.295 -0.013 54 36 22 0 0
-0.0798 0.0738 -0.9190 -0.825 -0.549 -0.136 69 47 33 0 0
-0.0788 0.0741 -0.9228 -0.727 -0.633 -0.266 69 46 32 0 0
-0.0783 0.0742 -0.9263 -0.707 -0.684 -0.176 68 46 32 0 0
-0.0768 0.0746 -0.9303 -0.759 -0.570 -0.314 68 45 29 0 0
-0.0769 0.0744 -0.9335 -0.769 -0.583 -0.263 65 39 22 0 0
-0.1097 0.0614 -0.9718 -0.821 -0.428 0.379 109 94 87 0 0
-0.1202 0.0573 -0.9824 -0.349 -0.730 0.587 111 96 89 0 0
-0.1187 0.0577 -0.9864 -0.733 0.460 0.501 122 107 100 0 0
-0.1490 0.0459 -1.0113 -0.933 -0.350 -0.087 65 33 11 0 0
-0.1475 0.0459 -1.0313 -0.857 -0.471 0.209 75 43 16 0 0
-0.1500 0.0441 -1.0586 -0.686 -0.715 -0.133 78 56 42 0 0
0.0240 0.1477 0.1244 -0.267 -0.482 0.834 183 183 185 0 0
0.0084 0.1416 0.1112 -0.561 -0.559 0.611 124 98 85 0 0
-0.0444 0.1215 0.0812 -0.619 -0.628 0.472 100 73 58 0 0
-0.0512 0.1148 -0.0521 -0.956 0.149 0.253 11 5 5 0 0
-0.0514 0.1147 -0.0550 -0.979 0.087 0.186 9 6 5 0 0
-0.0514 0.1143 -0.0670 -0.751 0.043 0.659 21 12 10 0 0
-0.0919 0.0983 -0.1069 -0.729 0.404 0.552 70 48 36 0 0
-0.0926 0.0980 -0.1098 -0.456 -0.022 0.890 73 53 44 0 0
-0.0652 0.1033 -0.2553 -0.401 -0.899 -0.174 44 33 29 0 0
-0.0573 0.1056 -0.2746 -0.826 -0.275 0.492 42 28 25 0 0
-0.0588 0.1050 -0.2774 -0.826 -0.275 0.492 41 27 24 0 0
-0.0552 0.1054 -0.3054 -0.949 0.312 0.049 52 40 34 0 0
-0.0511 0.1044 -0.3832 -0.864 -0.473 0.169 46 26 15 0 0
-0.0186 0.1115 -0.5326 -0.963 0.102 0.251 54 30 17 0 0
-0.0177 0.1093 -0.6134 -0.884 -0.433 0.177 65 34 18 0 0
-0.0197 0.1080 -0.6322 -0.747 -0.663 0.038 73 39 19 0 0
-0.0197 0.1079 -0.6355 -0.913 -0.359 0.196 74 39 18 0 0
-0.0201 0.1076 -0.6386 -0.936 -0.330 0.123 74 39 17 0 0
-0.0198 0.1075 -0.6452 -0.891 -0.455 0.007 78 44 21 0 0
-0.0191 0.1077 -0.6486 -0.748 -0.641 0.173 77 45 20 0 0
-0.0195 0.1074 -0.6517 -0.630 -0.748 0.209 76 44 20 0 0
-0.0193 0.1074 -0.6551 -0.664 -0.741 0.101 75 43 20 0 0
-0.0505 0.0921 -0.7832 -0.942 -0.329 0.067 57 28 11 0 0
-0.0500 0.0921 -0.7867 -0.952 -0.228 0.206 55 26 10 0 0
-0.0522 0.0913 -0.7890 -0.793 -0.592 0.142 55 26 10 0 0
-0.0903 0.0750 -0.8661 -0.932 -0.360 -0.035 77 54 37 0 0
-0.0901 0.0750 -0.8694 -0.932 -0.360 -0.035 76 54 40 0 0
-0.0898 0.0750 -0.8728 -0.943 -0.309 0.126 76 54 40 0 0
-0.0880 0.0751 -0.8898 -0.805 -0.569 -0.165 59 41 29 0 0
-0.0875 0.0752 -0.8933 -0.867 -0.461 0.191 54 36 25 0 0
-0.0875 0.0751 -0.8965 -0.964 -0.106 0.243 52 34 21 0 0
-0.0826 0.0763 -0.9151 -0.747 -0.643 -0.170 61 43 29 0 0
-0.0809 0.0766 -0.9256 -0.684 -0.712 -0.157 67 45 31 0 0
-0.0788 0.0772 -0.9299 -0.759 -0.570 -0.314 69 46 32 0 0
-0.0775 0.0775 -0.9338 -0.759 -0.570 -0.314 66 41 26 0 0
-0.0905 0.0717 -0.9696 -0.754 -0.646 -0.123 111 98 90 0 0
-0.1090 0.0650 -0.9697 -0.650 -0.404 0.643 111 96 89 0 0
-0.1106 0.0643 -0.9721 -0.800 -0.400 0.446 110 96 88 0 0
-0.1132 0.0632 -0.9771 -0.875 -0.407 0.264 108 94 85 0 0
-0.1275 0.0576 -0.9920 -0.827 -0.373 0.420 104 93 89 0 0
-0.1286 0.0571 -0.9946 -0.894 -0.280 0.349 82 71 65 0 0
-0.1590 0.0423 -1.1147 -0.958 -0.179 0.224 88 61 39 0 0
-0.1596 0.0420 -1.1175 -0.958 -0.179 0.224 89 64 44 0 0
-0.0451 0.1244 0.0812 -0.689 -0.525 0.500 99 72 56 0 0
-0.0476 0.1226 0.0516 -0.788 -0.529 0.315 63 37 21 0 0
-0.0488 0.1221 0.0486 -0.798 -0.476 0.369 63 37 20 0 0
-0.0499 0.1215 0.0456 -0.819 -0.462 0.340 64 37 20 0 0
-0.0969 0.0996 -0.1097 -0.657 0.022 0.753 71 48 43 0 0
-0.1179 0.0910 -0.1405 -0.979 -0.203 -0.005 44 20 9 0 0
-0.1175 0.0910 -0.1434 -0.936 -0.347 0.055 42 18 8 0 0
-0.0542 0.1091 -0.3028 -0.992 0.102 -0.073 33 18 13 0 0
-0.0539 0.1091 -0.3059 -0.961 0.247 0.121 62 51 45 0 0
-0.0438 0.1112 -0.3569 -0.815 -0.579 0.002 20 12 9 0 0
-0.0452 0.1106 -0.3598 -0.854 -0.516 0.062 21 13 10 0 0
-0.0509 0.1079 -0.3804 -0.923 -0.320 0.212 44 24 14 0 0
-0.0516 0.1074 -0.3865 -0.813 -0.577 0.076 45 25 14 0 0
-0.0205 0.1149 -0.5101 -0.841 -0.537 -0.061 51 27 15 0 0
-0.0175 0.1152 -0.5333 -0.902 -0.318 0.294 50 27 13 0 0
-0.0225 0.1116 -0.5930 -0.856 -0.480 -0.189 52 28 15 0 0
-0.0218 0.1117 -0.5964 -0.849 -0.501 -0.167 52 26 13 0 0
-0.0207 0.1114 -0.6194 -0.771 -0.592 0.237 66 35 17 0 0
-0.0209 0.1108 -0.6355 -0.913 -0.359 0.196 74 39 18 0 0
-0.0206 0.1107 -0.6421 -0.903 -0.401 0.155 77 42 20 0 0
-0.0363 0.1031 -0.7016 -0.929 -0.366 0.058 58 29 11 0 0
-0.0441 0.0992 -0.7376 -0.987 -0.153 0.049 56 27 11 0 0
-0.0442 0.0990 -0.7408 -0.987 -0.153 0.049 57 28 12 0 0
-0.0515 0.0950 -0.7834 -0.942 -0.329 0.067 54 25 9 0 0
-0.0494 0.0956 -0.7907 -0.756 -0.497 0.426 54 25 9 0 0
-0.0527 0.0942 -0.7959 -0.934 -0.353 0.053 54 25 9 0 0
-0.0915 0.0774 -0.8823 -0.712 -0.702 -0.002 65 45 31 0 0
-0.0915 0.0773 -0.8855 -0.745 -0.597 -0.298 68 49 35 0 0
-0.0894 0.0777 -0.8962 -0.869 -0.492 -0.050 54 36 22 0 0
-0.0892 0.0763 -0.9417 -0.696 -0.711 -0.096 61 35 18 0 0
-0.0925 0.0748 -0.9530 -0.521 -0.583 0.623 74 47 31 0 0
-0.0925 0.0744 -0.9660 -0.801 -0.593 -0.084 113 101 95 0 0
-0.0920 0.0744 -0.9695 -0.845 -0.534 0.015 116 104 98 0 0
-0.1266 0.0613 -0.9867 -0.820 -0.571 0.040 119 105 100 0 0
-0.1268 0.0611 -0.9931 -0.820 -0.571 0.040 110 99 95 0 0
-0.1274 0.0607 -0.9959 -0.897 -0.440 0.055 83 72 67 0 0
-0.1293 0.0600 -0.9981 -0.785 -0.534 0.314 78 63 57 0 0
-0.1594 0.0456 -1.1056 -0.731 -0.682 -0.001 69 38 18 0 0
-0.1599 0.0451 -1.1182 -0.907 -0.360 0.218 89 64 44 0 0
-0.1588 0.0452 -1.1252 -0.732 -0.511 0.451 86 63 42 0 0
-0.1721 0.0405 -1.1233 -0.967 0.154 0.203 84 62 41 0 0
-0.1686 0.0414 -1.1351 -0.964 -0.191 -0.186 82 59 41 0 0
-0.0860 0.1069 -0.1045 -0.499 -0.492 0.713 69 50 40 0 0
-0.0986 0.1021 -0.1097 -0.554 -0.307 0.774 74 53 45 0 0
-0.1180 0.0941 -0.1377 -0.982 -0.186 -0.038 48 25 11 0 0
-0.0920 0.1016 -0.2016 -0.917 -0.012 -0.398 46 37 32 0 0
-0.0922 0.1015 -0.2046 -0.506 -0.561 -0.655 46 37 32 0 0
-0.0627 0.1098 -0.2834 -0.996 -0.041 0.073 40 25 20 0 0
-0.0663 0.1072 -0.3256 -0.951 -0.271 -0.150 44 23 12 0 0
-0.0663 0.1071 -0.3287 -0.953 -0.260 0.156 50 32 20 0 0
-0.0665 0.1069 -0.3317 -0.881 -0.439 0.177 47 30 21 0 0
-0.0451 0.1138 -0.3632 -0.832 -0.061 0.552 25 17 14 0 0
-0.0518 0.1107 -0.3836 -0.960 -0.242 0.144 39 20 11 0 0
-0.0541 0.1097 -0.3894 -0.658 -0.534 0.531 55 37 25 0 0
-0.0556 0.1090 -0.3922 -0.575 -0.584 0.574 61 40 29 0 0
-0.0242 0.1179 -0.4776 -0.771 -0.622 -0.135 43 23 12 0 0
-0.0218 0.1174 -0.5197 -0.896 -0.439 -0.063 48 24 12 0 0
-0.0193 0.1181 -0.5268 -0.908 -0.403 -0.115 48 24 14 0 0
-0.0186 0.1183 -0.5302 -0.988 -0.132 0.074 50 26 16 0 0
-0.0180 0.1184 -0.5336 -0.818 -0.432 0.380 49 25 13 0 0
-0.0199 0.1176 -0.5363 -0.877 -0.280 0.391 49 25 13 0 0
-0.0248 0.1143 -0.5863 -0.774 -0.633 -0.002 54 28 15 0 0
-0.0247 0.1142 -0.5895 -0.778 -0.628 -0.029 53 27 14 0 0
-0.0215 0.1144 -0.6196 -0.915 -0.304 0.265 66 36 18 0 0
-0.0223 0.1141 -0.6226 -0.915 -0.304 0.265 66 35 17 0 0
-0.0228 0.1138 -0.6256 -0.917 -0.363 0.166 66 35 15 0 0
-0.0203 0.1145 -0.6297 -0.920 -0.386 -0.069 66 33 14 0 0
-0.0207 0.1143 -0.6328 -0.927 -0.341 0.155 69 35 16 0 0
-0.0332 0.1081 -0.6837 -0.905 -0.406 0.125 58 29 11 0 0
-0.0372 0.1061 -0.7018 -0.878 -0.475 0.055 58 29 11 0 0
-0.0377 0.1059 -0.7048 -0.965 0.061 0.256 59 30 12 0 0
-0.0380 0.1057 -0.7080 -0.860 -0.494 0.125 61 32 14 0 0
-0.0379 0.1056 -0.7112 -0.850 -0.526 0.025 61 32 14 0 0
-0.0381 0.1046 -0.7404 -0.885 -0.415 0.212 54 25 9 0 0
-0.0387 0.1043 -0.7434 -0.895 -0.412 0.169 53 24 9 0 0
-0.0518 0.0982 -0.7871 -0.915 -0.182 0.359 54 25 9 0 0
-0.0523 0.0978 -0.7901 -0.948 -0.170 0.269 55 25 9 0 0
-0.0865 0.0816 -0.9112 -0.911 -0.376 -0.172 49 31 19 0 0
-0.0846 0.0822 -0.9154 -0.703 -0.711 -0.017 58 40 26 0 0
-0.0855 0.0815 -0.9247 -0.687 -0.722 0.083 67 43 29 0 0
-0.0852 0.0813 -0.9346 -0.768 -0.640 0.005 62 34 22 0 0
-0.0881 0.0802 -0.9364 -0.798 -0.602 0.034 62 36 21 0 0
-0.0928 0.0781 -0.9503 -0.634 -0.494 0.595 63 34 16 0 0
-0.0937 0.0776 -0.9531 -0.930 -0.228 0.287 73 45 27 0 0
-0.0937 0.0772 -0.9661 -0.965 -0.262 0.016 118 107 100 0 0
-0.0943 0.0769 -0.9690 -0.702 -0.612 0.365 122 111 105 0 0
-0.1173 0.0684 -0.9731 -0.676 -0.642 0.362 120 106 99 0 0
-0.1183 0.0679 -0.9758 -0.676 -0.642 0.362 119 104 97 0 0
-0.1277 0.0642 -0.9836 -0.758 -0.653 0.002 116 103 97 0 0
-0.1284 0.0639 -0.9865 -0.820 -0.571 0.040 117 105 99 0 0
-0.1292 0.0635 -0.9892 -0.896 -0.430 0.106 107 96 92 0 0
-0.1294 0.0634 -0.9924 -0.827 -0.558 0.075 98 88 84 0 0
-0.1294 0.0632 -0.9955 -0.791 -0.605 0.088 89 79 73 0 0
-0.1487 0.0556 -1.0136 -0.911 -0.118 0.396 67 33 12 0 0
-0.1544 0.0530 -1.0295 -0.950 -0.299 -0.090 76 44 20 0 0
-0.1610 0.0479 -1.1182 -0.907 -0.360 0.218 88 62 40 0 0
-0.0445 0.1310 0.0812 -0.996 0.030 0.087 73 45 23 0 0
-0.0873 0.1095 -0.1045 -0.491 -0.625 0.607 72 52 43 0 0
-0.0953 0.1064 -0.1100 -0.525 -0.263 0.810 90 71 62 0 0
-0.1186 0.0973 -0.1262 -0.983 -0.108 0.148 79 54 43 0 0
-0.0902 0.1054 -0.2020 -0.337 -0.941 -0.041 46 36 31 0 0
-0.0889 0.1058 -0.2051 -0.516 -0.826 -0.229 45 36 31 0 0
-0.0699 0.1109 -0.2675 -0.950 -0.048 -0.307 42 30 24 0 0
-0.0693 0.1110 -0.2706 -0.981 -0.012 -0.191 42 29 23 0 0
-0.0647 0.1123 -0.2834 -0.824 -0.399 0.403 38 23 18 0 0
-0.0660 0.1106 -0.3229 -0.917 -0.399 -0.016 45 22 15 0 0
-0.0651 0.1109 -0.3261 -0.939 -0.158 0.305 46 25 15 0 0
-0.0661 0.1104 -0.3290 -0.942 -0.176 0.286 54 36 25 0 0
-0.0666 0.1101 -0.3319 -0.938 -0.341 -0.060 50 33 25 0 0
-0.0646 0.1107 -0.3353 -0.751 -0.543 -0.375 33 19 14 0 0
-0.0523 0.1137 -0.3838 -0.828 -0.475 0.300 33 18 10 0 0
-0.0975 0.0965 -0.4053 -0.934 0.203 0.293 68 46 34 0 0
-0.1032 0.0940 -0.4193 -0.998 0.056 -0.010 59 31 11 0 0
-0.0247 0.1210 -0.4779 -0.590 -0.806 -0.037 41 21 10 0 0
-0.0258 0.1201 -0.4935 -0.949 -0.288 -0.127 44 23 12 0 0
-0.0248 0.1204 -0.4970 -0.926 -0.285 0.248 45 23 12 0 0
-0.0255 0.1200 -0.5000 -0.926 -0.285 0.248 48 26 13 0 0
-0.0262 0.1197 -0.5030 -0.930 -0.322 0.180 47 25 12 0 0
-0.0259 0.1197 -0.5062 -0.767 -0.638 0.066 46 24 11 0 0
-0.0215 0.1207 -0.5266 -0.805 -0.583 0.109 45 23 12 0 0
-0.0196 0.1213 -0.5303 -0.928 -0.321 0.192 45 23 12 0 0
-0.0193 0.1212 -0.5336 -0.893 -0.436 0.110 47 24 12 0 0
-0.0252 0.1170 -0.6027 -0.904 -0.353 0.241 54 26 13 0 0
-0.0265 0.1163 -0.6088 -0.774 -0.603 0.193 57 30 13 0 0
-0.0344 0.1111 -0.6838 -0.923 -0.347 0.164 57 28 12 0 0
-0.0351 0.1107 -0.6868 -0.951 -0.273 0.141 56 27 10 0 0
-0.0360 0.1103 -0.6897 -0.926 -0.306 0.221 55 26 10 0 0
-0.0361 0.1098 -0.7059 -0.881 -0.455 0.129 58 29 11 0 0
-0.0362 0.1096 -0.7091 -0.870 -0.474 0.132 57 28 10 0 0
-0.0378 0.1082 -0.7378 -0.907 -0.420 -0.030 53 24 9 0 0
-0.0536 0.1010 -0.7804 -0.919 -0.357 -0.169 54 25 10 0 0
-0.1021 0.0813 -0.8433 -0.792 -0.587 0.169 66 34 13 0 0
-0.0980 0.0816 -0.8804 -0.801 -0.559 -0.215 69 47 34 0 0
-0.0858 0.0845 -0.9317 -0.575 -0.786 -0.228 64 39 26 0 0
-0.0849 0.0846 -0.9386 -0.611 -0.783 -0.118 61 35 20 0 0
-0.0956 0.0799 -0.9658 -0.838 -0.534 -0.114 120 108 102 0 0
-0.0963 0.0795 -0.9687 -0.702 -0.612 0.365 119 108 102 0 0
-0.1109 0.0740 -0.9740 -0.974 0.209 0.087 122 110 102 0 0
-0.1195 0.0709 -0.9727 -0.676 -0.642 0.362 118 104 96 0 0
-0.1298 0.0667 -0.9832 -0.739 -0.674 -0.011 118 105 99 0 0
-0.1302 0.0665 -0.9862 -0.820 -0.571 0.040 117 104 98 0 0
-0.1305 0.0663 -0.9892 -0.896 -0.430 0.106 109 98 94 0 0
-0.1311 0.0660 -0.9921 -0.827 -0.558 0.075 102 92 88 0 0
-0.1322 0.0655 -0.9947 -0.702 -0.667 0.249 99 88 82 0 0
-0.1565 0.0555 -1.0290 -0.816 -0.560 0.145 77 45 21 0 0
-0.1563 0.0543 -1.0706 -0.930 -0.366 -0.010 71 51 41 0 0
-0.1621 0.0510 -1.1087 -0.845 -0.517 -0.135 76 44 22 0 0
-0.1619 0.0508 -1.1185 -0.953 -0.247 0.178 86 60 38 0 0
-0.1594 0.0513 -1.1296 -0.857 -0.487 0.172 83 60 42 0 0
-0.0462 0.1314 0.0101 -0.904 0.424 0.059 59 34 20 0 0
-0.1196 0.0997 -0.1379 -0.967 -0.248 0.061 44 20 9 0 0
-0.1196 0.0995 -0.1467 -0.975 -0.204 0.092 42 23 14 0 0
-0.0665 0.1149 -0.2833 -0.865 -0.451 0.221 38 23 18 0 0
-0.0610 0.1165 -0.2964 -0.615 -0.783 0.098 35 24 19 0 0
-0.0969 0.0999 -0.4058 -0.934 0.203 0.293 75 51 39 0 0
-0.1028 0.0973 -0.4197 -0.993 0.113 0.031 62 34 13 0 0
-0.1038 0.0965 -0.4347 -0.978 -0.188 -0.092 65 40 29 0 0
-0.0284 0.1229 -0.4805 -0.881 -0.334 -0.336 42 22 13 0 0
-0.0282 0.1229 -0.4838 -0.894 -0.377 -0.242 42 22 13 0 0
-0.0263 0.1233 -0.4938 -0.804 -0.573 0.160 40 20 11 0 0
-0.0247 0.1221 -0.5518 -0.916 -0.114 0.386 48 24 13 0 0
-0.0275 0.1203 -0.5767 -0.825 -0.481 0.297 51 25 13 0 0
-0.0266 0.1199 -0.5995 -0.739 -0.432 0.516 54 27 15 0 0
-0.0269 0.1197 -0.6026 -0.836 -0.457 0.303 54 26 14 0 0
-0.0286 0.1190 -0.6053 -0.901 -0.370 0.224 53 25 12 0 0
-0.0345 0.1144 -0.6842 -0.948 -0.310 0.070 55 26 11 0 0
-0.0347 0.1142 -0.6874 -0.948 -0.310 0.070 54 25 10 0 0
-0.0404 0.1107 -0.7341 -0.723 -0.681 0.111 54 24 11 0 0
-0.1018 0.0847 -0.8408 -0.908 -0.060 0.414 60 31 12 0 0
-0.1027 0.0843 -0.8436 -0.906 -0.217 0.364 64 33 12 0 0
-0.0707 0.0936 -0.9234 -0.988 -0.147 0.057 57 40 26 0 0
-0.0714 0.0933 -0.9264 -0.977 -0.058 0.206 65 47 33 0 0
-0.0881 0.0869 -0.9345 -0.763 -0.644 0.060 57 33 19 0 0
-0.0885 0.0866 -0.9375 -0.727 -0.674 0.133 60 35 20 0 0
-0.0899 0.0861 -0.9401 -0.699 -0.711 0.072 62 36 20 0 0
-0.0940 0.0845 -0.9412 -0.945 -0.292 -0.144 61 35 18 0 0
-0.0966 0.0830 -0.9594 -0.890 -0.438 -0.127 90 72 60 0 0
-0.0964 0.0828 -0.9660 -0.918 -0.347 -0.192 121 108 102 0 0
-0.0982 0.0821 -0.9683 -0.861 -0.379 0.340 112 101 95 0 0
-0.1195 0.0742 -0.9701 -0.447 -0.825 0.346 116 106 97 0 0
-0.1242 0.0722 -0.9773 -0.587 -0.663 0.465 117 102 95 0 0
-0.1275 0.0709 -0.9819 -0.517 -0.823 0.234 119 106 100 0 0
-0.1300 0.0699 -0.9838 -0.967 0.255 -0.021 115 102 96 0 0
-0.1305 0.0696 -0.9867 -0.950 0.073 0.303 109 96 90 0 0
-0.1306 0.0695 -0.9899 -0.985 0.034 0.168 104 93 89 0 0
-0.1339 0.0682 -0.9913 -0.795 -0.604 0.054 97 87 83 0 0
-0.1363 0.0672 -0.9964 -0.717 -0.518 0.467 87 72 67 0 0
-0.1597 0.0576 -1.0279 -0.945 -0.283 0.164 74 42 17 0 0
-0.1618 0.0564 -1.0394 -0.830 -0.505 0.235 78 55 37 0 0
-0.1627 0.0557 -1.0516 -0.788 -0.616 0.004 77 55 41 0 0
-0.1622 0.0538 -1.1190 -0.935 -0.351 0.041 82 57 35 0 0
-0.1611 0.0540 -1.1262 -0.841 -0.540 0.025 85 63 42 0 0
-0.1604 0.0542 -1.1298 -0.851 -0.514 0.107 83 60 41 0 0
-0.0249 0.1451 0.0971 -0.653 -0.137 0.745 127 104 85 0 0
-0.0437 0.1378 0.0841 -0.922 -0.383 -0.053 69 43 22 0 0
-0.0418 0.1383 0.0783 -0.948 -0.289 0.133 68 41 22 0 0
-0.0422 0.1381 0.0754 -0.864 -0.425 0.271 69 42 23 0 0
-0.0433 0.1354 0.0011 -0.978 0.187 0.091 58 35 21 0 0
-0.0576 0.1281 -0.0643 -0.553 -0.563 0.614 56 43 41 0 0
-0.1205 0.1025 -0.1380 -0.944 -0.325 0.052 43 21 10 0 0
-0.1203 0.1025 -0.1409 -0.872 -0.409 0.269 40 17 8 0 0
-0.1210 0.1021 -0.1438 -0.805 -0.452 0.385 38 14 6 0 0
-0.1176 0.1029 -0.1615 -0.471 -0.881 -0.050 50 41 36 0 0
-0.1080 0.1056 -0.1858 -0.844 -0.116 -0.524 51 40 36 0 0
-0.1070 0.1060 -0.1889 -0.717 -0.298 -0.630 50 39 35 0 0
-0.0819 0.1132 -0.2542 -0.726 -0.311 -0.614 42 31 27 0 0
-0.0617 0.1198 -0.2873 -0.808 -0.566 -0.164 42 27 22 0 0
-0.0729 0.1146 -0.3192 -0.899 -0.126 0.420 39 19 12 0 0
-0.1046 0.0994 -0.4318 -0.940 -0.270 -0.207 55 27 12 0 0
-0.1040 0.0995 -0.4350 -0.961 -0.213 -0.178 62 38 25 0 0
-0.1043 0.0993 -0.4379 -0.978 -0.151 -0.143 63 43 31 0 0
-0.0281 0.1259 -0.4937 -0.804 -0.573 0.160 39 19 10 0 0
-0.0260 0.1250 -0.5486 -0.728 -0.533 0.431 44 19 11 0 0
-0.0272 0.1245 -0.5515 -0.728 -0.533 0.431 45 20 12 0 0
-0.0353 0.1181 -0.6618 -0.880 -0.406 0.246 54 27 8 0 0
-0.0477 0.1105 -0.7611 -0.843 -0.414 0.345 49 21 8 0 0
-0.0678 0.1029 -0.7660 -0.721 -0.324 0.613 51 23 10 0 0
-0.0689 0.1023 -0.7720 -0.694 -0.141 0.706 53 24 9 0 0
-0.0564 0.1067 -0.7804 -0.382 -0.880 0.284 53 24 8 0 0
-0.1041 0.0870 -0.8436 -0.754 -0.488 0.440 62 32 12 0 0
-0.1055 0.0865 -0.8462 -0.767 -0.638 -0.074 66 34 14 0 0
-0.0959 0.0868 -0.9507 -0.880 -0.314 0.356 66 37 20 0 0
-0.0966 0.0865 -0.9536 -0.911 -0.254 0.324 73 45 28 0 0
-0.0980 0.0858 -0.9594 -0.759 -0.649 0.052 89 70 57 0 0
-0.0981 0.0856 -0.9626 -0.759 -0.649 0.052 108 94 85 0 0
-0.0984 0.0854 -0.9657 -0.817 -0.534 -0.215 112 100 93 0 0
-0.1033 0.0835 -0.9696 -0.447 -0.673 0.589 114 103 97 0 0
-0.1123 0.0801 -0.9714 -0.892 -0.428 0.144 135 124 115 0 0
-0.1329 0.0719 -0.9893 -0.973 -0.176 0.151 100 89 84 0 0
-0.1334 0.0716 -0.9923 -0.973 -0.176 0.151 97 86 82 0 0
-0.1368 0.0703 -0.9936 -0.813 -0.407 0.416 86 75 70 0 0
-0.1478 0.0657 -1.0099 -0.325 -0.915 0.238 56 26 8 0 0
-0.1630 0.0570 -1.1097 -0.958 -0.275 -0.082 66 34 14 0 0
-0.1629 0.0570 -1.1130 -0.956 -0.268 -0.121 74 43 21 0 0
-0.1620 0.0568 -1.1296 -0.851 -0.514 0.107 82 58 40 0 0
-0.1628 0.0565 -1.1323 -0.968 -0.232 -0.093 82 58 40 0 0
-0.0215 0.1501 0.1122 -0.746 -0.261 0.612 139 114 99 0 0
-0.0238 0.1491 0.1090 -0.768 -0.243 0.592 115 85 67 0 0
-0.0287 0.1472 0.1057 -0.513 -0.389 0.765 111 81 66 0 0
-0.0432 0.1412 0.0842 -0.837 -0.542 0.075 70 43 21 0 0
-0.0430 0.1410 0.0783 -0.881 -0.424 0.209 69 42 23 0 0
-0.0435 0.1408 0.0753 -0.864 -0.425 0.271 70 43 24 0 0
-0.0436 0.1390 0.0189 -0.977 -0.210 0.024 60 35 22 0 0
-0.0425 0.1393 0.0130 -0.937 -0.350 -0.021 59 33 20 0 0
-0.0555 0.1321 -0.0615 -0.820 -0.206 0.534 63 47 41 0 0
-0.1214 0.1052 -0.1381 -0.944 -0.325 0.052 42 20 9 0 0
-0.1206 0.1049 -0.1615 -0.557 -0.830 -0.030 48 39 34 0 0
-0.1069 0.1091 -0.1891 -0.831 -0.133 -0.539 49 38 34 0 0
-0.1018 0.1108 -0.1955 -0.643 -0.174 -0.746 47 36 32 0 0
-0.1040 0.1029 -0.4292 -0.925 -0.379 0.018 57 28 14 0 0
-0.1046 0.1026 -0.4321 -0.837 -0.547 0.024 58 30 16 0 0
-0.1039 0.1028 -0.4353 -0.841 -0.519 -0.153 62 39 26 0 0
-0.1033 0.1029 -0.4385 -0.838 -0.515 -0.181 64 45 31 0 0
-0.0322 0.1249 -0.5858 -0.890 -0.455 0.010 51 25 12 0 0
-0.0304 0.1254 -0.5928 -0.542 -0.837 0.072 51 25 12 0 0
-0.0334 0.1239 -0.6047 -0.727 -0.686 -0.015 50 22 10 0 0
-0.0343 0.1221 -0.6529 -0.903 -0.330 0.275 66 35 15 0 0
-0.0351 0.1217 -0.6559 -0.903 -0.330 0.275 60 29 11 0 0
-0.0361 0.1213 -0.6588 -0.878 -0.445 0.174 56 26 9 0 0
-0.0367 0.1210 -0.6618 -0.880 -0.406 0.246 53 25 9 0 0
-0.0367 0.1209 -0.6650 -0.886 -0.457 0.081 51 23 7 0 0
-0.0402 0.1182 -0.7092 -0.575 -0.752 0.323 56 27 11 0 0
-0.0412 0.1177 -0.7121 -0.604 -0.770 0.204 54 27 10 0 0
-0.0493 0.1137 -0.7447 -0.622 -0.776 0.100 50 22 10 0 0
-0.0501 0.1133 -0.7477 -0.717 -0.688 0.114 50 22 9 0 0
-0.0508 0.1130 -0.7507 -0.687 -0.715 0.130 50 22 9 0 0
-0.0602 0.1086 -0.7794 -0.382 -0.880 0.284 53 24 9 0 0
-0.0642 0.1071 -0.7809 -0.402 -0.340 0.850 53 24 9 0 0
-0.1030 0.0907 -0.8447 -0.564 -0.466 0.682 59 31 11 0 0
-0.0898 0.0938 -0.9057 -0.934 -0.332 -0.128 47 29 17 0 0
-0.0932 0.0923 -0.9105 -0.919 -0.297 0.260 48 30 17 0 0
-0.0939 0.0920 -0.9134 -0.875 -0.329 0.356 57 39 25 0 0
-0.0946 0.0916 -0.9163 -0.919 -0.297 0.260 64 45 31 0 0
-0.0969 0.0900 -0.9411 -0.982 -0.158 -0.103 62 36 21 0 0
-0.0967 0.0898 -0.9510 -0.907 -0.400 0.134 67 39 23 0 0
-0.0987 0.0889 -0.9564 -0.872 -0.488 0.033 78 53 38 0 0
-0.0909 0.0915 -0.9670 -0.849 -0.518 -0.102 118 104 93 0 0
-0.0920 0.0910 -0.9697 -0.863 -0.461 -0.208 121 109 103 0 0
-0.1275 0.0775 -0.9769 -0.747 -0.420 0.515 116 101 94 0 0
-0.1335 0.0751 -0.9833 -0.714 -0.678 0.172 114 103 96 0 0
-0.1368 0.0738 -0.9847 -0.614 -0.570 0.546 106 95 89 0 0
-0.1352 0.0742 -0.9920 -1.000 0.024 0.010 102 91 87 0 0
-0.1364 0.0737 -0.9945 -0.990 -0.132 -0.052 92 81 76 0 0
-0.1601 0.0642 -1.0164 -0.613 -0.560 0.558 60 29 9 0 0
-0.1638 0.0600 -1.1100 -0.958 -0.275 -0.082 68 36 15 0 0
-0.1224 0.1080 -0.1382 -0.920 -0.391 0.001 44 22 10 0 0
-0.1172 0.1092 -0.1619 -0.989 0.145 0.009 48 39 34 0 0
-0.0641 0.1262 -0.2570 -0.120 -0.952 0.282 42 30 26 0 0
-0.0665 0.1244 -0.2902 -0.808 -0.589 -0.006 36 21 17 0 0
-0.0732 0.1208 -0.3258 -0.881 -0.458 -0.117 41 22 11 0 0
-0.0547 0.1266 -0.3629 -0.665 -0.433 0.609 23 15 12 0 0
-0.0567 0.1258 -0.3656 -0.665 -0.433 0.609 18 10 7 0 0
-0.0605 0.1242 -0.3711 -0.941 -0.090 0.325 46 33 27 0 0
-0.0615 0.1237 -0.3740 -0.941 -0.090 0.325 47 31 25 0 0
-0.0631 0.1230 -0.3768 -0.981 -0.148 0.128 40 23 16 0 0
-0.1051 0.1056 -0.4323 -0.913 -0.407 -0.024 57 29 15 0 0
-0.1050 0.1056 -0.4354 -0.913 -0.407 -0.024 58 34 21 0 0
-0.0305 0.1323 -0.4747 -0.424 -0.174 0.889 41 20 11 0 0
-0.0370 0.1297 -0.4795 -0.843 -0.511 -0.169 39 19 10 0 0
-0.0387 0.1290 -0.4823 -0.941 -0.176 -0.289 39 19 10 0 0
-0.0330 0.1293 -0.5411 -0.525 -0.850 0.039 45 21 11 0 0
-0.0321 0.1279 -0.5991 -0.877 -0.457 -0.149 55 28 15 0 0
-0.0352 0.1253 -0.6466 -0.901 -0.404 0.157 66 34 13 0 0
-0.0356 0.1251 -0.6497 -0.901 -0.404 0.157 66 34 14 0 0
-0.0360 0.1248 -0.6528 -0.901 -0.404 0.157 67 36 16 0 0
-0.0362 0.1247 -0.6560 -0.903 -0.330 0.275 61 30 11 0 0
-0.0375 0.1241 -0.6588 -0.878 -0.445 0.174 59 29 10 0 0
-0.0380 0.1238 -0.6618 -0.880 -0.406 0.246 57 28 10 0 0
-0.0383 0.1236 -0.6649 -0.849 -0.410 0.333 58 29 13 0 0
-0.0354 0.1237 -0.6984 -0.700 -0.693 -0.176 53 24 8 0 0
-0.0517 0.1162 -0.7443 -0.663 -0.738 0.125 51 23 8 0 0
-0.0536 0.1153 -0.7501 -0.764 -0.639 0.090 53 25 10 0 0
-0.0548 0.1148 -0.7529 -0.938 -0.338 0.073 54 26 12 0 0
-0.0554 0.1144 -0.7591 -0.968 -0.230 -0.098 53 25 11 0 0
-0.1010 0.0949 -0.8366 -0.944 -0.130 0.303 53 24 10 0 0
-0.0968 0.0932 -0.9483 -0.866 -0.392 0.309 62 35 18 0 0
-0.0979 0.0927 -0.9510 -0.929 -0.369 0.011 65 38 21 0 0
-0.0992 0.0920 -0.9568 -0.851 -0.462 0.249 79 56 40 0 0
-0.1290 0.0803 -0.9768 -0.747 -0.420 0.515 120 105 98 0 0
-0.1517 0.0708 -1.0091 -0.834 -0.494 0.244 58 27 9 0 0
-0.1644 0.0657 -1.0211 -0.760 -0.601 0.246 66 34 11 0 0
-0.1637 0.0638 -1.0916 -0.491 -0.769 -0.410 39 21 16 0 0
-0.1676 0.0614 -1.1212 -0.987 -0.159 0.029 83 58 36 0 0
-0.1683 0.0607 -1.1368 -0.643 -0.749 0.161 83 57 40 0 0
-0.1159 0.1130 -0.1563 -0.973 0.206 -0.106 46 37 34 0 0
-0.1171 0.1124 -0.1621 -0.991 0.125 -0.041 47 38 33 0 0
-0.0753 0.1234 -0.3196 -0.660 -0.619 0.425 37 19 11 0 0
-0.0745 0.1236 -0.3228 -0.879 -0.418 0.231 38 18 12 0 0
-0.0565 0.1296 -0.3504 -0.925 0.121 0.360 22 13 8 0 0
-0.0565 0.1294 -0.3535 -0.956 -0.174 0.238 22 14 10 0 0
-0.0585 0.1284 -0.3625 -0.893 0.024 0.449 22 14 11 0 0
-0.0599 0.1278 -0.3653 -0.919 -0.127 0.373 18 10 7 0 0
-0.0608 0.1272 -0.3744 -0.965 -0.197 -0.174 44 29 22 0 0
-0.0753 0.1212 -0.3932 -0.693 -0.196 0.694 54 30 20 0 0
-0.0414 0.1313 -0.4820 -0.811 -0.520 -0.269 40 20 11 0 0
-0.0349 0.1326 -0.5186 -0.890 0.391 0.236 41 21 12 0 0
-0.0362 0.1315 -0.5406 -0.563 -0.824 0.064 46 22 12 0 0
-0.0366 0.1311 -0.5501 -0.983 -0.008 -0.182 48 24 14 0 0
-0.0370 0.1308 -0.5531 -0.833 -0.331 -0.443 48 24 14 0 0
-0.0274 0.1339 -0.5687 -0.605 -0.788 -0.110 46 22 10 0 0
-0.0281 0.1333 -0.5814 -0.886 -0.305 0.349 51 25 12 0 0
-0.0388 0.1278 -0.6329 -0.888 -0.440 0.133 68 36 16 0 0
-0.0386 0.1277 -0.6362 -0.902 -0.419 0.102 68 35 16 0 0
-0.0401 0.1258 -0.6810 -0.804 -0.594 -0.015 53 24 8 0 0
-0.0554 0.1181 -0.7467 -0.755 -0.624 0.202 54 27 10 0 0
-0.0567 0.1174 -0.7526 -0.968 -0.230 -0.098 55 27 12 0 0
-0.0702 0.1108 -0.8022 -0.454 -0.862 0.226 50 20 10 0 0
-0.0704 0.1107 -0.8054 -0.400 -0.884 0.244 51 22 9 0 0
-0.0836 0.1058 -0.8030 -0.010 -0.670 0.742 53 24 10 0 0
-0.0895 0.1005 -0.9071 -0.947 -0.277 -0.163 47 29 17 0 0
-0.0904 0.0999 -0.9164 -0.891 -0.117 0.438 58 40 26 0 0
-0.0913 0.0994 -0.9192 -0.844 -0.535 -0.033 64 45 31 0 0
-0.0939 0.0983 -0.9244 -0.938 -0.270 -0.215 63 43 29 0 0
-0.0987 0.0965 -0.9253 -0.903 -0.419 -0.096 65 42 28 0 0
-0.0982 0.0965 -0.9288 -0.791 -0.611 0.024 63 40 25 0 0
-0.0977 0.0966 -0.9323 -0.796 -0.591 0.129 56 32 17 0 0
-0.1010 0.0948 -0.9534 -0.765 -0.579 0.283 65 39 22 0 0
-0.1023 0.0942 -0.9559 -0.851 -0.519 0.083 74 51 35 0 0
-0.0977 0.0956 -0.9648 -0.489 -0.592 0.640 108 93 82 0 0
-0.1289 0.0835 -0.9775 -0.736 -0.017 0.676 119 104 97 0 0
-0.1328 0.0819 -0.9818 -0.747 -0.565 0.350 117 106 97 0 0
-0.1582 0.0718 -0.9998 -0.453 -0.300 0.839 56 27 9 0 0
-0.1583 0.0715 -1.0093 -0.635 -0.058 0.771 57 28 10 0 0
-0.1694 0.0650 -1.0889 -0.465 -0.784 -0.410 40 22 17 0 0
-0.1610 0.0678 -1.1004 -0.822 -0.569 0.011 47 29 20 0 0
-0.1695 0.0638 -1.1272 -0.855 -0.469 0.220 84 58 41 0 0
-0.0650 0.1378 -0.0735 -0.561 -0.706 0.432 86 69 65 0 0
-0.1232 0.1142 -0.1297 -0.994 0.005 -0.110 50 21 10 0 0
-0.1305 0.1113 -0.1350 -0.924 -0.362 -0.122 44 20 11 0 0
-0.1292 0.1116 -0.1380 -0.786 -0.609 -0.112 40 20 11 0 0
-0.1156 0.1159 -0.1682 -0.779 -0.626 0.039 47 37 34 0 0
-0.1155 0.1159 -0.1711 -0.680 -0.724 0.116 47 37 34 0 0
-0.0704 0.1293 -0.2931 -0.926 -0.356 -0.127 32 21 17 0 0
-0.0769 0.1260 -0.3196 -0.806 -0.506 0.307 37 17 10 0 0
-0.0562 0.1329 -0.3508 -0.925 0.121 0.360 22 14 11 0 0
-0.0615 0.1304 -0.3684 -0.961 -0.275 0.020 24 15 10 0 0
-0.0615 0.1303 -0.3715 -0.937 -0.299 -0.179 43 30 22 0 0
-0.0765 0.1240 -0.3932 -0.514 -0.334 0.790 55 32 23 0 0
-0.0426 0.1342 -0.4820 -0.839 -0.401 -0.369 40 20 11 0 0
-0.0394 0.1310 -0.6267 -0.916 -0.399 -0.040 61 32 11 0 0
-0.0395 0.1309 -0.6299 -0.893 -0.448 0.031 66 35 14 0 0
-0.0400 0.1306 -0.6330 -0.859 -0.459 0.226 68 37 17 0 0
-0.0399 0.1306 -0.6363 -0.902 -0.419 0.102 68 37 17 0 0
-0.0410 0.1300 -0.6424 -0.888 -0.458 0.054 68 37 17 0 0
-0.0391 0.1301 -0.6624 -0.911 -0.273 0.310 60 29 11 0 0
-0.0415 0.1286 -0.6843 -0.747 -0.665 -0.027 54 25 11 0 0
-0.0568 0.1206 -0.7564 -0.920 -0.391 0.023 53 24 10 0 0
-0.0572 0.1203 -0.7628 -0.946 -0.324 0.002 52 23 9 0 0
-0.0739 0.1131 -0.7916 -0.678 -0.733 -0.054 48 20 8 0 0
-0.0733 0.1131 -0.7983 -0.678 -0.733 -0.054 48 20 8 0 0
-0.0736 0.1130 -0.8014 -0.433 -0.884 0.176 49 21 9 0 0
-0.1092 0.0978 -0.8597 -0.992 -0.034 0.118 72 44 20 0 0
-0.0893 0.1031 -0.9339 -0.376 -0.888 0.265 62 39 23 0 0
-0.0955 0.1003 -0.9471 -0.536 -0.677 0.504 60 35 19 0 0
-0.1037 0.0970 -0.9559 -0.672 -0.699 0.244 65 44 28 0 0
-0.0965 0.0995 -0.9629 -0.847 -0.419 -0.328 84 66 53 0 0
-0.0977 0.0990 -0.9655 -0.573 -0.333 0.749 104 89 78 0 0
-0.1326 0.0854 -0.9762 -0.682 0.085 0.726 119 106 99 0 0
-0.1345 0.0847 -0.9784 -0.949 -0.197 0.245 124 112 106 0 0
-0.1377 0.0834 -0.9799 -0.787 -0.431 0.440 124 113 107 0 0
-0.1590 0.0745 -1.0097 -0.635 -0.058 0.771 59 28 10 0 0
-0.0306 0.1584 0.0729 -0.896 -0.445 0.008 78 50 28 0 0
-0.0327 0.1575 0.0698 -0.975 0.002 0.222 79 51 29 0 0
-0.0333 0.1572 0.0668 -0.991 0.117 0.064 77 49 27 0 0
-0.0336 0.1570 0.0638 -0.991 0.124 0.051 79 51 29 0 0
-0.0349 0.1554 0.0249 -0.993 0.120 0.017 70 41 21 0 0
-0.0357 0.1548 0.0159 -0.992 -0.107 -0.067 70 43 25 0 0
-0.0356 0.1548 0.0129 -0.978 -0.157 -0.136 69 42 24 0 0
-0.0352 0.1548 0.0099 -0.978 -0.157 -0.136 70 42 27 0 0
-0.0348 0.1549 0.0069 -0.978 -0.157 -0.136 70 44 29 0 0
-0.0344 0.1550 0.0039 -0.978 -0.157 -0.136 67 41 27 0 0
-0.1208 0.1177 -0.1475 -0.883 -0.460 -0.094 42 22 16 0 0
-0.1204 0.1177 -0.1504 -0.825 -0.552 0.117 46 31 25 0 0
-0.0948 0.1252 -0.2267 -0.841 0.442 -0.312 45 34 30 0 0
-0.0852 0.1279 -0.2609 -0.986 0.121 -0.113 40 29 25 0 0
-0.0698 0.1326 -0.2965 -0.814 -0.407 -0.414 27 16 12 0 0
-0.0786 0.1286 -0.3196 -0.806 -0.506 0.307 38 18 11 0 0
-0.0548 0.1369 -0.3451 -0.875 -0.370 -0.312 27 18 14 0 0
-0.0561 0.1362 -0.3511 -0.895 -0.056 0.443 22 14 11 0 0
-0.0627 0.1331 -0.3715 -0.957 -0.265 0.115 40 28 20 0 0
-0.0676 0.1310 -0.3799 -0.750 -0.616 0.241 32 18 12 0 0
-0.0716 0.1291 -0.3914 -0.825 -0.314 0.470 54 35 27 0 0
-0.0760 0.1274 -0.3936 -0.739 -0.285 0.610 48 26 17 0 0
-0.0428 0.1372 -0.4887 -0.710 -0.683 0.171 40 20 11 0 0
-0.0352 0.1394 -0.5129 -0.854 -0.314 -0.414 40 20 10 0 0
-0.0328 0.1402 -0.5167 -0.912 -0.087 -0.401 40 20 10 0 0
-0.0312 0.1407 -0.5203 -0.936 -0.076 -0.344 40 20 10 0 0
-0.0474 0.1335 -0.5542 -0.983 0.156 0.097 52 29 15 0 0
-0.0338 0.1370 -0.6129 -0.705 -0.709 -0.037 52 24 10 0 0
-0.0367 0.1358 -0.6152 -0.918 -0.220 -0.330 52 24 10 0 0
-0.0402 0.1342 -0.6237 -0.980 0.125 0.155 57 28 10 0 0
-0.0401 0.1331 -0.6625 -0.911 -0.273 0.310 59 28 10 0 0
-0.0488 0.1280 -0.7243 -0.984 -0.023 0.177 53 25 11 0 0
-0.0578 0.1231 -0.7728 -0.837 0.258 0.482 49 21 9 0 0
-0.0759 0.1157 -0.7913 -0.739 -0.672 0.041 49 21 9 0 0
-0.0765 0.1152 -0.8007 -0.606 -0.766 0.213 49 21 8 0 0
-0.0772 0.1148 -0.8037 -0.537 -0.828 0.160 50 22 8 0 0
-0.1088 0.1019 -0.8348 -0.946 -0.182 -0.269 54 26 12 0 0
-0.1057 0.1029 -0.8427 -0.829 -0.520 0.205 60 32 13 0 0
-0.1080 0.1017 -0.8544 -0.865 -0.483 0.138 72 41 17 0 0
-0.1098 0.1008 -0.8600 -0.814 -0.522 0.254 74 45 22 0 0
-0.1104 0.1005 -0.8629 -0.814 -0.522 0.254 76 51 34 0 0
-0.1119 0.0997 -0.8686 -0.882 -0.405 0.240 76 54 40 0 0
-0.1112 0.0999 -0.8722 -0.926 -0.321 0.199 75 53 39 0 0
-0.1061 0.1013 -0.8907 -0.937 -0.278 0.212 61 41 30 0 0
-0.0898 0.1067 -0.9180 -0.931 -0.352 -0.093 56 37 25 0 0
-0.1654 0.0754 -1.0068 -0.190 -0.381 0.905 60 29 11 0 0
-0.1653 0.0727 -1.0993 -0.995 -0.042 0.085 48 29 20 0 0
-0.1618 0.0738 -1.1047 -0.901 -0.434 0.009 46 26 15 0 0
-0.1687 0.0710 -1.1100 -0.833 -0.340 0.437 71 39 15 0 0
-0.1722 0.0692 -1.1271 -0.942 -0.320 0.100 84 59 40 0 0
-0.0349 0.1581 0.0069 -0.745 -0.643 -0.177 67 41 25 0 0
-0.0343 0.1582 0.0039 -0.745 -0.643 -0.177 65 39 23 0 0
-0.0323 0.1588 -0.0021 -0.934 -0.173 -0.312 61 35 18 0 0
-0.1200 0.1211 -0.1477 -0.852 -0.521 -0.049 45 25 18 0 0
-0.0836 0.1318 -0.2553 -0.950 -0.065 0.305 44 33 29 0 0
-0.0789 0.1317 -0.3198 -0.877 -0.327 0.352 39 19 12 0 0
-0.0437 0.1394 -0.5174 -0.861 -0.460 0.217 42 22 11 0 0
-0.0452 0.1373 -0.5680 -0.781 -0.343 -0.522 50 27 13 0 0
-0.0407 0.1389 -0.5725 -0.610 -0.788 -0.085 49 26 12 0 0
-0.0402 0.1382 -0.6016 -0.610 -0.759 -0.227 53 25 13 0 0
-0.0425 0.1364 -0.6331 -1.000 -0.011 0.023 67 36 16 0 0
-0.0425 0.1361 -0.6428 -0.962 -0.270 0.028 61 30 10 0 0
-0.0420 0.1361 -0.6494 -0.932 -0.340 -0.126 67 36 16 0 0
-0.0416 0.1362 -0.6528 -0.932 -0.340 -0.126 63 32 12 0 0
-0.0481 0.1318 -0.7186 -0.469 -0.788 0.399 55 26 9 0 0
-0.0696 0.1221 -0.7686 -0.700 -0.581 -0.416 50 22 10 0 0
-0.0762 0.1189 -0.7917 -0.821 -0.518 0.240 51 23 11 0 0
-0.0771 0.1185 -0.7946 -0.751 -0.641 0.158 53 25 11 0 0
-0.0786 0.1178 -0.7972 -0.713 -0.678 0.179 51 24 8 0 0
-0.0792 0.1175 -0.8002 -0.606 -0.766 0.213 50 23 7 0 0
-0.0803 0.1170 -0.8029 -0.537 -0.828 0.160 50 22 8 0 0
-0.0816 0.1164 -0.8056 -0.842 -0.534 0.077 52 23 9 0 0
-0.1082 0.1053 -0.8389 -0.942 -0.154 -0.298 55 27 11 0 0
-0.1073 0.1056 -0.8425 -0.829 -0.520 0.205 57 30 10 0 0
-0.1093 0.1044 -0.8576 -0.997 0.049 0.065 71 41 17 0 0
-0.1070 0.1043 -0.8909 -0.937 -0.278 0.212 59 39 28 0 0
-0.1088 0.1035 -0.8932 -0.879 -0.455 0.144 56 36 25 0 0
-0.0886 0.1100 -0.9323 -0.562 -0.827 0.014 64 41 27 0 0
-0.1569 0.0821 -0.9963 -0.864 -0.200 0.463 67 43 32 0 0
-0.1586 0.0814 -0.9986 -0.816 -0.389 0.428 60 31 16 0 0
-0.1554 0.0825 -1.0036 -0.341 -0.305 0.889 57 28 12 0 0
-0.1698 0.0756 -1.0494 -0.812 -0.478 -0.335 75 55 41 0 0
-0.1563 0.0799 -1.0799 -0.948 -0.302 0.098 66 49 36 0 0
-0.1707 0.0735 -1.1096 -0.878 -0.447 0.168 70 38 14 0 0
-0.1711 0.0733 -1.1125 -0.878 -0.447 0.168 76 43 17 0 0
-0.1728 0.0722 -1.1275 -0.967 -0.253 -0.023 82 57 38 0 0
-0.0370 0.1603 0.0008 -0.753 -0.642 -0.147 64 38 23 0 0
-0.0337 0.1615 -0.0022 -0.970 0.078 -0.229 59 32 17 0 0
-0.1362 0.1185 -0.1322 -0.998 -0.057 -0.016 56 28 15 0 0
-0.1340 0.1191 -0.1381 -0.837 -0.537 -0.100 42 22 12 0 0
-0.1215 0.1237 -0.1477 -0.847 -0.531 0.031 44 26 18 0 0
-0.1232 0.1227 -0.1593 -0.913 -0.398 0.091 48 38 36 0 0
-0.0892 0.1327 -0.2609 -0.619 -0.785 0.030 41 30 26 0 0
-0.0890 0.1327 -0.2639 -0.656 -0.754 -0.009 37 26 22 0 0
-0.0781 0.1352 -0.3232 -0.896 -0.356 0.267 39 20 14 0 0
-0.0786 0.1349 -0.3262 -0.994 -0.095 0.051 40 21 14 0 0
-0.0730 0.1355 -0.3794 -0.860 -0.443 0.253 32 16 11 0 0
-0.0457 0.1427 -0.4919 -0.987 -0.157 0.037 42 22 12 0 0
-0.0399 0.1445 -0.5061 -0.507 -0.526 0.682 45 25 14 0 0
-0.0450 0.1423 -0.5143 -0.753 -0.404 0.519 42 22 11 0 0
-0.0340 0.1460 -0.5300 -0.943 -0.319 -0.093 45 21 11 0 0
-0.0475 0.1400 -0.5582 -0.989 0.027 0.146 52 29 15 0 0
-0.0376 0.1429 -0.5900 -0.980 -0.123 -0.154 51 24 11 0 0
-0.0376 0.1428 -0.5932 -0.970 -0.219 -0.103 51 24 11 0 0
-0.0377 0.1427 -0.5964 -0.999 -0.036 0.002 51 24 12 0 0
-0.0318 0.1441 -0.6241 -0.916 0.013 0.401 53 24 9 0 0
-0.0468 0.1360 -0.7066 -0.986 -0.100 -0.137 56 29 12 0 0
-0.0487 0.1352 -0.7091 -0.872 -0.470 0.139 56 29 12 0 0
-0.0701 0.1249 -0.7786 -0.792 -0.136 -0.595 49 21 9 0 0
-0.0726 0.1238 -0.7841 -0.832 -0.462 0.307 47 19 7 0 0
-0.0812 0.1201 -0.7999 -0.751 -0.338 0.567 50 22 8 0 0
-0.0822 0.1196 -0.8027 -0.819 -0.392 0.419 50 22 9 0 0
-0.1011 0.1119 -0.8202 -0.810 0.321 0.491 54 25 11 0 0
-0.0992 0.1125 -0.8243 -0.910 -0.035 0.413 54 25 11 0 0
-0.1071 0.1093 -0.8304 -0.676 0.320 0.664 55 26 12 0 0
-0.1116 0.1075 -0.8316 -0.350 -0.935 -0.060 54 26 12 0 0
-0.1085 0.1084 -0.8426 -0.946 -0.320 0.060 56 28 9 0 0
-0.1139 0.1054 -0.8753 -0.901 -0.430 -0.058 69 48 34 0 0
-0.0910 0.1128 -0.9220 -0.779 -0.528 -0.338 60 43 30 0 0
-0.0923 0.1121 -0.9279 -0.740 -0.673 -0.005 61 39 25 0 0
-0.0920 0.1121 -0.9312 -0.581 -0.793 -0.182 61 38 25 0 0
-0.1428 0.0909 -0.9920 -0.959 -0.056 0.277 108 94 89 0 0
-0.1625 0.0832 -0.9971 -0.933 0.122 0.339 62 33 18 0 0
-0.1556 0.0856 -1.0041 -0.381 0.032 0.924 58 29 12 0 0
-0.1668 0.0810 -1.0137 -0.767 -0.588 0.258 61 30 10 0 0
-0.1707 0.0791 -1.0274 -0.841 -0.489 -0.233 70 38 14 0 0
-0.1694 0.0794 -1.0345 -0.890 -0.453 -0.055 72 40 18 0 0
-0.1681 0.0798 -1.0385 -0.861 -0.426 0.278 74 45 26 0 0
-0.1569 0.0830 -1.0771 -0.926 -0.367 -0.087 68 49 35 0 0
-0.1606 0.0816 -1.0781 -0.872 -0.407 -0.272 66 48 36 0 0
-0.1652 0.0791 -1.1009 -0.886 -0.396 0.241 45 27 17 0 0
-0.1723 0.0761 -1.1126 -0.859 -0.248 0.447 72 39 14 0 0
-0.1619 0.0787 -1.1579 -0.806 -0.548 -0.225 59 45 33 0 0
-0.0318 0.1639 -0.0597 -0.792 -0.301 -0.531 61 39 25 0 0
-0.0288 0.1649 -0.0659 -0.620 -0.427 -0.658 75 58 50 0 0
-0.0742 0.1472 -0.0736 -0.744 -0.393 0.541 97 80 76 0 0
-0.1361 0.1216 -0.1323 -1.000 -0.015 0.006 55 27 15 0 0
-0.1247 0.1252 -0.1593 -0.936 -0.341 -0.090 49 39 37 0 0
-0.0924 0.1348 -0.2576 -0.821 -0.546 -0.169 42 31 27 0 0
-0.0920 0.1349 -0.2607 -0.736 -0.669 -0.109 41 30 26 0 0
-0.0916 0.1349 -0.2638 -0.736 -0.669 -0.109 39 28 24 0 0
-0.0754 0.1405 -0.2873 -0.928 -0.307 0.213 35 24 20 0 0
-0.0720 0.1390 -0.3830 -0.903 -0.429 0.030 32 17 11 0 0
-0.0379 0.1461 -0.5903 -0.980 -0.123 -0.154 50 22 10 0 0
-0.0374 0.1462 -0.5937 -0.980 -0.123 -0.154 50 22 10 0 0
-0.0380 0.1459 -0.5967 -0.953 0.218 0.209 51 23 11 0 0
-0.0402 0.1431 -0.6640 -0.995 -0.087 0.052 57 28 10 0 0
-0.0400 0.1429 -0.6738 -0.903 -0.355 0.243 57 28 12 0 0
-0.0407 0.1426 -0.6768 -0.903 -0.355 0.243 56 27 11 0 0
-0.0387 0.1432 -0.6807 -0.883 -0.360 0.303 55 26 11 0 0
-0.0443 0.1410 -0.6820 -0.845 -0.533 -0.054 54 25 11 0 0
-0.0470 0.1393 -0.7070 -0.986 -0.100 -0.137 55 28 11 0 0
-0.0502 0.1380 -0.7091 -0.872 -0.470 0.139 55 28 11 0 0
-0.0511 0.1376 -0.7120 -0.779 -0.463 0.423 56 28 12 0 0
-0.0741 0.1266 -0.7840 -0.832 -0.462 0.307 48 20 9 0 0
-0.1063 0.1126 -0.8410 -0.891 0.097 -0.444 54 26 10 0 0
-0.1085 0.1113 -0.8560 -0.976 -0.206 0.073 67 35 12 0 0
-0.1097 0.1107 -0.8586 -0.981 -0.168 -0.101 68 36 13 0 0
-0.1094 0.1108 -0.8620 -0.981 -0.168 -0.101 67 38 16 0 0
-0.1082 0.1110 -0.8690 -0.997 -0.044 -0.057 72 53 38 0 0
-0.0922 0.1155 -0.9253 -0.716 -0.571 -0.401 63 44 29 0 0
-0.0946 0.1146 -0.9274 -0.740 -0.673 -0.005 61 39 25 0 0
-0.0945 0.1145 -0.9307 -0.740 -0.673 -0.005 60 38 24 0 0
-0.1287 0.1002 -0.9714 -0.949 -0.109 0.297 122 109 101 0 0
-0.1291 0.0999 -0.9744 -0.803 -0.536 0.260 119 106 98 0 0
-0.1319 0.0988 -0.9762 -0.631 -0.717 -0.297 120 107 99 0 0
-0.1412 0.0951 -0.9808 -0.481 -0.844 0.238 128 117 108 0 0
-0.1401 0.0954 -0.9846 -0.433 -0.891 0.137 125 115 108 0 0
-0.1445 0.0937 -0.9854 -0.762 0.198 0.616 113 102 96 0 0
-0.1462 0.0930 -0.9877 -0.850 0.048 0.524 106 96 89 0 0
-0.1586 0.0879 -0.9968 -0.840 -0.183 0.512 70 47 34 0 0
-0.1605 0.0870 -1.0021 -0.847 0.531 -0.020 59 30 12 0 0
-0.1652 0.0850 -1.0090 -0.837 0.544 0.068 57 26 8 0 0
-0.1703 0.0828 -1.0188 -0.699 -0.681 0.216 65 33 11 0 0
-0.1700 0.0828 -1.0222 -0.934 -0.338 0.116 68 36 13 0 0
-0.1730 0.0815 -1.0268 -0.985 -0.042 0.166 68 36 12 0 0
-0.1717 0.0819 -1.0307 -0.796 -0.571 -0.202 70 38 13 0 0
-0.1713 0.0819 -1.0373 -0.907 -0.414 -0.072 73 45 28 0 0
-0.1710 0.0819 -1.0407 -0.907 -0.414 -0.072 75 52 35 0 0
-0.1726 0.0811 -1.0461 -0.941 -0.294 -0.166 77 55 41 0 0
-0.1664 0.0826 -1.0753 -0.583 -0.642 0.498 66 48 36 0 0
-0.1692 0.0796 -1.1443 -0.966 -0.090 0.242 80 59 38 0 0
-0.1626 0.0817 -1.1582 -0.934 -0.299 -0.195 55 43 31 0 0
0.0264 0.1948 0.1185 -0.296 -0.081 0.952 158 146 143 0 0
-0.0314 0.1672 -0.0629 -0.818 -0.322 -0.476 57 37 26 0 0
-0.0752 0.1500 -0.0737 -0.669 -0.424 0.611 94 77 73 0 0
-0.1004 0.1393 -0.1053 -0.423 -0.171 0.890 84 66 59 0 0
-0.1060 0.1371 -0.1079 -0.443 -0.069 0.894 86 66 60 0 0
-0.0779 0.1428 -0.2871 -0.974 -0.094 -0.206 37 26 22 0 0
-0.0756 0.1427 -0.3211 -0.686 -0.664 0.299 41 21 14 0 0
-0.0714 0.1425 -0.3834 -0.861 0.081 0.503 31 16 11 0 0
-0.0417 0.1496 -0.5351 -0.959 -0.281 -0.041 46 22 10 0 0
-0.0375 0.1484 -0.6361 -0.888 -0.451 0.094 61 30 10 0 0
-0.0380 0.1481 -0.6392 -0.934 -0.341 0.106 62 31 11 0 0
-0.0411 0.1460 -0.6706 -0.820 -0.501 0.278 57 28 10 0 0
-0.0418 0.1456 -0.6736 -0.820 -0.501 0.278 56 27 11 0 0
-0.0406 0.1459 -0.6805 -0.795 -0.546 0.265 53 24 9 0 0
-0.0518 0.1406 -0.7122 -0.964 -0.254 -0.078 55 27 12 0 0
-0.0488 0.1414 -0.7264 -0.890 -0.457 0.004 52 23 8 0 0
-0.0490 0.1412 -0.7296 -0.726 -0.638 0.255 51 22 8 0 0
-0.0492 0.1411 -0.7328 -0.746 -0.338 0.574 51 22 8 0 0
-0.0592 0.1369 -0.7419 -0.964 -0.252 0.084 53 24 10 0 0
-0.1098 0.1140 -0.8592 -1.000 0.011 -0.027 67 35 12 0 0
-0.1100 0.1138 -0.8623 -0.990 -0.013 -0.137 67 38 17 0 0
-0.0983 0.1170 -0.9099 -0.954 -0.300 -0.030 47 27 16 0 0
-0.0948 0.1180 -0.9214 -0.996 0.088 -0.020 63 44 30 0 0
-0.0959 0.1173 -0.9307 -0.942 -0.332 -0.037 59 37 23 0 0
-0.1281 0.1038 -0.9659 -0.733 -0.672 -0.106 118 104 97 0 0
-0.1277 0.1039 -0.9694 -0.733 -0.672 -0.106 110 96 89 0 0
