ply
format ascii 1.0
element vertex 695
property float x
property float y
property float z
property uchar diffuse_red
property uchar diffuse_green
property uchar diffuse_blue
end_header
0.09571520538768027 0.1272793488995929 -0.540905502315543 90 63 40
0.09647919439748996 0.1277527115988052 -0.5438090667308922 93 67 42
0.0970262446878247 0.12811940783548675 -0.5467782457590741 95 68 44
0.09783254476268993 0.12861348740833345 -0.5496662211858606 98 71 47
0.09856781875452914 0.12907261772061268 -0.5525748291641784 97 70 48
0.09838010496069985 0.12907822565035648 -0.5557722536594518 95 67 45
0.09906812536403183 0.12951411159401252 -0.5586948239984392 96 67 45
0.09896062728695951 0.129559197277065 -0.5618691587841629 96 66 42
0.09998191052411605 0.13015873878053472 -0.5646843158023825 95 66 40
0.09939144337553941 0.12996668364762012 -0.5680153120273167 95 66 40
0.09880075646265374 0.1297746277433041 -0.5713498162540084 95 65 40
0.09853678120629836 0.12974308923665215 -0.5745815505581273 96 65 42
0.09696935565526593 0.12907172127724165 -0.5782416284567732 97 66 43
0.09828707096821576 0.12981680489349773 -0.5809603785917566 97 66 43
0.09918872531245487 0.13035757290476901 -0.5838132182831434 92 61 39
0.09913091382958339 0.13042741376052264 -0.5869829442234987 92 60 39
0.09977992102779966 0.1308441411711902 -0.5899180792993516 93 62 41
0.09961852156164286 0.13086321280234708 -0.59312439336562 92 61 40
0.09930489132902032 0.13080766071350353 -0.5963840174371347 91 58 36
0.09913071607924541 0.13082059285911854 -0.5995987582137852 87 56 33
0.10375497456683741 0.1331871201387293 -0.6011779287008534 88 58 35
0.10427558512811276 0.13354064416093142 -0.6041495844986725 91 61 38
0.10371143298447252 0.1333622188543191 -0.607494788461382 92 60 39
0.1053927604765906 0.1342848820531574 -0.6100649177418579 87 55 34
0.10492346360727575 0.13415304341609458 -0.6133797427931822 86 54 33
0.10672678992269546 0.13513533591241256 -0.6159015454171667 89 58 35
0.10395573732330068 0.13387536968554875 -0.6200287166002926 87 56 33
0.10511211629402828 0.13454053666868251 -0.6227773611170476 87 57 33
0.1041048148101742 0.13414534694445673 -0.6262927641580188 84 53 30
0.10293152654022839 0.1336689831023804 -0.6298724798772122 82 51 30
0.1037477678012948 0.13416749771972986 -0.6327429191283318 82 51 31
0.10424755909779207 0.13451094549541331 -0.6357260161310924 81 50 30
0.10461491067808776 0.1347895089688735 -0.6387567056562132 80 51 30
0.10426410974030254 0.1347163589156864 -0.6420493368339725 79 51 30
0.10293570196777692 0.13416456439292138 -0.6457029132949281 73 44 26
0.10054692230687425 0.133093766421439 -0.649753237265087 71 42 24
0.09889784786927563 0.13238542391889158 -0.6535397427909144 70 41 24
0.0975374292024376 0.13181861302694894 -0.6572261955134647 69 40 23
0.09952008564404743 0.13288831759934266 -0.6596692940513745 69 40 23
0.10378268085923054 0.13507366204139265 -0.6612501690218489 69 41 24
0.09950780367184434 0.1330807344972636 -0.666039193509942 69 42 25
0.10478639910255907 0.13576280542846517 -0.6672219891943434 70 42 26
0.10891498517034781 0.13788169092379837 -0.6688251731592639 69 41 25
0.1117978595319192 0.1393907702423795 -0.6708916481276452 67 40 23
0.11093573474874835 0.13906778942007056 -0.6743896724414403 67 40 23
0.11113956923379112 0.1392662757217234 -0.677480162453926 66 39 22
0.11220297456241825 0.13988512133392905 -0.6802374487445009 68 41 24
0.11265546269142168 0.14020517679665548 -0.6832305592511144 64 37 20
0.1115141684091069 0.13974602468548053 -0.6868480946174734 59 32 15
0.11252049015362489 0.14033688863864086 -0.689625396411287 60 33 16
0.11462932687202948 0.1414665728802374 -0.6919641901778649 61 34 17
0.11645541164807699 0.14245787040200297 -0.6944090154337423 63 36 19
0.118714196383521 0.14366045009425993 -0.6966757543044777 66 39 22
0.11705032276172964 0.14294614751518986 -0.7005089682262978 64 37 20
0.11702672421336034 0.14303344476112662 -0.7036886922069803 63 36 19
0.11607369979581396 0.14266676167575137 -0.7072460355950113 65 38 21
0.11516746922416005 0.14232308529600468 -0.7107891831639574 72 45 28
0.11421904827176418 0.14195894902483702 -0.7143542233310601 68 41 24
0.11377666273135775 0.1418420749555983 -0.7177164867543959 66 39 22
0.11325145434295189 0.1416848533551588 -0.721115848691424 61 35 19
0.11230820881031303 0.14132364172092418 -0.7246915113978554 57 31 16
0.11250247780760234 0.14151786701123925 -0.7277990809122966 56 28 14
0.11082603222023793 0.14079901456239768 -0.7316884377848749 56 28 14
0.11065234998147389 0.14081381047578997 -0.7349550403902753 58 30 16
0.13510883261313616 0.15304441632148905 -0.734153794744609 57 29 15
0.13380581392547414 0.15250712392630222 -0.7378644454639642 57 29 15
0.13738623907927058 0.1543519603808596 -0.7394882962173317 56 28 14
0.1305323492422327 0.15140391691657704 -0.755096589383108 55 27 13
0.1302618247861711 0.15137089786633506 -0.7583861093784686 55 27 13
0.13358810301965507 0.15309108267975916 -0.760096763308607 55 27 13
0.13438216848003284 0.15357683789607318 -0.762914378460366 54 26 12
0.1338706391600794 0.15342632924993582 -0.7663091893105656 55 27 12
0.13454146909290268 0.15385201569651452 -0.7691809136872907 55 27 12
0.13749566765737645 0.15539008712923158 -0.771030866859469 55 27 14
0.14236044029236491 0.15785855137116134 -0.7720137281247132 56 28 16
0.14525202301009485 0.15936541874017435 -0.7738692585966338 56 28 16
0.1493290245357104 0.16144930708154542 -0.7751790128088174 55 27 15
0.15266194185571874 0.16317043324737288 -0.7768131396038767 55 27 15
0.1456748634120902 0.15986645481513773 -0.7831445658760265 55 27 15
0.14667651981063135 0.16045254454437544 -0.7858437134493887 55 27 15
0.1467416677227577 0.16058268674229015 -0.7889712296386902 54 26 15
0.14542233598030066 0.16003900577188931 -0.792739178833527 55 25 15
0.14814806064876937 0.16146410643913875 -0.7946379432556028 54 24 13
0.14403990708849318 0.1596622700867941 -0.8028767960982854 54 25 13
0.14664204417768179 0.16102698024194115 -0.8048250079896684 55 26 14
0.14753570361159146 0.16156037041041765 -0.8075696963035798 55 26 15
0.148650993851007 0.162201495237252 -0.8102076101806587 57 28 16
0.14984139463332236 0.16287906075149217 -0.8128070760305486 56 28 16
0.1551823476860008 0.16557477857252514 -0.8134252358590481 55 27 15
0.15277644200211635 0.16450338019683808 -0.8177316033251979 56 28 16
0.16157875248760817 0.1688811121896772 -0.8166645360933544 54 27 15
0.17297170749656657 0.1745171421590762 -0.8143168718917467 54 26 15
0.1763630716894332 0.17626289340819257 -0.8158013938419753 55 28 16
0.17695119326642683 0.17664600043572068 -0.8186367804139421 55 28 16
0.1763916251114756 0.17647140449272913 -0.8220311366329278 61 33 21
0.17569588814511886 0.17623075707127273 -0.8254955898099694 61 33 19
0.17469162358720297 0.17584035078533303 -0.829115619773917 59 31 17
0.17438287084609422 0.17578793940433643 -0.8323975868824982 63 35 21
0.18153991956655247 0.1793615934435373 -0.8319846765779424 69 40 24
0.18906038233751166 0.18311093813473406 -0.8313657361204955 66 37 20
0.19217007742073738 0.18471774237544336 -0.832920909573643 61 31 13
0.18186269978573774 0.1798101700717598 -0.8411856420527587 62 31 13
0.18448875073052273 0.18118233102381084 -0.8429884459367001 63 30 13
0.1844767631316152 0.1812737541765702 -0.8461138753199542 63 30 11
0.18282751944014725 0.180570610722208 -0.8500698798177245 66 31 12
0.18147543739730504 0.1800119056188157 -0.8538823422955126 68 33 11
0.18402734632382028 0.18134766910279868 -0.8557094114305563 75 35 13
0.1864482938226696 0.18261963989462432 -0.8575953266807052 78 42 15
0.19117522794533293 0.18500999613705338 -0.8582883693011392 92 57 30
0.19227834096980972 0.18564215001399384 -0.8608342583861066 94 62 39
0.19386770856451369 0.18651004027250329 -0.8631256188125569 95 67 47
0.19385323172474023 0.18660004805565258 -0.8662456600742512 94 64 45
0.1947461487922048 0.18713006077231775 -0.8688939381238306 92 63 42
0.18768429820963498 0.18380350565518677 -0.8757031103182069 87 59 38
0.18669707648585515 0.1834224694382675 -0.8793497526322165 85 57 36
0.18258812670739055 0.1815285295658583 -0.8846468528129989 84 56 35
0.18279607676376636 0.18172720595176972 -0.8876772819796501 83 55 34
0.18070512233233071 0.18081192030271515 -0.891928634262512 82 54 33
0.18198501612342832 0.1815301357783461 -0.8943934792095782 78 48 28
0.18263654033067037 0.18194382805430942 -0.8971907900805719 81 50 30
0.17853719777997357 0.1800561957422138 -0.9025357902082746 81 50 30
0.17840564901872025 0.1800908288231322 -0.9057614388333993 75 42 23
0.1781263992495306 0.18005399164351416 -0.9090687394194985 80 47 28
0.17907204681719252 0.1806103464212008 -0.9117143824926519 92 60 40
0.17776329729552687 0.18007514648337541 -0.9155842804097696 97 68 47
0.17821461794351015 0.1803921926906456 -0.9184996256621052 95 67 46
0.17445441635153647 0.17867067892048558 -0.9237217296680764 92 64 44
0.17631821100224515 0.17967156399501308 -0.9258679177889997 86 57 40
0.17453448850896236 0.17890715402507207 -0.9300203469755726 80 51 36
0.17606552236276324 0.17974688898758445 -0.9323462493499768 75 45 33
0.17652537927058176 0.1800682450385125 -0.935262626580069 60 31 20
0.17645497141397332 0.1801330759127223 -0.938474128094809 51 23 14
0.17683762852006382 0.18041709954916826 -0.9414339331733149 46 19 12
0.18072877129608667 0.18239792340981587 -0.9424252329300322 43 18 13
0.18187141426861658 0.18304924061745612 -0.944950404454704 43 18 12
0.18308524945460325 0.18373488760839712 -0.9474324008903942 46 20 11
0.1847462609485821 0.18463662156082683 -0.9496577322374946 50 23 14
0.18858999917898286 0.1865933139066165 -0.950636962605804 58 31 21
0.18853008121338477 0.1866628296375471 -0.9538301210515359 65 40 30
0.18948561386815582 0.18722313535476595 -0.9564436003412916 76 54 44
0.18782969580121694 0.18652148041071248 -0.9605546458442774 77 58 49
0.18816027878970454 0.18677985214748205 -0.9635286738514542 82 64 55
0.18575035809191204 0.18571430185633192 -0.9680871816892658 91 73 66
0.1880331948538137 0.1869158527257543 -0.9699342771016843 88 70 63
0.18805909085536016 0.18702712490117607 -0.973087450270103 87 70 63
0.19155131337094677 0.18881238727580552 -0.9742181197749562 88 71 64
0.19619017747625855 0.1911509432076961 -0.9746652208853688 90 71 64
0.20126330473923887 0.19369865256466257 -0.9748408197694004 92 74 65
0.20645934114378106 0.19630513470772426 -0.974925982795625 95 75 68
0.2122254989435668 0.19918622779262604 -0.9746554857026242 95 75 66
0.21522075649447397 0.20072938387461692 -0.976008517379106 95 75 65
0.21884706279413849 0.2025767453798472 -0.9769758212943662 97 77 66
0.2219225203841233 0.20415793204042662 -0.9782595919432561 98 76 65
0.22406509934668134 0.2052887347417816 -0.9800918522359336 98 76 63
0.22625322095265826 0.20644129324126637 -0.9818899026324996 100 78 65
0.2289884139918628 0.20785749803408046 -0.9833510942456337 95 73 61
0.22986761958631807 0.20837834428500956 -0.985925739078158 99 76 65
0.22769938936814318 0.20742964338441605 -0.990347397784999 94 68 58
0.2295537579216821 0.20842071456566466 -0.9923302960015383 81 49 32
0.2330670136340685 0.21021132959680594 -0.9932945591537224 78 43 18
0.2349522289914989 0.21121681183472357 -0.9952438764747362 82 43 17
0.23816834739183632 0.21286355898055714 -0.9963695901723689 85 42 14
0.2389877597174424 0.21335497931490863 -0.9989614793738197 81 40 9
0.24212840534687013 0.21496481831639488 -1.0001164686088395 79 38 9
0.24038846631473576 0.21422293002156179 -1.0042875353036262 78 38 10
0.24415591650077173 0.21613434081134222 -1.0050405395383155 72 31 8
0.2399233064324679 0.21419198985932308 -1.0107725394484068 73 32 9
0.24331481042986242 0.21592200339372936 -1.0117499701593085 72 31 7
0.24431365511864295 0.21649947790261542 -1.0142179522177426 72 31 5
0.24352769311977845 0.2162175158965976 -1.0178074735178109 77 34 7
0.24602313746180765 0.21751544320980526 -1.0193284886936274 82 37 10
0.24678965797823485 0.21798086859049925 -1.0219367406581494 84 38 9
0.2471921993413884 0.2182710587446584 -1.0247747163064207 85 39 11
0.24677872759171407 0.2181685399511667 -1.0281326829632442 86 42 12
0.24407191012532647 0.2169625885307649 -1.0329599832527165 90 48 18
0.2466652990975033 0.2183070676905727 -1.0343998405451982 97 60 31
0.24726481595046743 0.2186920947889092 -1.0371136393747435 100 65 35
0.24849955191736448 0.219382635358019 -1.0394166314742208 100 65 37
0.2496132610996788 0.2200148622025213 -1.0417945262849222 98 65 35
0.24995578231117632 0.22027614471770796 -1.0446700191004745 100 67 38
0.2514022848006805 0.2210682489927162 -1.0468268512082428 103 70 41
0.2503052179589802 0.22063736468979162 -1.0506402149481588 107 73 45
0.24972847428950834 0.22045677608026348 -1.0541184340200622 107 73 45
0.2499153283415979 0.2206433173647222 -1.0570987078401914 104 70 42
0.24822563108997098 0.21992803987923276 -1.0613157672048852 99 65 37
0.24680827659535132 0.21934387556497575 -1.06536079918073 98 64 36
0.2448469131592114 0.21849854918165754 -1.0697731503217427 99 65 39
0.24287977652880766 0.21765072885110093 -1.0741983041689995 101 67 40
0.2394381008680412 0.21609490709997936 -1.0796152197371147 93 59 35
0.23297333893998692 0.21308761440915255 -1.0870675858253753 77 45 24
0.23066462492598366 0.21207696489577021 -1.0917603197589065 66 38 20
0.22926076300000467 0.21150111126422255 -1.0958550515537655 43 18 7
0.2289263733318213 0.21143892327427613 -1.099235516530997 47 22 11
0.23312498639374885 0.21355283435068725 -1.0995534327078569 53 26 13
0.24052971226054687 0.2172051423549052 -1.0976821808385744 57 28 12
0.23725651214883053 0.21573207534155336 -1.1030454805310705 64 30 11
0.23678568740393074 0.215604186324147 -1.1065115647024968 71 33 12
0.2413740921884388 0.2179037942552001 -1.1065204103050228 76 36 13
0.24480925153731753 0.21964963558961242 -1.107303807764601 83 40 12
0.2474909900456809 0.22103370577367942 -1.1085934564424786 89 44 13
0.24708540213353936 0.22093676940440832 -1.1120037654754817 91 47 16
0.24765495320305755 0.22130755563015997 -1.1147424419198975 95 56 25
0.2486415094065922 0.22187826591425164 -1.117190976526895 95 60 31
0.2474528784803806 0.22140604690343746 -1.121150288341758 98 62 35
0.2468774292532098 0.22122795642725046 -1.124687835662574 94 57 30
0.2487850616366658 0.22224014264087827 -1.1264918497779643 90 52 26
0.24826730041739295 0.22208977378034536 -1.129991323556221 83 45 20
0.24706710236715812 0.22161249597216873 -1.1339742996447322 87 51 26
0.24821109997197355 0.22225857311274005 -1.1363096012170382 98 62 35
0.2448379155072479 0.2207405290073341 -1.1418373635932504 97 63 37
0.24386999267075804 0.2203750700466376 -1.1456734697104187 94 62 40
0.24298759246537555 0.2200507329296185 -1.1494539167189477 82 56 36
0.24230514733583555 0.21982230171408274 -1.1530965802296969 64 45 30
0.04398307978896006 0.07867819704450114 0.07811207813305521 180 175 173
0.04623712420707203 0.07990700202696875 0.07504119885362792 164 158 153
0.04896610664344963 0.08137512817161136 0.07195646581769291 139 130 122
0.04920588503237021 0.08158782316610547 0.06898059321150339 122 111 101
0.05027806706923604 0.08222023098163886 0.06597188224962543 103 89 77
0.05183630773394032 0.08309761395945486 0.06294736677551441 94 77 64
0.05402305946288993 0.08429170818327815 0.059904367287706775 89 70 55
0.05550403699961684 0.08512987099968272 0.056891389509713244 86 64 47
0.057136988721054424 0.0860445145857329 0.053877177594925 89 62 41
0.05857182425658987 0.086859188271278 0.05087324296110749 89 59 38
0.06069483660934848 0.08802052268071509 0.047852835167119384 88 57 36
0.05319833688752393 0.08433492512052462 0.045102100953399234 87 56 35
0.05174736435073074 0.08369583571839811 0.04216958073543427 85 54 33
0.049597582972920884 0.08270491102178623 0.03924793312044841 83 52 31
0.04909299225953234 0.0825429136883794 0.03628100555656569 81 50 29
0.048625372966228826 0.08239962548505295 0.03331043885451791 82 51 30
0.05458579709374997 0.08549352334879556 0.030213884674960542 86 55 34
0.05448933825818822 0.08553697025032084 0.027241945930737747 84 53 32
0.05473972928512437 0.08575509894162398 0.02426298489200328 83 52 31
0.05473380894439489 0.0858442025812933 0.02128729316631453 81 50 29
0.054556663936192795 0.08584715198996157 0.018312529341068882 81 51 31
0.05483915885935034 0.08608150934358093 0.015330967058004664 78 50 30
0.05407476599392813 0.08578899405945986 0.012358811183504065 77 49 28
0.05305866955853551 0.08536992921504574 0.00938482575651147 75 46 26
0.05233330322421639 0.08509729566087074 0.006404542562967804 76 45 25
0.05375388298190527 0.08590446193680587 0.003411491711809463 76 47 27
0.05156154918339588 0.08489394313403073 0.00043136409303180454 75 46 28
0.0515770680271118 0.08499429515990382 -0.0025593395569471645 74 45 27
0.05076299479099265 0.08467741894678699 -0.005551794788060744 76 47 29
0.047767924901531825 0.083263789238934 -0.008553349428394188 78 49 31
0.04884656568458979 0.08389906082692364 -0.011549620141017021 79 50 32
0.04930867554508979 0.0842242544845064 -0.014547033491118804 79 50 32
0.04969667854346646 0.0845121795041116 -0.0175446698687376 80 51 33
0.05047958352996234 0.08499862638660613 -0.020538664042798915 81 52 34
0.05058898610489891 0.0851464833207605 -0.023538469778013202 77 48 30
0.05122547287038895 0.08555928683719011 -0.026532611955015273 73 44 26
0.05184990947445706 0.08596600639309523 -0.029526018499982723 73 44 26
0.05902097363361668 0.08966245481780188 -0.03241581895629036 74 45 29
0.05268406358796257 0.08657098547179384 -0.035517436081762395 72 45 28
0.05645694772839582 0.0885594521602095 -0.038449023611820635 71 44 27
0.059470379362616024 0.0901660508266682 -0.04138495485054497 69 43 27
0.04524257200350077 0.08311201599884355 -0.04469770015125002 66 42 31
0.046914156395854875 0.08404501100899867 -0.04767698839018078 95 82 76
0.044928104984834696 0.08314100068119543 -0.050745953019297546 176 172 172
0.05118470205333668 0.08637627820194131 -0.05359708514427548 125 118 117
0.05595930810960252 0.08886684128039929 -0.05647157494882796 71 60 53
0.06051237623718907 0.09124572552955997 -0.059338118761036965 62 44 35
0.06296641905770747 0.09257047675503938 -0.06225865250023471 73 51 41
0.06970129530091956 0.09604374440221451 -0.06502631513142954 71 51 43
0.0688705746838203 0.09571924767677131 -0.06804310652905965 69 49 42
0.100988666171405 0.1122026432465543 -0.07864552625884091 85 63 50
0.11183019132474367 0.1177320894201492 -0.0811076712455193 81 61 49
0.1237515397370387 0.12380206298122581 -0.08348512872127552 71 45 36
0.12820634962496427 0.12612616023604795 -0.08617835042837328 68 40 30
0.1349616371167999 0.12960346364445724 -0.08874465189074976 65 37 23
0.13996147418691318 0.1321998767862278 -0.0913786960373612 71 43 29
0.13625961678922796 0.13043302578998509 -0.09445427992791348 78 53 42
0.13749434057813403 0.1311413998001434 -0.0972758227394319 93 70 61
0.14629158380756196 0.13572945750907717 -0.10254555044166594 88 60 47
0.15450346539071072 0.139933917553167 -0.1049339202448123 91 61 49
0.16877746163423563 0.14717534821397027 -0.10692623691512057 99 68 53
0.17887427146898394 0.15232231035173982 -0.10913326902697787 102 69 55
0.18421365015803842 0.1550847508565732 -0.11161345431014706 108 75 59
0.18859974550252692 0.15736911810115684 -0.11413970686428931 122 92 76
0.19488853828321281 0.16060612746857725 -0.1165234711758422 125 95 82
0.19629934184027295 0.16139937566826223 -0.11922565774535489 116 82 64
0.19851228707114765 0.16276731528165955 -0.12746084572602745 83 43 17
0.19752151163128162 0.16235789260930444 -0.1303348389926372 75 39 16
0.1936937837495941 0.1605284645641751 -0.13343418937149304 75 41 17
0.19800018400301594 0.16277089423816415 -0.1359006198988918 73 39 18
0.1989462372564191 0.1633311106167184 -0.13862659902889268 71 38 18
0.2026124824569904 0.16525253113477523 -0.1411249253702917 68 36 18
0.1988260016528759 0.16344441957221306 -0.14424267381749462 67 37 21
0.19885255306122063 0.16354449955119524 -0.1470452542539863 66 42 27
0.20209299575083556 0.16525243656204547 -0.14956600573444523 66 44 30
0.18371623345550278 0.1561466912847908 -0.15401633298402082 66 44 33
0.16681173949606967 0.1492907882122747 -0.20724079330514114 62 43 36
0.1674581574228316 0.14970273223232025 -0.21004573140895294 62 43 36
0.15634471178161038 0.1449644967694586 -0.23757222098534403 61 41 34
0.15274294002440084 0.14325849832699178 -0.24098743658188845 62 42 35
0.1535661952735649 0.14375939476158323 -0.24379249579514273 62 42 35
0.1526672207464643 0.1434015678218365 -0.2468416452585137 60 40 33
0.14548328660218085 0.1399106395976636 -0.25080259902887464 59 39 30
0.14353376513152633 0.13902974095081205 -0.2540246510267886 58 38 29
0.14093592353236417 0.1378259500801655 -0.25735046736136635 59 39 30
0.1411391229902991 0.13801842599700548 -0.2602675258025429 62 42 31
0.14025577952448845 0.1376694762576359 -0.2633494700572261 63 43 32
0.13728438649988964 0.1362802614370791 -0.2667551500363428 64 44 33
0.13469235011281613 0.13508040022645124 -0.2701135942075863 64 44 33
0.13651377786741525 0.136079446298207 -0.27279170795269114 67 45 34
0.1422763483359054 0.13904142852646972 -0.2748413646395302 68 46 35
0.13289094599240614 0.13445839971691909 -0.27929454069602416 67 45 34
0.13428418705583178 0.13524412860182708 -0.28203920865979504 67 45 34
0.13100362574879543 0.13370246323833992 -0.2855437821179873 64 42 31
0.1351800969049663 0.13587395868630703 -0.2878298818512756 62 40 29
0.12786351339884353 0.13232339831956938 -0.2920199582933905 58 36 25
0.12483497857492944 0.13090817104974523 -0.2955138511837875 57 35 24
0.1311325193956352 0.1341351563235934 -0.2974314812326332 67 45 34
0.13314966528158803 0.1352312615162749 -0.30006478782797963 68 46 35
0.1390966541759166 0.13828276093144673 -0.30200958762382774 71 50 40
0.13791321445809335 0.1377857922340297 -0.3051861719337842 72 53 46
0.14040859720352283 0.13911925314927256 -0.3077161955730062 78 59 49
0.14083079866459366 0.1394211593826361 -0.31060975833763693 81 55 44
0.14284575146367126 0.14051530300598047 -0.31321532331557217 73 41 27
0.1451724569287323 0.14176431927417035 -0.31575825848662137 68 36 21
0.14691238009723087 0.14272131730149576 -0.3184023930757511 69 39 23
0.14536360359087605 0.14213467759669965 -0.3246196496875225 74 46 28
0.13901731492492125 0.1390715378305642 -0.3287892079716012 78 51 36
0.1428591776966113 0.141073485082307 -0.33103519933909387 74 49 38
0.13073662956769208 0.13514026464167816 -0.3363474872490514 47 26 19
0.12202763414084619 0.13090484248028766 -0.341039021810679 39 21 13
0.12048303794575918 0.1302305471718868 -0.34435566495959014 71 54 41
0.11662691427639248 0.12840793192845912 -0.34813674364863534 67 47 33
0.11703729024869697 0.1287054302184642 -0.3510800806626258 72 50 39
0.11832498725752157 0.12943874155110016 -0.35384642624611606 60 38 27
0.11777133566607526 0.1292573426787576 -0.35698385025614476 62 40 29
0.1182108921699727 0.129569321817456 -0.35992082508648754 68 46 35
0.11891654464567576 0.13001343522048758 -0.36280249953181387 59 40 31
0.11978440914701997 0.13053805673807908 -0.36564914135975846 39 20 15
0.12225994218538916 0.1318608155326254 -0.3681559695090341 45 29 24
0.12826754264692025 0.13493679254952337 -0.36990655624691926 53 35 28
0.13024773203753692 0.13601302255795022 -0.37249829909884313 57 37 30
0.13212466566488137 0.1370378282106166 -0.3751066198911536 64 42 34
0.13158191292131077 0.13686164163943906 -0.37823532547478306 52 31 23
0.1301187749860403 0.13622883907579056 -0.381568755833476 53 31 22
0.1292186183852718 0.13587556587160166 -0.38478427736968135 61 38 27
0.12530921795572783 0.13402950845547176 -0.3886738042676042 73 52 41
0.1261374033754991 0.13453402800041417 -0.3915158085083904 50 31 24
0.1348694985494769 0.13895885999833096 -0.39256972871102014 42 22 15
0.14340572300010662 0.14328564117774456 -0.3936388888820716 39 19 12
0.15182869236342392 0.14755537151688558 -0.39470533918940914 41 18 11
0.15026987576954165 0.14687485507900638 -0.3980520906856924 54 29 19
0.16169068183849902 0.152721607339117 -0.40135216715829847 55 25 13
0.17321502718561393 0.1585259472096749 -0.40159864503743814 70 38 28
0.16911234243836368 0.15658396142438083 -0.4055299591859628 98 73 64
0.17000815392828517 0.1571195561254352 -0.40827693667879417 98 77 66
0.17176172134400158 0.15808012127213614 -0.41081456159576246 91 67 54
0.1759390978111418 0.16024143214445327 -0.41275682270637354 75 44 28
0.18159409335611815 0.16313434531394422 -0.41432306108751527 69 31 12
0.18070138021648938 0.1628744888548086 -0.4204364304077256 71 33 13
0.18678255591232493 0.16597739295866787 -0.4218612398148689 73 35 14
0.17721343733879724 0.16132985659941002 -0.42721606588225225 73 35 14
0.17987243717248452 0.16273793480104037 -0.4294978509414991 75 39 18
0.18189168967055314 0.16382903625274003 -0.4319352150066573 79 50 29
0.18404501708524199 0.1649863251980932 -0.43433212593860304 82 55 37
0.08765217030894362 0.11765607136219275 -0.47165923832682677 112 98 88
0.0872532447359641 0.11755539971770006 -0.4748903938665684 96 77 62
0.08784047647085907 0.11794265841255515 -0.4778596631252231 91 70 49
0.08990940143466043 0.11906279684288418 -0.48042796674592636 94 73 53
0.09117888777372885 0.11978735885807028 -0.48320758112136203 95 74 56
0.0841910534010744 0.11642833265671076 -0.488243501514931 92 72 53
0.08989699013672572 0.11934686250536902 -0.4898095268089849 91 71 52
0.09043004143311523 0.11970722944057993 -0.49279045709867675 90 68 49
0.09080962291125982 0.11999170822223267 -0.49581361530956874 85 61 43
0.0915080238042436 0.1204337813729277 -0.49874723011407834 82 57 39
0.09220649502507183 0.12087585300818883 -0.5016796527831995 83 59 41
0.09283796560114863 0.12128477662720866 -0.5046299498619203 86 62 44
0.09282770489325415 0.12137656308482939 -0.5077628907397893 88 64 45
0.09129040171945792 0.1207138951330955 -0.5113367351760332 94 70 52
0.08917728289834422 0.11976696418306433 -0.5150841357669994 89 66 47
0.089190734897517 0.11987078937978372 -0.5182206738921891 89 65 47
0.0892638458819102 0.12000412084542186 -0.5213409885071788 91 69 48
0.09026615635493745 0.12059638813611415 -0.5241882712962325 92 70 49
0.09074469229772633 0.12092993831132234 -0.5271887302601301 88 66 43
0.09122297452376474 0.12126335115824383 -0.5301888754538889 87 63 41
0.09139954494850566 0.12144779571811769 -0.5332792427305147 92 66 47
0.08961401076136258 0.12066367150700345 -0.5369630653521054 94 68 49
0.08969077966370645 0.1207990057329995 -0.5400886422152911 97 72 52
0.08974024566320057 0.12092089733835718 -0.543223612040019 97 70 50
0.08945893563029877 0.12087959214097713 -0.5464614300436541 99 72 51
0.08925266524912057 0.12087538562628332 -0.5496783704939431 100 73 52
0.08970174311146806 0.12119457338441882 -0.5526935303499468 100 74 53
0.09076029286494669 0.12181441501357114 -0.5555177442071824 102 75 54
0.09078306917639406 0.12192327350251317 -0.5586653727966031 102 75 53
0.09893788911400961 0.1260429414770771 -0.5592411404925227 99 71 49
0.10028993775234937 0.12680695717171223 -0.561953702086131 99 71 49
0.10022819469526553 0.12687373031090213 -0.565115150560075 102 74 52
0.09953225963691242 0.1266278695447803 -0.5684822199843502 105 77 54
0.09895122121275841 0.12643876913605695 -0.5718159291116197 104 76 54
0.0979808732416858 0.12605787251005607 -0.575279721412189 103 74 52
0.09809914229221334 0.12621367436624395 -0.5783921513714058 103 74 52
0.09805237464373306 0.12628817118358765 -0.5815597750932855 103 74 52
0.0986351375876296 0.12667292272746383 -0.5845206628571741 102 72 51
0.09911777285847684 0.12700831700883916 -0.5875140820081564 102 71 50
0.09846932226689709 0.12678646890838663 -0.5908852915695012 102 71 50
0.09827821616206991 0.1267900195423231 -0.5941064188922461 98 68 47
0.09878613349311521 0.12713792883159641 -0.5970933168383835 97 67 45
0.09843704067764644 0.12706375963171612 -0.6003709008607608 97 68 46
0.09963730798480584 0.12775261791979214 -0.6031218591026982 99 72 49
0.09936730634305455 0.12771746483607344 -0.6063746724680922 97 68 46
0.104020950966492 0.13010637206977282 -0.6079302695948259 95 64 42
0.10416295439157608 0.13027390050568988 -0.6110358569126235 88 57 36
0.10431187530221261 0.13044485906813133 -0.6141398494797277 87 56 35
0.10352069402122241 0.13015317250316816 -0.6175742256153784 88 58 36
0.1042382532655638 0.13060405533330294 -0.6204811179298703 92 61 40
0.10044674098791236 0.12883627151626673 -0.6249838763334918 89 59 37
0.09943178898417071 0.12843496677750807 -0.628513191819458 86 55 34
0.09696650120922211 0.1273203612226289 -0.6325664737060713 84 53 32
0.10035400469988348 0.1290848773125976 -0.6345251856200244 89 58 38
0.10106420396006884 0.12953232356438704 -0.6374406569019838 88 57 38
0.10188632199312878 0.130034768480828 -0.6403142417747886 84 55 35
0.1024022572765131 0.13038661249608577 -0.6432979636861954 80 52 31
0.10051155943298638 0.12955523242885952 -0.6471640851309686 74 45 27
0.09966995781556018 0.1292398294409393 -0.6506516163423286 73 44 26
0.09872556120483539 0.12887403545412018 -0.6541816295677431 72 43 27
0.09734528288157202 0.12829416373956418 -0.6578787002997696 73 44 28
0.09832493704859449 0.12887420640081648 -0.6606992070855289 73 44 28
0.09898533535622112 0.1292973099523703 -0.6636375268319341 72 44 27
0.09979415729472832 0.1297933025991409 -0.666518726213049 70 43 26
0.1013503106210091 0.1306563734051152 -0.6691146611986134 69 42 25
0.11423269561022234 0.13708269791311342 -0.667386466978 69 42 25
0.11498409693226563 0.13754961946504932 -0.6702615687127199 69 42 25
0.11147375835843396 0.135923632921208 -0.6747762098147106 69 42 25
0.10993466239558419 0.13526601464363167 -0.6785423800283039 70 43 26
0.11113965013099128 0.13595587301746703 -0.6812489273981508 72 45 28
0.11232227140666132 0.13663465713527242 -0.6839611626505083 70 43 26
0.11336879969665883 0.1372465472891245 -0.6867238241097786 67 40 23
0.11436486566578755 0.13783359402086598 -0.6895039031804744 64 37 20
0.11526013121363154 0.1383711027163147 -0.6923216071507373 64 37 20
0.11605445474045162 0.13885902093096086 -0.695177542903867 65 38 21
0.11681900494898123 0.1393322833013562 -0.6980438213251982 66 39 22
0.11657190207102788 0.13930920984802275 -0.7013147838337881 65 38 21
0.11585177836418838 0.1390541808852013 -0.7047787562850504 66 39 22
0.11513088439521219 0.13879889732082396 -0.7082470215093836 68 41 24
0.11648264658533605 0.13956017715623478 -0.7108758276947122 68 41 24
0.1179214435808025 0.14036402300176407 -0.7134654590885178 68 41 24
0.11794401888727543 0.1404733864375085 -0.7166326727417764 66 39 22
0.11619094417071524 0.13971230399016668 -0.7205334878478195 63 37 21
0.11573494619796144 0.1395872604972705 -0.7239047456017369 59 33 18
0.11542636435602854 0.13953456236395537 -0.7272176884037553 58 30 16
0.11209289594955263 0.13799955186482873 -0.7317973120138612 59 31 17
0.1107874706615552 0.13745871844987323 -0.7355392189278839 61 33 19
0.1132929853501608 0.13888409949852407 -0.7408750254503493 55 32 16
0.12090704871457292 0.1427126437072571 -0.7408327607514497 55 32 16
0.11852745517539306 0.14164566764814912 -0.7450322892304878 55 31 16
0.11611749087933135 0.14056413103047044 -0.7492549508399116 57 29 15
0.12230654398181949 0.14408800601519142 -0.7625302607486858 59 31 17
0.12551150602570543 0.14575517143120562 -0.7643101740667815 59 31 17
0.12685224515032847 0.14650980328468952 -0.7669033225938291 57 30 14
0.13264669803455423 0.14944338085500553 -0.7675168179088283 56 29 12
0.13446153614379797 0.15042947023427278 -0.7698833385643951 56 29 12
0.1359473319452476 0.15125444206242894 -0.7723917188447612 56 28 14
0.13939010985117195 0.15303643792256724 -0.7740168311486119 57 29 17
0.1456534539247255 0.15619744805646632 -0.7743582801143046 57 29 17
0.15136957146293628 0.15909019965997284 -0.7749257734579091 56 28 16
0.1545121565040499 0.16072407603620623 -0.7766438476593914 56 28 16
0.1480162913738201 0.15764571348599116 -0.7827527999800761 57 29 17
0.1505137780562255 0.1589641748186139 -0.7847639006671471 57 29 17
0.14780146226903168 0.15773608791855598 -0.7891653221946945 56 28 15
0.1461737185038675 0.15703837877404236 -0.7930768723964254 56 26 13
0.14964966644831654 0.15883475458181312 -0.7946275133004598 56 27 13
0.15245262334612336 0.16030196310070538 -0.7964801546956252 57 27 14
0.14941048854470468 0.15891343009983866 -0.8010577595047405 57 27 15
0.15065123411673348 0.15961732769619896 -0.8036367605995248 56 26 15
0.15072981651871947 0.1597535146965215 -0.806760417553436 59 29 18
0.15617385476681034 0.16250995801019794 -0.807345581648071 61 32 21
0.16259203532019625 0.16574148400243988 -0.8074489777520388 57 29 17
0.16483343069052067 0.1669330582704272 -0.8095223229948316 58 30 18
0.15044852682041399 0.16000782281410159 -0.8195508942602536 60 32 20
0.15836491640692407 0.1639700020439688 -0.8189129130159908 58 31 20
0.17066300056916267 0.1700698533486687 -0.816132141835122 56 29 18
0.17401115252308047 0.17180071576956663 -0.8176429576965991 56 29 18
0.17571440594899393 0.17272860950319574 -0.8199426211230431 57 30 19
0.17488256628666 0.17241950207765985 -0.8234749203218744 65 37 25
0.17306571237515656 0.17163001052013546 -0.8274943875903438 65 37 23
0.17442308669282047 0.17238907754150032 -0.8299604610176778 56 28 14
0.1771161012477394 0.17379944335179742 -0.8317632706004027 60 32 18
0.18128128537483557 0.17592745610475374 -0.8328276590654632 65 36 20
0.18644892179433628 0.17854382568946403 -0.8333790724907613 67 38 21
0.18980960190840723 0.18027866973499912 -0.8348149154988416 66 37 19
0.1858923743014714 0.1784652926129557 -0.8398877621439206 63 32 14
0.18578015902208558 0.17850707793206802 -0.8430621228348412 64 31 14
0.18313039573098422 0.17731219389521546 -0.8475197460081241 65 31 12
0.18266178897400853 0.17718056136757854 -0.8508830265229058 67 32 13
0.18311830226064513 0.1774997928996318 -0.8537787398629089 69 34 12
0.18927017797180168 0.1805937694705939 -0.8537658362083602 75 35 13
0.1912039252501257 0.1816322644109547 -0.8558930448868804 82 45 19
0.19219264739339864 0.18221027383248456 -0.858500447984211 92 58 31
0.19273442117269807 0.1825705363804911 -0.8613362229675116 96 65 42
0.1928560903279827 0.18272620180407553 -0.864388976075686 97 71 50
0.19298900757774307 0.1828873713237061 -0.8674367634279345 94 65 46
0.1889739290389465 0.18102912607184465 -0.8726502035999751 91 63 42
0.1869749237578859 0.18015279202662388 -0.8768241124040939 87 59 38
0.1833544823007192 0.1784875289148501 -0.881859195633537 85 57 36
0.18412021615066684 0.17895736132969375 -0.8845953923807539 86 57 36
0.1841654461982222 0.17907653874203852 -0.8877115052306226 84 56 35
0.18967233131717032 0.18185315571581856 -0.8879270364820252 84 56 35
0.18223335910504052 0.17833103802238312 -0.8950256616617891 85 54 34
0.1824403781411062 0.17852914377326679 -0.8980625664940154 84 53 33
0.17855151698298574 0.17673510722165578 -0.9032993296182641 83 52 32
0.17767678242898297 0.17640740589987916 -0.9069279982199677 78 45 26
0.17791251211646436 0.17661982841545573 -0.909960876151981 79 46 27
0.17746847160782708 0.1765017570131154 -0.9133630769691725 92 60 39
0.17771850226695846 0.17672120092847204 -0.9163903982586055 98 69 47
0.17774631384935247 0.17683263950615777 -0.9195395573862333 96 68 47
0.17449148686746696 0.17534865314186804 -0.9244897699817746 90 61 41
0.17440062512889937 0.17540268983882892 -0.9277129472205321 84 55 38
0.17434984015560653 0.17547625342453066 -0.9309157134765738 78 49 35
0.17518995722910857 0.17598271492068426 -0.9336265272012783 68 39 27
0.17560216263241346 0.17628124232855713 -0.9365733840331051 56 28 16
0.17600758617724283 0.17657646967346918 -0.9395238341406181 46 19 10
0.18077696975177662 0.1789911780949294 -0.9400319080818874 43 16 8
0.18266399808341693 0.1800056375777875 -0.9421417967339054 43 18 13
0.18271770309759133 0.18012972546890577 -0.9452788371473091 43 18 12
0.18277426287298582 0.1802552354308281 -0.9484154294721396 45 19 10
0.1955549781604263 0.18655765595269183 -0.944335792811282 47 20 11
0.19339777611005643 0.18560796079082956 -0.9487104283276503 58 31 22
0.1889798889183909 0.18356138930935936 -0.9543855120528738 65 40 31
0.18850454487332835 0.18342857136721183 -0.95781999797896 75 53 45
0.18741708333161494 0.18299884643330558 -0.9616095171193181 78 59 52
0.18699041868841565 0.18288987800962717 -0.9650234475512977 79 61 54
0.18648034575578756 0.18274054160425834 -0.9684886357053599 87 70 62
0.18631583879238817 0.18275891866344018 -0.9717565283386987 87 70 62
0.1894324579265941 0.18436861850183534 -0.9731153875120029 87 70 62
0.18943287163227557 0.18446689849832337 -0.9762846623493024 92 74 67
0.1948335960138026 0.18718359428745504 -0.9762894091591527 94 74 67
0.2002929691139776 0.18992812792228045 -0.9762404376297857 99 80 71
0.2060494066027179 0.19281605776458902 -0.975996720270817 102 82 75
0.21247047036374472 0.19602548029041836 -0.9753389586662586 98 78 70
0.21815435438647296 0.1988769342463142 -0.975095832663138 97 77 67
0.22068578414203305 0.2002002026928012 -0.976710542394931 96 76 65
0.22475925941304253 0.2022703371753346 -0.9773952528875581 97 75 64
0.2269233373929727 0.203415038471269 -0.9792106355398043 95 73 61
0.22916353451673377 0.20459639623858972 -0.9809733033189441 94 72 59
0.22934258178675124 0.20477926609760652 -0.9839725222839246 94 71 59
0.23009703856838415 0.20524080706813477 -0.9866240802810369 93 69 57
0.2265819498962127 0.20363496296159084 -0.9918668526882688 96 71 59
0.22798529643461796 0.20441081929659027 -0.9941282188562997 89 58 41
0.23138184030519177 0.20615143175940676 -0.9951675159609127 78 43 22
0.234300288691019 0.20766027159817504 -0.9964882204630023 73 36 13
0.23822158359438253 0.20965415253444564 -0.9971823911867874 71 30 5
0.23979458029454495 0.21051124731901172 -0.9993114209318336 73 31 6
0.24214000569027405 0.211741936006473 -1.0009577969899874 76 35 8
0.2434363752557532 0.21246486491358454 -1.0032476554814864 79 39 11
0.24653448794443666 0.2140592392688137 -1.004412076969025 76 35 9
0.24772459850354384 0.21473044144808312 -1.0067575590202502 73 32 9
0.241712065170977 0.21191826284813686 -1.0136120194073321 71 30 8
0.24310119657880908 0.21268593065928887 -1.0158398303096534 69 28 6
0.2429479744592029 0.21270775873320724 -1.0190358128115529 69 29 6
0.24652262278782625 0.21453182120363873 -1.019876819188372 73 30 6
0.24715574679931898 0.21493364564125647 -1.0225708241260107 77 32 8
0.24703820170207957 0.21497262787019422 -1.0257412355947106 80 35 9
0.247100132189691 0.21509839813346043 -1.0287989400851363 84 41 10
0.24641166982825202 0.21486161748517715 -1.0323379740773913 91 52 20
0.24707415904941035 0.21527765188645764 -1.0350138610576833 99 64 33
0.24779186716545093 0.21572032381048417 -1.0376529912620718 100 67 36
0.24684642774479365 0.21535962708087933 -1.0413646772131553 100 66 38
0.24852417956674963 0.21626596836682685 -1.0433823781219875 100 66 38
0.2497944489666805 0.21697537955410906 -1.0456596524650865 101 67 39
0.2522487202455192 0.21825635833399967 -1.0471619298150963 103 69 41
0.2506721469966513 0.21759109290847667 -1.0512901607438898 105 71 43
0.2503992487899467 0.21755536227454736 -1.0545713930906984 103 69 41
0.2502714833582227 0.21758975542600845 -1.0577596338970936 103 69 41
0.24892953689594455 0.217038247631549 -1.0617502326542718 100 66 38
0.24744423055038692 0.21641776664558135 -1.0658421874010335 96 64 38
0.24324098147639403 0.21448616542633847 -1.0717437373373215 97 65 41
0.2436283537528433 0.21476969754088146 -1.0746096655870268 94 61 38
0.2417588699702272 0.21396461887599888 -1.078980908977679 84 51 30
0.2428036020603485 0.21456531959274333 -1.0814111713191181 72 41 22
0.23080599915945477 0.20887646551329264 -1.092589404832359 60 33 18
0.22981233954395264 0.20849492282170634 -1.0964112443902494 42 19 9
0.23063781988916104 0.20899057665566206 -1.0990107161967404 47 23 13
0.23637491097311558 0.21185383814042283 -1.0982842917682867 53 27 13
0.24064023484131525 0.21400706785159457 -1.0985358387456061 54 26 9
0.23833095724669762 0.21299130184281723 -1.1032472929804493 59 27 8
0.24230479905920288 0.21500352724876304 -1.1036801425579537 66 29 10
0.24291526611225128 0.21539479676241363 -1.1064013400135346 72 34 11
0.24629828909937504 0.21712172264571067 -1.107218122800531 82 40 13
0.249439194284989 0.21873165629972632 -1.108189773756646 88 45 14
0.2498897230424164 0.21904548077517716 -1.1110080307235355 93 51 20
0.24795423829292562 0.2182102561361894 -1.1154779124698495 96 59 28
0.2476027356588193 0.21813801356653184 -1.1188569281904017 98 63 33
0.2475558901119114 0.21821253354794037 -1.1220265666992004 98 62 32
0.2472938192584703 0.2181834943844549 -1.1253480433290155 100 64 32
0.24851873908104982 0.2188702628077475 -1.1276307449079848 105 68 38
0.24795064853496993 0.2186940044514573 -1.1311689908304399 106 70 40
0.24770857919644046 0.21867474189026898 -1.134481286454581 107 72 43
0.2483273185607102 0.21906972800020685 -1.1371881242885609 108 73 44
0.24517903269474275 0.21765241256027415 -1.1425610617928987 100 66 39
0.24426785316171049 0.21731163031773568 -1.1463594143265612 90 59 38
0.2432690796397886 0.21692887177906503 -1.1502250881474387 75 51 32
0.2423048045346224 0.2165628679189699 -1.1540714394850988 67 47 33
0.03654757760013143 0.07152997314041387 0.07840931283348025 182 181 183
0.03868004606978936 0.07270120902798674 0.0753295072240175 181 181 183
0.03924943891237315 0.07308107513855325 0.07232151787261126 181 181 182
0.03997836319514507 0.07354166352773214 0.0693077262289514 181 180 180
0.04127828046850665 0.0742911803184039 0.06627290000796474 181 180 179
0.04343419552147135 0.07547375817846588 0.06320923328559232 179 177 176
0.04646148833182065 0.07709704897099154 0.06012041031012067 176 172 167
0.0473279017414362 0.07762683154263446 0.05711381951895644 159 152 146
0.05577672010780639 0.08199229249580953 0.05386363534485413 104 84 71
0.05793947912381744 0.08317730889941974 0.050833073453811675 84 52 33
0.05987458583377887 0.08424700285877615 0.047815065430545645 77 47 26
0.05390335673122611 0.08131814250079876 0.04501884026005865 78 50 29
0.05126688337840867 0.08007620923830239 0.042115852245521654 81 51 30
0.04912569617569937 0.07908500640169656 0.039191021881336066 81 50 29
0.04865855997870478 0.0789404046571 0.03622034958741675 77 46 26
0.047723251581846204 0.07855921818082266 0.033256659594988684 75 44 24
0.05338920822197149 0.08151488215839325 0.03016238392840303 74 43 25
0.052812840440691775 0.08131503855317015 0.02719474392292061 77 46 27
0.05257971308673123 0.08128875215907022 0.024218562273035302 79 48 29
0.05196930313251262 0.08107188030250746 0.021245748201847964 80 49 31
0.05164366652184971 0.0809989930451265 0.01826614452934024 80 50 31
0.05130957518817354 0.08092190456570172 0.01528434686979883 78 47 29
0.05097511931746665 0.08084470304702146 0.012300237414228235 77 46 28
0.051190283969137954 0.08104519170444172 0.009309669674370066 75 44 26
0.05092427540246327 0.0810026745460156 0.006321433289658095 75 44 27
0.05065787544647216 0.08096002401847147 0.003331105607563169 74 42 26
0.05005502509501586 0.08074754476419124 0.000339541403727113 73 42 26
0.05018248605101768 0.08090390302761255 -0.0026558887715350515 73 43 25
0.04978613179002603 0.08079583466872405 -0.00565251152424307 73 44 26
0.04949859284631427 0.08074277449060337 -0.008651400975199704 75 46 28
0.049314744974069374 0.08074211938221668 -0.011652036623017604 76 47 29
0.04997816529626402 0.08116913831292985 -0.014649618476524703 74 45 27
0.0491786917954667 0.0808578761800734 -0.01765707051544155 75 46 28
0.04810036007396809 0.08040602144229565 -0.02067093718166063 74 45 27
0.047658694717186235 0.08027554353116292 -0.0236827661094113 73 44 26
0.04978256143107468 0.08143945227193493 -0.026665412014278717 73 44 26
0.051675249556838915 0.08248656379974498 -0.02964545269139096 72 43 26
0.0508169053690281 0.08214591234204223 -0.03266375410302572 72 43 27
0.053328360766892034 0.0835049230877037 -0.03562740807851013 73 44 26
0.056676237707463564 0.08537766342655889 -0.04156800267757098 66 42 29
0.043154002041598416 0.07865207807310441 -0.04487273209656478 64 44 37
0.041110172529640665 0.07771462315139566 -0.04794713129873096 147 141 138
0.040484864848369495 0.077492474281249 -0.050993020523934715 176 179 182
0.04226412123461352 0.0784824133076587 -0.053976212417791325 179 179 182
0.04549668182856743 0.0802046495558695 -0.05691234606020099 167 164 164
0.058825271288265736 0.08701431066435407 -0.0595278873230083 92 82 78
0.06443405431587317 0.08993277203594219 -0.06235074057855514 71 53 45
0.06830258499604744 0.0919739025381394 -0.0652154564812429 76 55 48
0.07606789126435838 0.09616087039030427 -0.07388955159333416 94 68 56
0.10997313228602412 0.11350776705489223 -0.08134039149840272 88 62 53
0.12836254516585838 0.12285622694145365 -0.08342511788472368 73 46 39
0.13295679105553015 0.12525809829152806 -0.08610564451866126 72 44 33
0.13527865429869715 0.12651569184966904 -0.08888385069738806 67 40 26
0.1362075709321705 0.12707199210608344 -0.09172639120601561 69 42 30
0.1336182448032627 0.12585763357572446 -0.09475215444484636 80 55 46
0.13143082680082355 0.12484582347170975 -0.09776598530196012 83 58 51
0.14072143851098112 0.12969817450412957 -0.10303099997167331 92 65 52
0.1600670230283934 0.1396064323216074 -0.1076241415344123 99 71 56
0.1705711025861097 0.1449772089005668 -0.10982135668768989 102 73 57
0.17539412028653545 0.1474899271832289 -0.11235032662553394 106 75 59
0.1910942679247419 0.15547172303641973 -0.11414494651883812 114 86 69
0.1960722448277763 0.15806086004005748 -0.11661476339718929 117 90 71
0.1969021819658235 0.15856411277510418 -0.11935719583286292 112 81 60
0.19733841491004203 0.15912754139970128 -0.13053020731113946 77 38 16
0.19876824829793752 0.15993212683399038 -0.1332224284271762 76 40 18
0.1990857719313593 0.16017773839608404 -0.1359995533920615 74 40 20
0.19926032442056704 0.16035152622340876 -0.13878837866245503 72 40 21
0.20178312337317655 0.1617049212174378 -0.14138274350903415 69 39 21
0.20196351092041037 0.16188155156687895 -0.1441681999319753 66 38 22
0.17821561040163478 0.15021552762117837 -0.1547098099570753 67 44 34
0.16537985057333177 0.1443876666535952 -0.1759578753020972 63 46 38
0.16283286688121326 0.14399587138650005 -0.20506777766945042 63 44 37
0.16850159369689768 0.14710286925352548 -0.21304348598969883 63 46 38
0.16457940246242053 0.14522640432291778 -0.2164218106316433 62 44 37
0.15895825117315437 0.14258846999910813 -0.22293535781561283 60 41 35
0.15513583364435407 0.14076320961100486 -0.226340734118321 60 41 35
0.15685099936654787 0.14198004111818607 -0.23776432661622357 60 41 34
0.15780188501340278 0.14254558696891875 -0.24054676387077892 61 42 35
0.156944879515417 0.14220613914344107 -0.243582247396804 62 42 35
0.15385235407275794 0.14074795947402735 -0.2469411845576721 61 42 35
0.14819575857073472 0.1380069832667276 -0.2506826117458336 61 42 33
0.1468600152329796 0.13742873624976815 -0.25381268762668885 61 40 32
0.13929174495067545 0.1337323281124807 -0.2578709698818072 63 40 32
0.1381333747437751 0.13324350424130985 -0.2609968522289267 65 44 36
0.13186769943827273 0.13020002725233337 -0.2649014144512093 64 44 34
0.1349085850097376 0.13181215381689704 -0.26740333604482525 64 44 33
0.1313457333130923 0.13012132609775368 -0.27091886403329596 65 45 33
0.13955340355772156 0.13431697838352286 -0.2726044250432234 67 45 33
0.13464105541906327 0.13195158847421085 -0.27634036653874655 68 46 33
0.1306156501619153 0.13003019520461015 -0.27995252298727796 68 46 33
0.1291252229644446 0.12937652552858636 -0.2831696547500423 68 46 35
0.13499838393569968 0.13240378583116508 -0.285189005717544 68 46 35
0.13398770164939072 0.13198989506918427 -0.28832688834263515 67 45 34
0.13134447896814963 0.1307602877217583 -0.2917421110992698 60 38 27
0.12209767539649181 0.12623121215242925 -0.29628186529349443 61 38 30
0.12091202665160133 0.12573086099780686 -0.2994808403881811 71 48 39
0.12684009080921851 0.1287846154653846 -0.3014602994930877 69 47 35
0.12846666569084395 0.12968902392830148 -0.30416855160361683 70 48 37
0.1349852822610897 0.13303679244945285 -0.3060131142758677 73 52 44
0.1357623716215904 0.13351641078281276 -0.3088547583025155 81 59 51
