ply
format ascii 1.0
element vertex 848
property float x
property float y
property float z
property float nx
property float ny
property float nz
property uchar diffuse_red
property uchar diffuse_green
property uchar diffuse_blue
property uchar class
property uchar detection
end_header
-0.0620 -0.0090 -0.9891 -0.273 -0.961 -0.041 81 55 40 0 0
-0.0843 -0.0140 -1.1116 -0.541 -0.767 -0.345 67 48 42 0 0
-0.1042 -0.0150 -1.1170 -0.692 -0.721 -0.038 93 71 56 0 0
-0.1065 -0.0152 -1.1190 -0.764 -0.635 -0.120 95 73 59 0 0
0.0061 0.0300 -0.0207 -0.718 0.669 0.190 181 181 183 0 0
0.0214 0.0022 -0.8584 -0.264 0.887 0.378 214 213 213 0 0
0.0141 0.0017 -0.8622 -0.241 0.854 0.461 216 215 216 0 0
0.0103 0.0015 -0.8640 -0.214 0.837 0.504 218 218 220 0 0
0.0243 -0.0015 -0.9696 -0.170 0.171 0.970 84 64 53 0 0
-0.0096 -0.0032 -0.9776 -0.049 -0.854 0.519 82 56 43 0 0
-0.0227 -0.0040 -0.9850 -0.267 -0.776 0.571 81 55 40 0 0
-0.0268 -0.0042 -0.9864 -0.272 -0.781 0.563 81 55 40 0 0
-0.0552 -0.0055 -0.9894 -0.507 -0.683 -0.526 81 53 41 0 0
-0.0882 -0.0110 -1.1096 -0.546 -0.757 -0.358 64 45 39 0 0
-0.1034 -0.0119 -1.1177 -0.763 -0.615 -0.197 95 72 55 0 0
-0.1027 -0.0120 -1.1215 -0.726 -0.332 0.602 95 76 60 0 0
-0.1042 -0.0122 -1.1240 -0.598 -0.398 0.696 96 74 60 0 0
-0.1073 -0.0124 -1.1255 -0.836 0.031 0.547 96 74 60 0 0
-0.1035 -0.0126 -1.1377 -0.802 -0.569 -0.180 95 76 62 0 0
0.0376 0.0061 -0.8585 -0.554 0.587 0.591 157 149 145 0 0
0.0372 0.0060 -0.8617 -0.257 -0.897 0.360 158 149 145 0 0
0.0346 0.0058 -0.8641 -0.269 -0.912 0.309 162 153 150 0 0
-0.0464 -0.0019 -0.9873 -0.562 0.389 -0.730 83 57 42 0 0
-0.0628 -0.0026 -0.9859 -0.497 -0.714 -0.493 83 55 43 0 0
0.0147 0.0376 0.0122 -0.957 0.278 -0.084 136 128 123 0 0
0.0149 0.0375 0.0092 -0.957 0.278 -0.084 129 122 117 0 0
0.0148 0.0368 -0.0118 -0.639 0.742 0.201 176 171 169 0 0
0.0129 0.0365 -0.0178 -0.718 0.669 0.190 182 182 184 0 0
0.0120 0.0363 -0.0208 -0.742 0.632 0.225 182 182 184 0 0
0.0354 0.0093 -0.8578 -0.365 -0.781 0.508 120 102 91 0 0
0.0328 0.0091 -0.8602 -0.389 -0.806 0.447 124 103 92 0 0
0.0304 0.0089 -0.8626 -0.389 -0.806 0.447 129 108 97 0 0
0.0280 0.0087 -0.8650 -0.411 -0.787 0.459 132 112 101 0 0
-0.0668 0.0004 -0.9842 -0.865 0.497 -0.065 84 56 44 0 0
-0.1148 -0.0037 -1.0422 -0.944 -0.306 0.122 97 79 66 0 0
-0.1065 -0.0055 -1.1065 -0.512 -0.772 -0.377 65 49 41 0 0
0.0073 0.0409 0.0300 -0.500 0.747 -0.439 180 180 179 0 0
0.0149 0.0395 -0.0209 -0.725 0.644 0.243 178 175 175 0 0
-0.0039 0.0330 -0.1904 -0.184 -0.895 -0.407 101 90 86 0 0
0.0679 0.0294 -0.3993 -0.414 0.802 -0.430 146 142 142 0 0
-0.0217 0.0246 -0.4174 -0.767 -0.484 -0.421 99 71 55 0 0
0.0691 0.0146 -0.8440 -0.438 -0.001 0.899 144 136 132 0 0
0.0642 0.0143 -0.8455 -0.440 0.121 0.890 125 112 106 0 0
0.0341 0.0126 -0.8541 -0.385 -0.711 0.588 107 83 70 0 0
0.0238 0.0118 -0.8635 -0.459 -0.723 0.517 118 91 72 0 0
-0.0534 0.0043 -0.9810 -0.604 -0.285 0.744 85 59 44 0 0
-0.0539 0.0041 -0.9874 -0.774 0.402 -0.489 83 57 43 0 0
-0.1171 -0.0007 -1.0413 -0.808 -0.542 0.231 94 75 61 0 0
-0.1113 -0.0012 -1.0642 -0.872 -0.474 -0.122 89 70 58 0 0
-0.0981 -0.0021 -1.1116 -0.737 -0.676 -0.025 63 47 40 0 0
0.0148 0.0442 0.0301 -0.290 -0.845 0.449 143 136 132 0 0
0.0189 0.0427 -0.0210 -0.645 0.715 0.271 122 114 112 0 0
0.0720 0.0329 -0.3969 -0.409 0.791 -0.455 171 167 170 0 0
-0.0081 0.0286 -0.4076 -0.208 -0.864 0.459 96 71 59 0 0
-0.0011 0.0275 -0.4534 -0.368 -0.799 -0.476 181 181 182 0 0
-0.0561 0.0073 -0.9833 -0.996 -0.071 0.062 84 58 43 0 0
-0.0663 0.0066 -0.9882 -0.814 -0.013 0.581 84 58 45 0 0
-0.1076 0.0018 -1.0732 -0.659 -0.653 0.373 88 70 60 0 0
-0.1191 0.0013 -1.0701 -0.851 -0.438 -0.290 85 68 59 0 0
-0.1069 0.0008 -1.1035 -0.853 0.022 -0.521 64 47 40 0 0
-0.1615 -0.0036 -1.1573 -0.107 0.080 0.991 196 196 198 0 0
0.0160 0.0474 0.0331 -0.549 -0.659 0.514 129 117 114 0 0
-0.0208 0.0447 0.0056 -0.300 -0.954 -0.012 108 80 66 0 0
-0.0205 0.0446 0.0027 -0.300 -0.954 -0.012 107 81 64 0 0
-0.0161 0.0447 -0.0002 -0.334 -0.942 -0.027 107 81 65 0 0
0.0384 0.0397 -0.2350 -0.575 -0.754 -0.318 180 180 180 0 0
0.0954 0.0373 -0.3947 -0.394 0.330 0.858 180 180 182 0 0
0.0007 0.0322 -0.4063 -0.167 -0.686 0.708 91 70 61 0 0
-0.0085 0.0309 -0.4330 -0.549 -0.684 0.481 97 65 44 0 0
-0.0094 0.0307 -0.4359 -0.517 -0.724 0.457 95 65 44 0 0
-0.0287 0.0298 -0.4351 -0.510 -0.828 -0.234 95 69 50 0 0
0.0006 0.0177 -0.8476 -0.130 -0.843 0.521 99 71 53 0 0
0.0028 0.0177 -0.8519 -0.220 -0.767 0.603 102 72 51 0 0
-0.0026 0.0174 -0.8531 -0.232 -0.811 0.537 105 74 51 0 0
-0.0493 0.0109 -0.9801 -0.437 0.479 0.761 82 56 41 0 0
-0.0522 0.0107 -0.9821 -0.424 0.336 0.841 83 57 42 0 0
-0.0568 0.0104 -0.9832 -0.976 -0.209 0.068 83 57 42 0 0
-0.0570 0.0103 -0.9864 -0.976 -0.209 0.068 84 58 44 0 0
-0.0628 0.0099 -0.9903 -0.636 -0.372 0.676 85 59 46 0 0
-0.0656 0.0096 -0.9922 -0.952 0.274 0.141 84 60 47 0 0
-0.1096 0.0048 -1.0724 -0.770 -0.575 0.277 87 68 57 0 0
-0.1230 0.0043 -1.0683 -0.804 -0.550 -0.225 86 69 58 0 0
-0.1219 0.0041 -1.0755 -0.902 -0.317 0.293 69 54 46 0 0
-0.1229 0.0040 -1.0782 -0.908 -0.372 -0.192 58 43 36 0 0
-0.0324 0.0469 -0.0004 -0.239 -0.959 -0.155 96 69 51 0 0
-0.0357 0.0433 -0.1070 -0.358 0.278 0.891 101 82 76 0 0
-0.0394 0.0430 -0.1098 -0.371 -0.474 0.799 102 83 77 0 0
-0.0696 0.0398 -0.1584 -0.878 0.371 0.304 75 62 54 0 0
0.0377 0.0426 -0.2413 -0.609 -0.719 -0.334 179 179 181 0 0
-0.0253 0.0341 -0.4046 -0.194 -0.884 0.426 92 68 55 0 0
-0.0135 0.0337 -0.4353 -0.503 -0.757 0.417 90 59 37 0 0
0.0140 0.0220 -0.8364 -0.159 -0.771 0.616 94 67 55 0 0
0.0080 0.0216 -0.8374 -0.178 -0.754 0.632 94 66 53 0 0
0.0036 0.0213 -0.8390 -0.178 -0.754 0.632 93 64 49 0 0
-0.0371 0.0149 -0.9729 -0.200 -0.828 0.524 80 54 39 0 0
-0.1233 0.0074 -1.0684 -0.773 -0.625 -0.109 85 67 55 0 0
0.0201 0.0540 0.0421 -0.720 -0.427 0.547 143 138 133 0 0
0.0179 0.0538 0.0390 -0.696 -0.472 0.540 125 112 105 0 0
-0.0265 0.0468 -0.1045 -0.268 -0.474 0.838 102 85 77 0 0
0.0373 0.0455 -0.2477 -0.612 -0.734 -0.296 179 180 184 0 0
0.0389 0.0455 -0.2510 -0.612 -0.734 -0.296 181 178 181 0 0
-0.0235 0.0358 -0.4491 -0.399 -0.833 -0.385 131 125 122 0 0
-0.0025 0.0244 -0.8334 -0.658 -0.498 0.565 91 63 49 0 0
-0.0198 0.0230 -0.8498 -0.207 -0.926 0.315 103 68 45 0 0
-0.0213 0.0228 -0.8525 -0.311 -0.925 0.219 104 70 45 0 0
-0.0194 0.0228 -0.8566 -0.384 -0.916 0.113 108 72 46 0 0
-0.0490 0.0174 -0.9741 -0.221 -0.796 0.563 83 57 40 0 0
-0.0530 0.0170 -0.9789 -0.334 -0.664 0.669 83 57 42 0 0
-0.1278 0.0111 -1.0399 -0.792 -0.608 0.052 90 68 52 0 0
-0.1240 0.0102 -1.0748 -0.989 0.138 -0.055 77 62 54 0 0
-0.1320 0.0081 -1.1265 -0.883 -0.435 0.175 91 70 52 0 0
-0.1286 0.0081 -1.1318 -0.857 -0.437 -0.275 89 68 50 0 0
-0.1287 0.0080 -1.1350 -0.819 -0.504 -0.274 89 68 51 0 0
0.0290 0.0579 0.0513 -0.709 -0.184 0.681 182 182 182 0 0
0.0225 0.0573 0.0451 -0.803 -0.206 0.559 149 145 142 0 0
-0.0003 0.0513 -0.1026 -0.233 -0.409 0.882 101 83 75 0 0
-0.0098 0.0413 -0.3984 -0.307 -0.313 0.899 95 79 74 0 0
-0.0343 0.0398 -0.4031 -0.335 -0.659 0.673 92 69 58 0 0
-0.0338 0.0385 -0.4439 -0.402 -0.824 -0.400 100 84 74 0 0
-0.0273 0.0386 -0.4516 -0.440 -0.852 -0.284 165 164 163 0 0
0.0353 0.0295 -0.8386 -0.518 -0.854 0.034 90 65 48 0 0
-0.0227 0.0257 -0.8588 -0.572 -0.718 0.396 107 71 45 0 0
-0.0424 0.0246 -0.8605 -0.538 -0.796 -0.278 111 81 59 0 0
-0.0330 0.0216 -0.9686 -0.127 0.303 0.945 84 58 42 0 0
-0.0464 0.0207 -0.9756 -0.643 0.758 0.107 84 58 43 0 0
-0.0733 0.0192 -0.9758 -0.632 -0.648 -0.425 87 64 51 0 0
-0.0700 0.0192 -0.9808 -0.632 -0.648 -0.425 87 65 53 0 0
-0.0679 0.0192 -0.9852 -0.699 -0.666 -0.258 87 65 52 0 0
-0.1276 0.0146 -1.0272 -0.959 -0.146 0.244 81 51 30 0 0
-0.1278 0.0145 -1.0304 -0.976 -0.207 0.073 81 52 30 0 0
-0.1284 0.0144 -1.0333 -0.955 -0.176 0.238 85 58 36 0 0
-0.1283 0.0143 -1.0366 -0.814 -0.486 0.317 88 63 41 0 0
-0.1290 0.0141 -1.0395 -0.802 -0.474 0.365 88 66 47 0 0
-0.1245 0.0133 -1.0716 -0.947 -0.307 -0.091 82 65 53 0 0
-0.1250 0.0132 -1.0746 -0.976 -0.173 -0.131 76 62 52 0 0
-0.1210 0.0128 -1.0934 -0.995 0.016 0.099 68 51 44 0 0
-0.1214 0.0127 -1.0964 -0.979 0.007 0.204 64 47 40 0 0
-0.1280 0.0109 -1.1424 -0.842 -0.372 -0.391 89 68 51 0 0
-0.1287 0.0107 -1.1453 -0.794 -0.581 -0.179 89 69 53 0 0
-0.0487 0.0490 -0.1871 -0.528 -0.712 -0.463 72 59 54 0 0
0.0285 0.0497 -0.2974 -0.950 -0.197 -0.244 180 180 182 0 0
-0.0317 0.0431 -0.4006 -0.352 -0.617 0.704 91 70 61 0 0
-0.0369 0.0427 -0.4027 -0.301 -0.539 0.786 93 70 58 0 0
-0.0372 0.0419 -0.4276 -0.168 -0.982 0.085 83 55 35 0 0
-0.0336 0.0414 -0.4503 -0.433 -0.848 -0.306 146 142 139 0 0
-0.0305 0.0414 -0.4541 -0.418 -0.828 -0.374 183 183 183 0 0
-0.0331 0.0283 -0.8580 -0.786 -0.085 0.612 104 69 41 0 0
-0.0358 0.0281 -0.8602 -0.766 -0.643 0.013 107 73 47 0 0
-0.0032 0.0281 -0.9181 -0.216 -0.885 0.412 109 98 93 0 0
-0.0060 0.0279 -0.9203 -0.218 -0.877 0.429 117 104 99 0 0
-0.0777 0.0219 -0.9806 -0.736 -0.421 -0.530 89 69 58 0 0
0.0192 0.0580 -0.1190 -0.284 0.925 -0.252 92 71 61 0 0
-0.0207 0.0526 -0.2171 -0.493 -0.744 -0.451 78 64 60 0 0
-0.0172 0.0527 -0.2205 -0.459 -0.787 -0.412 79 65 61 0 0
-0.0347 0.0460 -0.4002 -0.454 -0.400 0.796 89 70 59 0 0
-0.0396 0.0456 -0.4023 -0.606 -0.182 0.775 93 72 60 0 0
0.0260 0.0363 -0.8150 -0.106 -0.774 0.625 101 73 59 0 0
0.0264 0.0346 -0.8697 -0.599 0.763 -0.244 95 64 43 0 0
0.0112 0.0336 -0.8736 -0.184 0.695 0.695 100 66 42 0 0
-0.0316 0.0306 -0.8889 -0.456 -0.746 -0.485 105 90 85 0 0
-0.0078 0.0311 -0.9163 -0.198 -0.914 0.355 99 85 79 0 0
-0.1352 0.0180 -1.0990 -0.699 -0.622 0.352 61 42 35 0 0
-0.0468 0.0608 -0.0067 -0.402 -0.847 -0.348 66 43 29 0 0
-0.0421 0.0546 -0.2090 -0.356 -0.805 -0.474 75 61 55 0 0
-0.0309 0.0551 -0.2162 -0.405 -0.774 -0.486 77 62 57 0 0
-0.0223 0.0555 -0.2201 -0.493 -0.744 -0.451 77 62 57 0 0
-0.0193 0.0555 -0.2234 -0.493 -0.744 -0.451 78 63 56 0 0
-0.0154 0.0556 -0.2269 -0.490 -0.781 -0.386 78 63 56 0 0
0.0307 0.0569 -0.2726 -0.784 -0.571 -0.242 122 113 112 0 0
0.0091 0.0384 -0.8187 -0.100 -0.862 0.497 89 60 46 0 0
0.0348 0.0382 -0.8734 -0.023 0.041 0.999 96 66 45 0 0
-0.0397 0.0334 -0.8856 -0.456 -0.746 -0.485 104 87 79 0 0
-0.0455 0.0302 -0.9768 -0.173 -0.667 0.725 85 61 49 0 0
-0.0841 0.0279 -0.9779 -0.411 -0.905 -0.107 93 73 62 0 0
-0.0837 0.0278 -0.9815 -0.482 -0.876 -0.001 91 71 60 0 0
-0.1316 0.0232 -1.0389 -0.707 -0.639 0.303 85 59 41 0 0
-0.1341 0.0189 -1.1695 -0.767 -0.565 0.304 181 180 179 0 0
0.0076 0.0647 -0.0790 -0.336 -0.703 0.627 83 66 58 0 0
-0.0765 0.0570 -0.1643 -0.573 -0.522 -0.632 62 51 47 0 0
-0.0719 0.0572 -0.1676 -0.694 -0.527 -0.491 62 51 47 0 0
-0.0419 0.0576 -0.2121 -0.379 -0.791 -0.480 73 58 53 0 0
-0.0378 0.0577 -0.2156 -0.379 -0.791 -0.480 74 59 54 0 0
-0.0263 0.0582 -0.2228 -0.398 -0.833 -0.385 74 59 52 0 0
-0.0226 0.0583 -0.2262 -0.421 -0.844 -0.332 74 59 52 0 0
0.0141 0.0552 -0.3939 -0.661 0.075 0.746 89 74 70 0 0
-0.0369 0.0520 -0.4000 -0.645 0.463 0.608 86 68 59 0 0
0.0078 0.0404 -0.8556 -0.996 -0.055 -0.070 93 66 47 0 0
-0.0441 0.0364 -0.8840 -0.515 -0.621 -0.592 100 82 75 0 0
-0.0106 0.0354 -0.9803 0.042 -0.509 0.860 87 65 53 0 0
-0.1371 0.0255 -1.0526 -0.862 -0.200 -0.465 84 65 50 0 0
-0.1408 0.0236 -1.1063 -0.978 -0.118 0.174 66 42 30 0 0
-0.1379 0.0235 -1.1145 -0.933 -0.207 0.295 80 52 28 0 0
-0.1366 0.0219 -1.1683 -0.745 -0.642 0.179 177 176 177 0 0
-0.0481 0.0669 0.0019 -0.319 -0.855 0.409 85 60 39 0 0
0.0234 0.0691 -0.0673 -0.300 -0.442 0.845 60 55 53 0 0
0.0012 0.0674 -0.0788 -0.351 -0.467 0.811 81 63 53 0 0
-0.0107 0.0664 -0.0875 -0.460 -0.844 0.276 75 54 43 0 0
-0.0115 0.0662 -0.0905 -0.556 -0.797 0.237 74 52 41 0 0
-0.0154 0.0659 -0.0934 -0.476 -0.640 0.603 72 53 43 0 0
-0.0587 0.0602 -0.1926 -0.762 -0.394 -0.514 64 53 47 0 0
-0.0450 0.0603 -0.2149 -0.325 -0.850 -0.415 70 55 50 0 0
-0.0415 0.0604 -0.2183 -0.365 -0.854 -0.370 71 56 51 0 0
0.0078 0.0600 -0.3296 -0.337 -0.938 -0.079 101 79 66 0 0
-0.0346 0.0552 -0.4006 -0.604 0.598 0.527 82 63 56 0 0
-0.0380 0.0549 -0.4031 -0.563 0.517 0.645 83 63 54 0 0
-0.0524 0.0525 -0.4499 -0.458 -0.795 0.398 132 128 127 0 0
0.0204 0.0463 -0.7965 -0.156 -0.847 0.508 98 71 58 0 0
0.0135 0.0456 -0.8040 -0.275 -0.722 0.635 92 65 48 0 0
0.0101 0.0440 -0.8500 -0.986 -0.129 -0.109 93 65 51 0 0
0.0351 0.0450 -0.8672 -0.507 0.577 -0.640 98 70 54 0 0
0.0398 0.0451 -0.8725 -0.559 0.652 -0.513 100 73 58 0 0
-0.0582 0.0388 -0.8813 -0.426 -0.719 -0.549 94 77 68 0 0
-0.0471 0.0365 -0.9766 -0.299 0.040 0.954 86 64 53 0 0
-0.1461 0.0279 -1.0577 -0.974 -0.033 -0.225 83 64 50 0 0
-0.1446 0.0278 -1.0618 -0.817 -0.491 -0.303 82 63 49 0 0
-0.1436 0.0278 -1.0656 -0.827 -0.309 -0.471 82 62 50 0 0
-0.1340 0.0279 -1.0808 -0.939 -0.190 -0.286 63 48 40 0 0
-0.1315 0.0279 -1.0855 -0.869 -0.216 0.445 52 37 30 0 0
-0.1367 0.0273 -1.0958 -0.968 -0.142 0.209 63 45 35 0 0
-0.1373 0.0271 -1.0987 -0.968 -0.142 0.209 64 46 36 0 0
-0.1466 0.0260 -1.1164 -0.931 -0.320 0.177 90 64 38 0 0
-0.1485 0.0258 -1.1185 -0.857 -0.461 0.231 91 68 44 0 0
-0.1388 0.0250 -1.1640 -0.751 -0.660 0.024 154 153 148 0 0
-0.0515 0.0697 0.0047 -0.274 -0.889 0.367 90 66 48 0 0
-0.0110 0.0690 -0.0997 -0.951 -0.281 -0.129 69 48 43 0 0
-0.0597 0.0631 -0.1926 -0.807 -0.303 -0.507 63 52 48 0 0
-0.0590 0.0630 -0.1957 -0.812 -0.325 -0.485 63 52 48 0 0
-0.0513 0.0630 -0.2114 -0.675 -0.433 -0.597 65 52 46 0 0
-0.0482 0.0631 -0.2147 -0.545 -0.621 -0.563 67 54 48 0 0
-0.0448 0.0632 -0.2181 -0.545 -0.621 -0.563 66 53 47 0 0
-0.0249 0.0641 -0.2323 -0.397 -0.776 -0.490 69 53 46 0 0
-0.0356 0.0633 -0.2342 -0.213 -0.948 -0.238 71 54 47 0 0
0.0364 0.0637 -0.3693 -0.726 0.688 0.014 134 129 126 0 0
-0.0314 0.0584 -0.4014 -0.572 0.586 0.573 78 59 52 0 0
0.0183 0.0495 -0.7925 -0.210 -0.860 0.465 94 66 52 0 0
0.0170 0.0490 -0.8056 -0.824 0.560 0.083 90 62 47 0 0
-0.0591 0.0420 -0.8778 -0.560 -0.510 -0.653 91 71 63 0 0
-0.0679 0.0414 -0.8773 -0.426 -0.719 -0.549 90 73 63 0 0
0.0030 0.0424 -0.9908 0.080 -0.831 0.550 90 72 62 0 0
-0.1402 0.0319 -1.0383 -0.952 -0.257 0.165 91 69 48 0 0
-0.1507 0.0309 -1.0489 -0.929 -0.322 0.181 84 65 50 0 0
-0.1496 0.0308 -1.0527 -0.805 -0.566 0.178 83 64 50 0 0
-0.1471 0.0308 -1.0574 -0.778 -0.108 0.619 83 63 51 0 0
-0.1394 0.0311 -1.0650 -0.728 -0.620 0.291 82 62 51 0 0
-0.1431 0.0308 -1.0662 -0.701 -0.713 0.015 81 62 50 0 0
-0.1477 0.0290 -1.1160 -0.946 -0.288 0.148 91 64 40 0 0
-0.1476 0.0289 -1.1193 -0.899 -0.411 -0.148 92 69 45 0 0
-0.1472 0.0288 -1.1228 -0.985 -0.160 -0.071 91 69 47 0 0
-0.1447 0.0286 -1.1342 -0.889 -0.410 -0.205 90 68 47 0 0
-0.1450 0.0276 -1.1671 -0.704 -0.697 0.135 181 181 183 0 0
-0.0476 0.0732 0.0135 -0.382 -0.864 0.329 97 74 58 0 0
-0.0517 0.0728 0.0105 -0.318 -0.878 0.358 92 68 49 0 0
-0.0582 0.0722 0.0046 -0.269 -0.926 0.264 80 50 33 0 0
-0.0636 0.0718 0.0016 -0.260 -0.895 0.364 68 39 19 0 0
-0.0656 0.0711 -0.0158 -0.547 -0.837 -0.031 58 36 23 0 0
-0.0627 0.0712 -0.0187 -0.495 -0.374 0.784 55 35 23 0 0
-0.0638 0.0710 -0.0216 -0.570 -0.328 0.753 57 39 28 0 0
0.0227 0.0753 -0.0644 -0.350 -0.399 0.847 56 52 52 0 0
-0.0019 0.0734 -0.0759 -0.347 -0.588 0.731 75 57 51 0 0
-0.0396 0.0699 -0.1105 -0.090 -0.917 0.389 79 61 54 0 0
-0.0581 0.0659 -0.2019 -0.524 -0.457 -0.719 62 51 45 0 0
-0.0501 0.0661 -0.2116 -0.841 0.030 -0.540 63 50 44 0 0
-0.0514 0.0659 -0.2145 -0.584 -0.597 -0.549 64 51 45 0 0
-0.0012 0.0666 -0.3003 -0.440 -0.619 0.651 85 65 54 0 0
-0.0059 0.0662 -0.3027 -0.384 -0.557 0.736 82 60 48 0 0
-0.0746 0.0574 -0.4423 -0.518 -0.598 -0.612 87 75 67 0 0
0.0131 0.0525 -0.7874 -0.259 -0.815 0.519 93 64 49 0 0
-0.1478 0.0340 -1.0540 -0.741 -0.594 -0.312 83 64 50 0 0
-0.1330 0.0342 -1.0786 -0.892 -0.343 -0.294 76 60 49 0 0
-0.1319 0.0339 -1.0891 -0.979 0.072 -0.190 50 33 25 0 0
-0.1502 0.0318 -1.1181 -0.948 -0.282 -0.150 92 67 45 0 0
-0.0478 0.0765 0.0251 -0.366 -0.897 0.248 104 79 62 0 0
-0.0568 0.0754 0.0104 -0.338 -0.878 0.339 79 51 27 0 0
-0.0668 0.0745 0.0016 -0.198 -0.943 0.268 70 41 20 0 0
-0.0614 0.0743 -0.0158 -0.649 -0.741 -0.175 57 34 20 0 0
-0.0622 0.0742 -0.0187 -0.919 -0.339 0.201 58 36 22 0 0
-0.0622 0.0741 -0.0216 -0.890 -0.185 0.417 57 38 25 0 0
0.0279 0.0788 -0.0615 -0.912 -0.156 0.379 88 86 86 0 0
0.0185 0.0781 -0.0643 -0.365 -0.376 0.851 51 46 44 0 0
0.0019 0.0768 -0.0730 -0.398 -0.662 0.636 55 42 38 0 0
-0.0023 0.0764 -0.0759 -0.390 -0.428 0.815 72 54 49 0 0
-0.0702 0.0681 -0.2008 -0.362 -0.758 -0.543 62 52 43 0 0
-0.0638 0.0684 -0.2044 -0.451 -0.725 -0.521 61 51 42 0 0
-0.0114 0.0691 -0.2959 -0.636 -0.772 0.019 70 48 37 0 0
-0.0045 0.0694 -0.2999 -0.308 -0.662 0.683 76 55 44 0 0
-0.0043 0.0668 -0.3879 -0.364 -0.910 0.198 82 62 54 0 0
-0.0325 0.0647 -0.3952 -0.237 -0.085 0.968 82 64 54 0 0
-0.1426 0.0378 -1.0376 -0.962 -0.251 0.105 86 60 40 0 0
-0.1521 0.0368 -1.0519 -0.935 -0.200 -0.292 83 64 50 0 0
-0.1509 0.0367 -1.0558 -0.935 -0.200 -0.292 82 63 51 0 0
-0.1419 0.0370 -1.0674 -0.977 -0.165 0.134 79 61 48 0 0
-0.1375 0.0367 -1.0863 -0.798 -0.058 0.599 49 32 24 0 0
-0.1473 0.0354 -1.1069 -0.466 -0.466 0.752 67 38 25 0 0
-0.1483 0.0337 -1.1624 -0.768 -0.474 0.430 153 153 148 0 0
-0.1498 0.0334 -1.1681 -0.716 -0.689 0.115 183 183 182 0 0
-0.0512 0.0794 0.0307 -0.381 -0.827 0.414 110 86 72 0 0
-0.0525 0.0792 0.0278 -0.411 -0.816 0.407 106 85 66 0 0
-0.0528 0.0791 0.0249 -0.562 -0.825 0.069 100 75 56 0 0
-0.0544 0.0788 0.0191 -0.490 -0.847 0.208 83 52 29 0 0
-0.0559 0.0786 0.0161 -0.468 -0.836 0.286 78 46 22 0 0
-0.0573 0.0784 0.0132 -0.468 -0.836 0.286 81 47 21 0 0
-0.0612 0.0781 0.0102 -0.447 -0.848 0.287 78 46 20 0 0
-0.0592 0.0781 0.0074 -0.412 -0.910 0.053 73 41 17 0 0
-0.0608 0.0779 0.0045 -0.427 -0.901 -0.070 69 38 17 0 0
-0.0640 0.0776 0.0015 -0.606 -0.771 -0.196 65 37 16 0 0
0.0361 0.0827 -0.0556 -0.991 -0.105 -0.082 176 176 178 0 0
0.0301 0.0822 -0.0585 -0.973 -0.067 0.219 112 111 111 0 0
0.0267 0.0819 -0.0615 -0.893 -0.234 0.385 55 52 51 0 0
-0.0008 0.0796 -0.0730 -0.345 -0.774 0.531 46 34 32 0 0
-0.0331 0.0766 -0.1020 -0.498 -0.834 0.237 68 47 39 0 0
-0.0239 0.0771 -0.1054 -0.282 -0.837 0.469 71 48 40 0 0
-0.0772 0.0713 -0.1795 -0.810 -0.535 -0.239 58 46 40 0 0
-0.0775 0.0711 -0.1854 -0.789 -0.601 0.129 59 47 42 0 0
-0.0333 0.0720 -0.2531 -0.626 -0.593 -0.506 67 50 40 0 0
-0.0307 0.0721 -0.2565 -0.626 -0.593 -0.506 69 51 39 0 0
-0.0173 0.0718 -0.2952 -0.386 -0.908 0.161 68 46 36 0 0
-0.0082 0.0696 -0.3873 -0.332 -0.943 0.001 82 60 49 0 0
-0.0092 0.0695 -0.3903 -0.395 -0.909 -0.133 78 56 48 0 0
-0.0268 0.0682 -0.3933 -0.431 -0.093 0.898 79 58 49 0 0
-0.1527 0.0399 -1.0486 -0.969 -0.045 0.242 84 63 49 0 0
-0.1516 0.0395 -1.0622 -0.966 -0.111 -0.232 79 60 46 0 0
-0.1377 0.0400 -1.0799 -0.669 -0.721 0.180 72 55 45 0 0
-0.1367 0.0395 -1.0969 -0.927 -0.125 0.353 64 43 32 0 0
0.0249 0.0892 0.0837 -0.884 -0.405 0.235 110 87 73 0 0
0.0243 0.0890 0.0806 -0.942 -0.322 0.090 103 79 65 0 0
0.0099 0.0877 0.0680 -0.328 -0.944 0.031 93 69 54 0 0
-0.0569 0.0819 0.0306 -0.344 -0.797 0.496 115 94 78 0 0
-0.0560 0.0818 0.0248 -0.667 -0.737 0.106 93 64 42 0 0
-0.0563 0.0817 0.0219 -0.667 -0.737 0.106 79 45 24 0 0
-0.0589 0.0814 0.0189 -0.641 -0.759 0.116 70 40 17 0 0
-0.0621 0.0810 0.0131 -0.608 -0.765 0.212 69 38 17 0 0
0.0316 0.0855 -0.0556 -0.980 -0.190 -0.055 90 88 90 0 0
0.0269 0.0850 -0.0586 -0.905 -0.392 0.167 56 52 52 0 0
0.0025 0.0831 -0.0671 -0.297 -0.511 0.806 27 20 20 0 0
-0.0077 0.0823 -0.0699 -0.266 -0.583 0.767 28 20 21 0 0
-0.0067 0.0823 -0.0730 -0.345 -0.774 0.531 35 27 25 0 0
-0.0191 0.0814 -0.0756 -0.224 -0.620 0.752 62 47 43 0 0
-0.0791 0.0741 -0.1795 -0.971 0.232 -0.064 58 45 39 0 0
-0.0804 0.0739 -0.1823 -0.978 -0.158 0.139 59 46 40 0 0
-0.0741 0.0740 -0.1947 -0.410 -0.882 -0.232 61 48 42 0 0
-0.0604 0.0743 -0.2139 -0.595 -0.567 -0.569 62 47 42 0 0
-0.0357 0.0747 -0.2590 -0.842 0.065 -0.536 68 50 38 0 0
-0.0332 0.0748 -0.2624 -0.818 0.106 -0.565 67 49 37 0 0
-0.0280 0.0749 -0.2692 -0.598 -0.633 -0.492 69 49 38 0 0
-0.0263 0.0746 -0.2848 -0.655 -0.737 0.166 73 53 42 0 0
-0.0141 0.0724 -0.3864 -0.331 -0.943 -0.036 82 60 49 0 0
-0.0154 0.0722 -0.3893 -0.437 -0.849 -0.297 78 57 48 0 0
-0.0896 0.0657 -0.4333 -0.787 -0.225 -0.574 73 46 31 0 0
0.0602 0.0673 -0.7270 -0.454 -0.865 0.215 197 198 201 0 0
0.0596 0.0672 -0.7302 -0.438 -0.878 0.196 199 199 201 0 0
0.0586 0.0670 -0.7333 -0.438 -0.878 0.196 200 200 201 0 0
0.0575 0.0668 -0.7363 -0.438 -0.878 0.196 196 196 198 0 0
0.0565 0.0667 -0.7394 -0.259 -0.935 0.240 185 184 186 0 0
0.0334 0.0641 -0.7720 -0.519 -0.828 0.212 89 65 51 0 0
0.0377 0.0617 -0.8625 -0.664 0.199 -0.721 98 78 69 0 0
-0.0579 0.0536 -0.9125 -0.500 -0.852 -0.153 71 51 39 0 0
-0.0531 0.0531 -0.9381 -0.849 -0.481 0.217 81 55 38 0 0
-0.0775 0.0505 -0.9697 -0.607 -0.726 0.323 81 62 53 0 0
-0.1514 0.0426 -1.0626 -0.996 -0.043 -0.082 79 60 46 0 0
-0.1399 0.0430 -1.0756 -0.842 0.131 0.524 78 58 47 0 0
-0.1395 0.0429 -1.0791 -0.991 -0.121 0.047 74 55 45 0 0
-0.1390 0.0429 -1.0827 -0.943 0.139 0.303 67 49 41 0 0
-0.1390 0.0428 -1.0860 -0.970 0.125 -0.208 56 37 29 0 0
-0.1462 0.0403 -1.1510 -0.937 -0.349 -0.017 85 63 47 0 0
-0.1462 0.0402 -1.1543 -0.937 -0.349 -0.017 76 57 42 0 0
-0.1475 0.0400 -1.1568 -0.929 -0.338 0.152 82 70 55 0 0
-0.1490 0.0399 -1.1593 -0.746 -0.214 0.630 103 98 86 0 0
-0.1527 0.0395 -1.1636 -0.659 -0.320 0.680 165 164 161 0 0
0.0237 0.0921 0.0836 -0.935 -0.343 0.095 101 71 53 0 0
-0.0571 0.0848 0.0276 -0.837 -0.543 -0.060 94 65 41 0 0
-0.0567 0.0847 0.0247 -0.754 -0.650 0.095 87 53 30 0 0
-0.0673 0.0835 0.0100 -0.945 -0.242 0.218 43 18 5 0 0
-0.0687 0.0832 0.0042 -0.979 -0.200 -0.047 44 23 11 0 0
-0.0690 0.0831 0.0014 -0.997 -0.038 0.069 47 23 11 0 0
-0.0696 0.0828 -0.0073 -0.929 0.245 -0.278 49 24 11 0 0
-0.0677 0.0829 -0.0102 -0.927 0.045 -0.372 48 24 10 0 0
-0.0650 0.0828 -0.0189 -0.941 0.337 -0.025 38 17 5 0 0
-0.0023 0.0858 -0.0671 -0.305 -0.474 0.826 24 16 17 0 0
-0.0100 0.0852 -0.0699 -0.261 -0.697 0.668 25 16 17 0 0
-0.0308 0.0835 -0.0783 -0.280 -0.464 0.841 73 54 48 0 0
-0.1114 0.0756 -0.1507 -0.784 -0.501 0.366 55 40 35 0 0
-0.0812 0.0769 -0.1794 -0.919 -0.327 -0.222 58 45 39 0 0
-0.0807 0.0768 -0.1824 -0.994 -0.074 0.075 58 45 40 0 0
-0.0811 0.0767 -0.1853 -0.795 -0.580 0.176 58 45 39 0 0
-0.0784 0.0766 -0.1944 -0.554 -0.826 -0.102 60 47 41 0 0
-0.0657 0.0771 -0.2105 -0.702 0.185 -0.688 62 47 42 0 0
-0.0263 0.0781 -0.2695 -0.833 0.289 -0.472 66 46 35 0 0
-0.0191 0.0783 -0.2797 -0.803 0.318 0.505 66 46 35 0 0
-0.0992 0.0682 -0.4284 -0.886 -0.402 0.233 70 39 19 0 0
0.0565 0.0707 -0.7157 -0.537 -0.838 0.099 196 195 200 0 0
0.0576 0.0706 -0.7195 -0.446 -0.886 0.128 197 197 199 0 0
0.0544 0.0701 -0.7286 -0.438 -0.878 0.196 181 179 180 0 0
0.0320 0.0676 -0.7615 -0.443 -0.854 0.274 90 64 49 0 0
0.0339 0.0649 -0.8543 -0.437 -0.763 0.477 97 77 68 0 0
0.0313 0.0647 -0.8567 -0.920 -0.138 -0.367 98 78 69 0 0
0.0386 0.0650 -0.8631 -0.707 0.220 -0.672 99 79 70 0 0
-0.0774 0.0536 -0.9700 -0.703 -0.710 0.043 82 64 54 0 0
-0.1511 0.0460 -1.0500 -0.956 -0.096 0.277 83 62 45 0 0
-0.1523 0.0456 -1.0624 -0.892 -0.444 -0.083 79 60 46 0 0
-0.1381 0.0459 -1.0868 -0.957 -0.134 -0.259 60 41 31 0 0
-0.1356 0.0456 -1.1014 -0.959 -0.203 0.197 66 43 31 0 0
-0.1360 0.0455 -1.1045 -0.960 -0.043 0.277 67 45 32 0 0
-0.1477 0.0432 -1.1537 -0.862 -0.503 -0.061 76 56 41 0 0
-0.1484 0.0431 -1.1566 -0.873 -0.367 0.322 77 63 48 0 0
0.0234 0.0953 0.0865 -0.941 -0.338 0.001 98 70 56 0 0
-0.0654 0.0862 -0.0016 -0.987 -0.120 -0.109 44 22 9 0 0
-0.0677 0.0859 -0.0074 -0.922 -0.255 -0.292 44 22 9 0 0
-0.0662 0.0859 -0.0103 -0.868 -0.431 -0.247 44 21 9 0 0
-0.0628 0.0858 -0.0219 -0.963 0.261 -0.060 42 19 9 0 0
-0.0431 0.0851 -0.0959 -0.793 -0.487 -0.368 77 57 48 0 0
-0.0826 0.0798 -0.1793 -0.952 -0.145 -0.269 57 43 41 0 0
-0.0809 0.0798 -0.1825 -0.994 -0.074 0.075 58 44 42 0 0
-0.0845 0.0795 -0.1851 -0.797 -0.495 0.346 58 45 40 0 0
-0.0841 0.0794 -0.1881 -0.715 -0.664 0.217 58 45 39 0 0
-0.0840 0.0793 -0.1910 -0.726 -0.681 0.097 58 45 39 0 0
-0.0843 0.0792 -0.1940 -0.726 -0.681 0.097 59 46 40 0 0
-0.0667 0.0800 -0.2105 -0.709 0.012 -0.705 61 46 41 0 0
-0.0317 0.0806 -0.2751 -0.888 -0.397 0.233 64 44 34 0 0
-0.0335 0.0804 -0.2779 -0.675 -0.645 0.359 63 43 32 0 0
-0.0389 0.0799 -0.2803 -0.553 -0.823 0.128 64 44 33 0 0
-0.0044 0.0789 -0.4011 -0.360 -0.503 -0.786 67 44 34 0 0
-0.0959 0.0714 -0.4292 -0.862 -0.505 0.024 67 35 14 0 0
0.0522 0.0736 -0.7179 -0.446 -0.886 0.128 173 170 170 0 0
0.0441 0.0726 -0.7321 -0.296 -0.920 0.257 101 88 83 0 0
0.0325 0.0714 -0.7450 -0.462 -0.870 0.173 88 67 56 0 0
-0.0819 0.0564 -0.9714 -0.701 -0.710 -0.064 86 68 58 0 0
-0.1551 0.0495 -1.0254 -0.940 -0.275 -0.202 76 44 19 0 0
-0.1508 0.0493 -1.0440 -0.996 0.035 -0.081 84 62 42 0 0
-0.1572 0.0486 -1.0502 -0.915 -0.364 -0.176 79 57 41 0 0
-0.1517 0.0461 -1.1483 -0.788 -0.557 -0.263 87 64 46 0 0
-0.0600 0.0906 0.0332 -0.685 -0.422 0.593 94 65 45 0 0
-0.0663 0.0890 -0.0074 -0.889 -0.453 -0.066 44 22 9 0 0
-0.0660 0.0889 -0.0103 -0.889 -0.453 -0.066 45 23 10 0 0
-0.0646 0.0889 -0.0132 -0.936 -0.215 -0.278 42 20 8 0 0
-0.0414 0.0882 -0.0960 -0.897 0.331 -0.293 72 53 43 0 0
-0.0819 0.0827 -0.1825 -0.926 -0.357 -0.122 55 44 40 0 0
-0.0339 0.0835 -0.2749 -0.829 -0.474 0.296 59 41 33 0 0
-0.0154 0.0824 -0.3583 -0.523 -0.823 0.222 65 49 40 0 0
-0.0166 0.0822 -0.3612 -0.392 -0.789 0.473 71 55 47 0 0
-0.0352 0.0803 -0.3798 -0.834 -0.517 -0.196 76 50 40 0 0
-0.0974 0.0743 -0.4290 -0.862 -0.445 -0.244 69 37 16 0 0
-0.0936 0.0745 -0.4329 -0.666 -0.512 -0.543 73 44 27 0 0
0.0360 0.0753 -0.7295 -0.296 -0.911 0.286 92 74 65 0 0
0.0195 0.0741 -0.7305 -0.309 -0.914 0.262 82 64 52 0 0
0.0177 0.0739 -0.7332 -0.309 -0.914 0.262 82 64 51 0 0
0.0160 0.0737 -0.7360 -0.309 -0.914 0.262 84 64 50 0 0
-0.0001 0.0721 -0.7503 -0.435 -0.239 0.868 82 55 40 0 0
-0.1549 0.0526 -1.0258 -0.923 -0.345 -0.173 76 44 21 0 0
-0.1497 0.0524 -1.0448 -0.946 -0.257 0.199 83 60 42 0 0
-0.1508 0.0509 -1.0932 -0.941 -0.241 0.238 62 39 30 0 0
-0.1641 0.0487 -1.1345 -0.878 0.037 -0.477 87 65 44 0 0
-0.1541 0.0491 -1.1471 -0.768 -0.582 -0.267 86 65 47 0 0
-0.0620 0.0931 0.0244 -0.900 -0.358 0.248 42 21 8 0 0
-0.0647 0.0924 0.0070 -0.867 -0.340 0.363 36 16 9 0 0
-0.0661 0.0921 -0.0017 -0.968 0.129 0.216 40 18 7 0 0
-0.0653 0.0919 -0.0104 -0.971 -0.160 -0.180 44 22 9 0 0
0.0032 0.0959 -0.0493 -0.331 -0.940 0.084 13 7 9 0 0
-0.0482 0.0908 -0.0928 -0.857 -0.147 -0.494 57 36 27 0 0
-0.1181 0.0841 -0.1419 -0.901 -0.433 0.029 41 18 6 0 0
-0.1190 0.0839 -0.1447 -0.934 -0.236 -0.270 47 28 18 0 0
-0.1138 0.0841 -0.1508 -0.949 -0.016 0.314 50 39 33 0 0
-0.1134 0.0841 -0.1538 -0.888 -0.295 0.353 52 41 37 0 0
-0.1144 0.0839 -0.1566 -0.888 -0.295 0.353 53 42 38 0 0
-0.0841 0.0856 -0.1794 -0.913 -0.234 -0.334 53 42 38 0 0
-0.0825 0.0856 -0.1825 -0.957 -0.263 -0.118 54 43 39 0 0
-0.0826 0.0855 -0.1854 -0.965 0.202 0.169 55 42 39 0 0
-0.0856 0.0852 -0.1881 -0.968 0.238 0.084 57 43 40 0 0
-0.0908 0.0847 -0.1906 -0.830 -0.553 -0.069 57 43 40 0 0
-0.0815 0.0851 -0.2003 -0.845 0.303 -0.440 57 43 40 0 0
-0.0812 0.0851 -0.2033 -0.581 -0.352 -0.734 57 43 40 0 0
-0.0983 0.0773 -0.4260 -0.671 -0.221 0.708 66 34 13 0 0
-0.0965 0.0773 -0.4324 -0.681 -0.576 -0.452 69 42 25 0 0
0.0148 0.0772 -0.7224 -0.222 -0.936 0.272 82 61 50 0 0
0.0126 0.0770 -0.7250 -0.222 -0.936 0.272 81 60 48 0 0
0.0108 0.0764 -0.7411 -0.204 -0.915 0.347 81 56 39 0 0
0.0053 0.0758 -0.7458 -0.791 0.433 0.432 82 56 41 0 0
-0.0603 0.0965 0.0331 -0.979 -0.013 0.202 65 38 18 0 0
-0.0391 0.0948 -0.0814 -0.973 -0.136 0.189 79 60 53 0 0
-0.0468 0.0939 -0.0930 -0.945 0.325 0.044 54 33 25 0 0
-0.0931 0.0880 -0.1729 -0.805 -0.563 -0.186 52 41 37 0 0
-0.0839 0.0884 -0.1854 -0.984 0.175 -0.023 55 42 39 0 0
-0.0830 0.0883 -0.1885 -0.789 0.605 0.104 56 42 39 0 0
-0.0832 0.0882 -0.1914 -0.853 0.461 -0.243 57 43 40 0 0
0.0417 0.0840 -0.6711 -0.276 -0.950 0.143 151 145 142 0 0
0.0274 0.0817 -0.7101 -0.272 -0.943 0.190 86 65 52 0 0
0.0207 0.0812 -0.7112 -0.181 -0.959 0.217 85 64 51 0 0
0.0030 0.0791 -0.7352 -0.494 -0.752 0.436 80 53 36 0 0
-0.0934 0.0675 -0.8812 -0.939 0.344 0.023 77 59 46 0 0
-0.1553 0.0566 -1.0945 -0.960 -0.189 0.206 57 37 26 0 0
-0.0614 0.0994 0.0359 -0.955 0.152 0.256 67 40 19 0 0
-0.0613 0.0993 0.0301 -0.979 -0.160 0.129 46 25 10 0 0
-0.0596 0.0991 0.0215 -0.925 -0.182 0.332 41 18 8 0 0
-0.0606 0.0990 0.0185 -0.925 -0.182 0.332 41 19 8 0 0
-0.0540 0.0982 -0.0280 -0.977 0.192 0.089 44 21 11 0 0
-0.0452 0.0971 -0.0872 -0.912 0.134 0.388 63 43 34 0 0
-0.1233 0.0901 -0.1216 -0.629 0.026 0.777 107 89 83 0 0
-0.1218 0.0901 -0.1246 -0.918 -0.273 0.288 94 73 61 0 0
-0.0845 0.0911 -0.1914 -0.953 0.293 -0.078 56 42 39 0 0
-0.0627 0.0915 -0.2383 -0.215 -0.572 0.792 57 41 34 0 0
-0.0470 0.0911 -0.2949 -0.764 -0.625 -0.160 46 32 25 0 0
-0.0425 0.0890 -0.3789 -0.970 -0.131 -0.203 70 44 34 0 0
-0.0396 0.0890 -0.3856 -0.619 -0.554 0.557 59 38 26 0 0
-0.0414 0.0888 -0.3884 -0.694 -0.612 0.378 81 61 50 0 0
-0.1038 0.0830 -0.4220 -0.853 -0.522 0.003 70 38 17 0 0
0.0342 0.0893 -0.5790 -0.248 -0.969 -0.019 140 133 131 0 0
0.0350 0.0892 -0.5826 -0.293 -0.956 -0.006 139 133 131 0 0
0.0350 0.0891 -0.5859 -0.315 -0.949 0.026 139 135 132 0 0
0.0346 0.0890 -0.5891 -0.319 -0.947 0.031 145 140 138 0 0
0.0346 0.0889 -0.5924 -0.321 -0.946 0.038 148 143 140 0 0
0.0345 0.0888 -0.5957 -0.297 -0.953 0.056 148 143 140 0 0
0.0343 0.0887 -0.5989 -0.297 -0.953 0.056 147 141 139 0 0
0.0344 0.0886 -0.6023 -0.321 -0.946 0.038 146 141 138 0 0
0.0372 0.0875 -0.6498 -0.134 -0.986 0.097 133 122 116 0 0
0.0355 0.0872 -0.6559 -0.143 -0.982 0.123 122 111 104 0 0
0.0238 0.0850 -0.6991 -0.272 -0.943 0.190 84 62 50 0 0
0.0115 0.0833 -0.7250 -0.527 -0.741 0.415 80 52 38 0 0
0.0458 0.0842 -0.7881 -0.489 -0.862 -0.133 89 61 47 0 0
-0.0881 0.0713 -0.8740 -0.771 -0.571 0.283 81 60 47 0 0
-0.0889 0.0711 -0.8769 -0.807 -0.507 0.301 78 59 45 0 0
-0.0903 0.0709 -0.8796 -0.903 -0.271 -0.332 76 57 43 0 0
-0.0888 0.0709 -0.8835 -0.903 -0.271 -0.332 76 57 45 0 0
-0.0938 0.0705 -0.8845 -0.947 0.320 0.025 71 53 41 0 0
0.0369 0.1126 0.1200 -0.372 -0.712 0.595 183 183 185 0 0
0.0335 0.1122 0.1168 -0.337 -0.549 0.765 183 183 187 0 0
-0.0609 0.1024 0.0359 -0.986 0.166 0.019 54 28 12 0 0
-0.0586 0.1022 0.0214 -0.987 0.159 -0.037 44 22 9 0 0
-0.0448 0.1003 -0.0843 -0.682 -0.241 0.690 68 51 43 0 0
-0.1229 0.0927 -0.1303 -0.986 -0.160 0.044 65 35 17 0 0
-0.0664 0.0945 -0.2260 -0.773 -0.523 0.358 57 41 38 0 0
-0.0763 0.0937 -0.2279 -0.770 -0.464 0.438 57 41 37 0 0
-0.0768 0.0935 -0.2309 -0.642 -0.636 0.429 56 41 36 0 0
-0.0667 0.0942 -0.2350 -0.559 -0.037 0.828 56 41 36 0 0
-0.0494 0.0939 -0.2947 -0.764 -0.625 -0.160 43 30 23 0 0
-0.0559 0.0925 -0.3274 -0.842 -0.428 0.329 60 38 25 0 0
0.0272 0.0918 -0.5839 -0.322 -0.947 0.008 100 86 80 0 0
0.0268 0.0917 -0.5871 -0.319 -0.947 0.031 101 87 81 0 0
0.0268 0.0916 -0.5904 -0.319 -0.947 0.031 104 89 83 0 0
0.0269 0.0915 -0.5937 -0.335 -0.941 0.043 106 90 84 0 0
0.0268 0.0914 -0.5970 -0.335 -0.941 0.043 106 90 82 0 0
0.0267 0.0913 -0.6003 -0.321 -0.946 0.038 105 91 81 0 0
0.0267 0.0912 -0.6036 -0.319 -0.948 0.006 106 92 80 0 0
0.0183 0.0837 -0.8425 -0.894 -0.266 0.360 86 66 53 0 0
0.0138 0.0833 -0.8442 -0.819 0.515 0.254 84 66 53 0 0
-0.0853 0.0749 -0.8624 -0.816 -0.570 -0.094 78 49 28 0 0
-0.0857 0.0748 -0.8655 -0.777 -0.615 0.136 80 55 38 0 0
-0.0691 0.0748 -0.9124 -0.943 -0.128 0.308 59 39 28 0 0
-0.0695 0.0747 -0.9156 -0.971 -0.203 0.127 59 39 28 0 0
0.0148 0.1135 0.1066 -0.944 -0.313 0.104 125 110 98 0 0
-0.0549 0.1051 0.0098 -0.989 0.123 -0.077 44 22 8 0 0
-0.0564 0.1049 0.0069 -0.986 0.159 0.057 42 20 7 0 0
-0.0564 0.1041 -0.0223 -0.962 0.249 0.109 45 22 12 0 0
-0.0618 0.1034 -0.0310 -0.785 0.356 0.508 42 17 10 0 0
-0.0504 0.1031 -0.0753 -0.773 0.532 0.347 54 36 29 0 0
-0.0481 0.1032 -0.0783 -0.951 0.302 0.066 81 62 55 0 0
-0.1217 0.0952 -0.1478 -0.887 -0.455 0.082 46 32 26 0 0
-0.0719 0.0970 -0.2285 -0.786 0.607 0.115 55 41 37 0 0
-0.0672 0.0972 -0.2350 -0.649 0.410 0.641 56 41 36 0 0
-0.0421 0.0961 -0.3451 -0.812 -0.197 -0.549 51 35 27 0 0
-0.0455 0.0951 -0.3724 -0.935 -0.343 0.090 76 57 43 0 0
-0.0045 0.0889 -0.7099 -0.553 -0.602 0.576 78 51 35 0 0
-0.0070 0.0885 -0.7157 -0.593 -0.746 0.303 78 51 34 0 0
0.0156 0.0867 -0.8451 -0.819 0.515 0.254 80 58 45 0 0
0.0175 0.0868 -0.8493 -0.795 0.233 0.560 80 57 44 0 0
0.0186 0.0866 -0.8566 -0.125 -0.968 0.217 74 52 38 0 0
-0.0718 0.0778 -0.9081 -0.991 -0.132 -0.017 58 38 27 0 0
-0.0732 0.0773 -0.9240 -0.963 -0.266 -0.035 76 54 40 0 0
-0.1490 0.0689 -1.0011 -0.833 0.521 0.184 70 43 29 0 0
-0.1593 0.0676 -1.0183 -0.983 -0.056 0.176 66 33 12 0 0
-0.1597 0.0675 -1.0213 -0.946 -0.274 0.175 67 35 14 0 0
-0.1651 0.0662 -1.0507 -0.943 -0.263 -0.202 82 59 44 0 0
0.0136 0.1164 0.1065 -0.961 -0.206 0.185 120 100 89 0 0
-0.0556 0.1071 -0.0224 -0.962 0.249 0.109 45 23 12 0 0
-0.0580 0.1067 -0.0282 -0.852 0.045 0.521 44 22 11 0 0
-0.0738 0.1001 -0.2195 -0.998 -0.014 -0.059 51 40 36 0 0
-0.0723 0.1000 -0.2256 -0.823 -0.241 0.515 53 40 36 0 0
-0.0728 0.0999 -0.2285 -0.651 -0.291 0.701 54 40 36 0 0
-0.0673 0.1003 -0.2321 -0.977 0.176 -0.118 54 41 35 0 0
-0.0661 0.1003 -0.2353 -0.683 0.307 0.663 55 42 36 0 0
-0.0255 0.1017 -0.3045 -0.233 -0.828 -0.511 48 31 21 0 0
-0.0459 0.0980 -0.3755 -0.809 -0.402 0.430 75 55 43 0 0
-0.0025 0.0926 -0.6975 -0.983 -0.103 0.153 75 48 30 0 0
-0.0006 0.0926 -0.7015 -0.899 -0.243 0.364 76 49 31 0 0
-0.0097 0.0917 -0.7083 -0.706 -0.421 0.569 77 48 30 0 0
0.0154 0.0900 -0.8453 -0.555 -0.779 0.291 78 51 36 0 0
0.0183 0.0901 -0.8499 -0.229 -0.899 0.373 75 48 34 0 0
0.0200 0.0901 -0.8540 -0.310 -0.825 0.473 73 46 31 0 0
-0.0750 0.0803 -0.9234 -0.984 -0.075 -0.163 76 54 40 0 0
-0.1591 0.0707 -1.0187 -0.572 -0.742 0.350 65 32 11 0 0
-0.1676 0.0692 -1.0463 -0.830 -0.546 -0.112 81 58 40 0 0
-0.1684 0.0672 -1.1140 -0.957 -0.290 -0.011 83 56 33 0 0
-0.1679 0.0672 -1.1176 -0.995 -0.048 0.082 82 56 33 0 0
-0.1703 0.0665 -1.1325 -0.985 -0.032 0.172 85 63 42 0 0
-0.1701 0.0662 -1.1458 -0.765 -0.330 -0.554 80 59 42 0 0
-0.0496 0.1123 0.0418 -0.940 0.091 0.330 53 28 10 0 0
-0.0551 0.1101 -0.0224 -0.968 0.246 -0.047 47 25 13 0 0
-0.0496 0.1100 -0.0430 -0.810 -0.105 -0.577 36 18 9 0 0
-0.0475 0.1101 -0.0460 -0.810 -0.105 -0.577 28 16 9 0 0
-0.0452 0.1102 -0.0490 -0.719 -0.230 -0.656 12 6 4 0 0
-0.0425 0.1103 -0.0520 -0.709 -0.238 -0.664 12 8 7 0 0
-0.0527 0.1091 -0.0665 -0.787 0.502 0.359 17 10 9 0 0
-0.0481 0.1092 -0.0755 -0.889 0.014 0.457 64 45 39 0 0
-0.0484 0.1091 -0.0785 -0.784 -0.039 0.620 81 64 56 0 0
-0.0523 0.1087 -0.0813 -0.701 0.171 0.692 77 60 54 0 0
-0.0765 0.1030 -0.2133 -0.689 -0.576 -0.440 50 39 35 0 0
-0.0805 0.1026 -0.2159 -0.505 -0.713 -0.486 50 39 35 0 0
-0.0743 0.1029 -0.2255 -0.982 -0.019 0.190 51 40 36 0 0
-0.0713 0.1030 -0.2288 -0.574 -0.554 0.604 52 40 35 0 0
-0.0628 0.1025 -0.2720 -0.887 -0.232 0.400 47 32 25 0 0
-0.0334 0.1041 -0.3035 -0.304 -0.774 -0.555 46 31 22 0 0
-0.0659 0.1008 -0.3262 -0.977 -0.190 0.096 55 36 25 0 0
-0.0424 0.1021 -0.3484 -0.972 -0.084 -0.221 46 28 19 0 0
-0.0464 0.1012 -0.3694 -0.727 -0.238 0.644 49 34 25 0 0
-0.0083 0.1014 -0.4779 -0.913 -0.407 0.042 70 47 34 0 0
-0.0094 0.0995 -0.5419 -0.958 -0.283 -0.052 77 52 37 0 0
-0.0092 0.0995 -0.5452 -0.958 -0.283 -0.052 78 54 39 0 0
-0.0019 0.0999 -0.5504 -0.622 -0.783 0.015 78 53 39 0 0
-0.0017 0.0999 -0.5537 -0.628 -0.777 0.046 74 49 34 0 0
-0.0060 0.0952 -0.7098 -0.794 -0.108 0.599 74 43 24 0 0
0.0178 0.0935 -0.8431 -0.913 0.394 0.108 71 43 26 0 0
-0.1394 0.0761 -0.9904 -0.580 0.481 0.657 97 82 77 0 0
-0.1570 0.0739 -1.0168 -0.550 -0.772 0.319 64 33 13 0 0
-0.1618 0.0734 -1.0207 -0.816 -0.553 0.169 66 34 13 0 0
-0.1623 0.0733 -1.0237 -0.766 -0.540 0.349 68 36 15 0 0
-0.1671 0.0692 -1.1577 -0.901 -0.296 -0.318 92 83 73 0 0
0.0235 0.1237 0.1190 -0.417 -0.337 0.844 183 183 186 0 0
-0.0498 0.1152 0.0389 -0.989 0.142 0.029 45 22 8 0 0
-0.0531 0.1145 0.0213 -0.984 0.128 0.126 54 31 16 0 0
-0.0488 0.1121 -0.0785 -0.927 0.100 0.361 85 68 60 0 0
-0.0527 0.1117 -0.0814 -0.591 0.042 0.806 79 61 55 0 0
-0.1249 0.1041 -0.1305 -0.943 -0.091 0.320 52 24 8 0 0
-0.1214 0.1042 -0.1365 -0.877 -0.376 0.300 49 23 12 0 0
-0.0874 0.1050 -0.2153 -0.736 0.152 -0.660 49 38 34 0 0
-0.0659 0.1053 -0.2717 -0.774 -0.334 0.538 47 32 25 0 0
-0.0645 0.1039 -0.3265 -0.915 -0.402 -0.002 56 37 26 0 0
-0.0387 0.1054 -0.3523 -0.993 -0.105 0.046 46 28 20 0 0
-0.0544 0.1033 -0.3805 -0.958 -0.101 0.268 57 33 23 0 0
-0.0135 0.1039 -0.4865 -0.928 -0.318 -0.193 65 43 30 0 0
-0.0124 0.1028 -0.5284 -0.817 -0.575 -0.027 71 45 30 0 0
-0.0123 0.1027 -0.5317 -0.980 -0.198 0.014 68 42 27 0 0
-0.0127 0.1026 -0.5348 -0.961 -0.218 -0.168 69 43 28 0 0
-0.0121 0.1026 -0.5382 -0.961 -0.218 -0.168 71 45 30 0 0
-0.0115 0.1025 -0.5416 -0.961 -0.218 -0.168 72 46 31 0 0
-0.0102 0.0987 -0.6855 -0.537 -0.678 0.501 75 44 24 0 0
-0.0213 0.0974 -0.6982 -0.454 -0.793 0.406 72 41 21 0 0
-0.0228 0.0972 -0.7009 -0.510 -0.763 0.397 70 39 19 0 0
-0.0823 0.0856 -0.9370 -0.735 -0.678 -0.005 65 43 29 0 0
-0.1548 0.0774 -1.0086 -0.682 -0.088 0.726 58 29 11 0 0
-0.1675 0.0753 -1.0437 -0.937 -0.020 -0.347 78 54 37 0 0
-0.1720 0.0729 -1.1190 -0.911 -0.234 0.339 84 59 36 0 0
-0.1705 0.0729 -1.1232 -0.954 -0.299 -0.011 83 61 39 0 0
-0.1713 0.0727 -1.1260 -0.946 -0.317 -0.062 83 61 38 0 0
-0.1705 0.0725 -1.1362 -0.986 -0.022 0.165 85 60 44 0 0
-0.1730 0.0723 -1.1381 -0.954 0.034 0.297 84 59 42 0 0
-0.0493 0.1182 0.0388 -0.989 0.142 0.029 44 20 8 0 0
-0.0536 0.1169 0.0038 -0.998 -0.021 -0.066 41 19 7 0 0
-0.0487 0.1151 -0.0786 -0.937 -0.264 0.227 88 71 62 0 0
-0.1131 0.1085 -0.1140 -0.597 -0.583 0.551 84 63 59 0 0
-0.1265 0.1069 -0.1305 -0.958 -0.154 0.240 54 25 10 0 0
-0.1291 0.1060 -0.1534 -0.675 -0.687 0.267 49 38 32 0 0
-0.0695 0.1092 -0.2262 -0.811 0.558 0.175 50 39 35 0 0
-0.0658 0.1090 -0.2447 -0.834 0.519 -0.186 51 38 32 0 0
-0.0650 0.1090 -0.2478 -0.750 0.603 -0.273 51 38 32 0 0
-0.0675 0.1086 -0.2565 -0.597 -0.477 -0.645 52 37 32 0 0
-0.0522 0.1096 -0.2675 -0.902 0.326 0.285 49 34 27 0 0
-0.0643 0.1082 -0.2811 -0.795 -0.600 -0.090 43 29 23 0 0
-0.0427 0.1083 -0.3455 -0.470 -0.883 0.015 39 26 20 0 0
-0.1073 0.1007 -0.4191 -0.993 -0.063 0.103 64 32 13 0 0
-0.1067 0.1006 -0.4223 -0.981 -0.181 -0.065 62 31 13 0 0
-0.0134 0.1073 -0.4770 -0.830 0.541 0.139 63 39 27 0 0
-0.0162 0.1018 -0.6705 -0.687 -0.727 -0.015 73 41 20 0 0
-0.0187 0.1009 -0.6927 -0.531 -0.794 -0.296 74 42 21 0 0
-0.0208 0.1007 -0.6952 -0.675 -0.717 -0.175 72 40 19 0 0
-0.0191 0.1007 -0.6991 -0.581 -0.813 -0.018 70 38 17 0 0
-0.1107 0.0854 -0.9663 -0.537 -0.736 0.412 102 89 80 0 0
-0.1564 0.0803 -1.0080 -0.470 -0.806 0.359 58 29 11 0 0
-0.1591 0.0799 -1.0130 -0.583 -0.808 0.085 58 31 11 0 0
-0.1619 0.0796 -1.0147 -0.653 -0.735 0.183 62 33 12 0 0
-0.1636 0.0794 -1.0170 -0.816 -0.396 0.420 65 33 14 0 0
-0.1641 0.0793 -1.0200 -0.815 -0.558 0.155 66 35 14 0 0
-0.1647 0.0792 -1.0229 -0.869 -0.429 0.247 67 35 14 0 0
-0.1610 0.0785 -1.0606 -0.986 0.066 -0.155 78 57 40 0 0
-0.1727 0.0758 -1.1189 -0.917 -0.217 0.334 86 60 37 0 0
-0.1722 0.0757 -1.1257 -0.979 -0.201 -0.027 81 59 36 0 0
-0.1704 0.0757 -1.1301 -0.933 -0.361 0.017 81 59 36 0 0
-0.1737 0.0751 -1.1444 -0.963 0.057 -0.262 82 60 42 0 0
-0.1713 0.0751 -1.1492 -0.945 -0.083 -0.317 70 52 37 0 0
-0.1696 0.0752 -1.1535 -0.979 -0.151 -0.135 66 52 38 0 0
-0.1687 0.0752 -1.1574 -0.985 -0.112 -0.132 82 73 61 0 0
-0.0535 0.1199 0.0066 -1.000 0.003 0.005 48 26 12 0 0
-0.0535 0.1199 0.0037 -1.000 0.003 0.005 47 24 11 0 0
-0.0507 0.1190 -0.0373 -0.991 -0.011 0.133 41 18 10 0 0
-0.0447 0.1192 -0.0492 -0.966 -0.036 -0.256 19 10 9 0 0
-0.0430 0.1193 -0.0522 -0.900 0.053 0.433 12 7 6 0 0
-0.0587 0.1172 -0.0784 -0.793 -0.413 0.448 88 72 63 0 0
-0.0607 0.1169 -0.0813 -0.691 -0.682 0.240 75 58 51 0 0
-0.0876 0.1139 -0.1037 -0.659 -0.752 0.008 79 58 50 0 0
-0.1240 0.1100 -0.1279 -0.747 -0.180 0.640 59 31 18 0 0
-0.1261 0.1092 -0.1508 -0.832 -0.474 -0.287 48 35 29 0 0
-0.0663 0.1110 -0.2809 -0.789 -0.574 0.219 41 28 22 0 0
-0.0465 0.1097 -0.3946 -0.540 -0.662 0.520 60 36 29 0 0
-0.0457 0.1097 -0.3979 -0.625 -0.733 0.269 55 30 24 0 0
-0.1073 0.1036 -0.4223 -0.981 -0.181 -0.065 61 31 14 0 0
-0.0143 0.1105 -0.4706 -0.865 -0.402 -0.301 64 42 30 0 0
-0.0130 0.1104 -0.4773 -0.859 -0.444 0.256 60 36 24 0 0
-0.0186 0.1070 -0.5852 -0.955 -0.069 0.287 69 42 23 0 0
-0.0185 0.1030 -0.7358 -0.727 -0.641 -0.244 68 36 16 0 0
-0.1115 0.0910 -0.8718 -0.782 -0.406 0.473 77 55 42 0 0
-0.1424 0.0853 -0.9800 -0.942 -0.334 0.033 110 96 88 0 0
-0.1441 0.0851 -0.9823 -0.764 -0.385 0.517 108 93 86 0 0
-0.1590 0.0831 -1.0069 -0.853 -0.370 0.368 59 30 12 0 0
-0.1583 0.0831 -1.0105 -0.864 -0.398 0.309 58 29 11 0 0
-0.1686 0.0820 -1.0178 -0.405 -0.032 0.914 65 34 13 0 0
-0.1628 0.0815 -1.0566 -0.997 -0.074 -0.022 77 57 40 0 0
-0.1720 0.0788 -1.1229 -0.989 -0.148 0.010 82 58 36 0 0
-0.1713 0.0782 -1.1495 -0.885 -0.122 -0.449 71 53 37 0 0
-0.1682 0.0782 -1.1579 -0.953 -0.059 -0.299 78 69 56 0 0
-0.1618 0.0786 -1.1652 -0.825 -0.161 -0.542 111 107 95 0 0
0.0091 0.1313 0.1090 -0.748 -0.352 0.562 117 92 81 0 0
-0.0492 0.1253 0.0793 -0.988 0.101 0.114 83 55 29 0 0
-0.0528 0.1231 0.0124 -0.992 0.124 -0.000 53 30 16 0 0
-0.0531 0.1230 0.0095 -0.991 -0.016 -0.132 56 33 17 0 0
-0.0532 0.1229 0.0066 -0.990 -0.138 -0.034 56 33 16 0 0
-0.0536 0.1227 0.0007 -0.943 -0.332 -0.035 52 28 12 0 0
-0.0531 0.1227 -0.0022 -0.987 -0.161 -0.001 55 32 15 0 0
-0.0448 0.1222 -0.0493 -0.920 -0.391 -0.004 24 13 11 0 0
-0.0505 0.1213 -0.0639 -0.691 0.042 0.722 39 26 22 0 0
-0.0536 0.1209 -0.0668 -0.691 0.042 0.722 46 28 26 0 0
-0.0569 0.1204 -0.0756 -0.714 -0.275 0.644 81 65 59 0 0
-0.1159 0.1140 -0.1140 -0.770 -0.239 0.592 71 52 45 0 0
-0.1179 0.1138 -0.1168 -0.817 -0.516 0.257 120 105 100 0 0
-0.1273 0.1125 -0.1335 -0.924 -0.291 0.249 50 23 9 0 0
-0.0882 0.1144 -0.1948 -0.337 -0.941 -0.019 48 39 34 0 0
-0.0677 0.1142 -0.2718 -0.967 -0.152 0.204 46 32 26 0 0
-0.0685 0.1140 -0.2747 -0.980 -0.039 0.197 44 31 25 0 0
-0.0667 0.1137 -0.2931 -0.927 -0.341 0.155 40 27 21 0 0
-0.0731 0.1123 -0.3225 -0.775 -0.526 0.351 43 21 10 0 0
-0.0717 0.1124 -0.3258 -0.989 -0.143 -0.049 45 25 14 0 0
-0.0530 0.1135 -0.3441 -0.483 -0.798 -0.362 39 28 21 0 0
-0.0567 0.1126 -0.3650 -0.960 -0.274 -0.058 36 18 14 0 0
-0.0505 0.1123 -0.3971 -0.715 -0.616 0.330 57 34 26 0 0
-0.0861 0.1091 -0.3994 -0.554 -0.195 0.809 48 28 15 0 0
-0.1080 0.1066 -0.4193 -0.758 -0.524 -0.389 62 30 10 0 0
-0.0164 0.1135 -0.4703 -0.554 -0.831 0.047 60 38 26 0 0
-0.0171 0.1133 -0.4733 -0.653 -0.737 -0.173 58 35 22 0 0
-0.0165 0.1133 -0.4766 -0.603 -0.739 0.301 59 35 23 0 0
-0.0226 0.1125 -0.4848 -0.901 -0.431 -0.045 56 34 21 0 0
-0.0157 0.1110 -0.5636 -0.744 -0.658 0.111 65 36 18 0 0
-0.0200 0.1095 -0.6077 -0.796 -0.129 0.592 71 40 22 0 0
-0.0221 0.1092 -0.6103 -0.858 -0.216 0.466 72 41 23 0 0
-0.0157 0.1081 -0.6711 -0.687 -0.613 -0.390 73 38 18 0 0
-0.0147 0.1081 -0.6747 -0.798 -0.591 -0.119 71 36 16 0 0
-0.0298 0.1051 -0.7353 -0.892 -0.391 -0.225 60 30 12 0 0
-0.1126 0.0940 -0.8715 -0.936 -0.108 0.336 77 55 41 0 0
-0.1043 0.0944 -0.8850 -0.938 -0.344 0.033 68 50 36 0 0
-0.1309 0.0894 -0.9796 -0.888 -0.310 0.339 111 98 90 0 0
-0.1322 0.0893 -0.9822 -0.826 -0.350 0.441 113 98 91 0 0
-0.1598 0.0861 -1.0067 -0.996 -0.004 0.085 58 29 10 0 0
-0.1602 0.0858 -1.0161 -0.966 -0.256 -0.038 58 29 11 0 0
-0.1689 0.0850 -1.0179 -0.339 -0.094 0.936 61 33 12 0 0
-0.1702 0.0846 -1.0269 -0.999 0.041 0.017 68 36 15 0 0
-0.1727 0.0818 -1.1228 -0.957 -0.290 0.009 83 58 37 0 0
-0.1712 0.0812 -1.1498 -0.880 -0.194 -0.433 72 53 37 0 0
-0.1689 0.0813 -1.1545 -0.880 -0.194 -0.433 62 48 32 0 0
-0.1679 0.0813 -1.1584 -0.892 -0.256 -0.373 74 65 51 0 0
-0.0466 0.1285 0.0794 -0.998 -0.026 0.062 67 40 18 0 0
-0.0471 0.1274 0.0416 -0.974 0.105 0.203 48 24 10 0 0
-0.0501 0.1265 0.0182 -0.867 -0.109 0.486 48 25 11 0 0
-0.0517 0.1263 0.0153 -0.912 -0.059 0.406 47 24 10 0 0
-0.0533 0.1261 0.0123 -0.959 -0.144 0.245 48 25 11 0 0
-0.0536 0.1259 0.0065 -0.987 -0.161 -0.001 54 31 13 0 0
-0.0539 0.1258 0.0036 -0.979 -0.198 -0.058 52 29 11 0 0
-0.0466 0.1250 -0.0523 -0.984 -0.179 0.012 14 5 5 0 0
-0.0474 0.1246 -0.0611 -0.691 0.042 0.722 25 14 11 0 0
-0.0504 0.1243 -0.0640 -0.691 0.042 0.722 45 31 28 0 0
-0.0615 0.1230 -0.0726 -0.591 -0.272 0.760 61 46 39 0 0
-0.0644 0.1226 -0.0784 -0.658 -0.705 0.262 98 83 80 0 0
-0.0942 0.1167 -0.1973 -0.288 -0.950 -0.120 48 39 34 0 0
-0.0798 0.1169 -0.2404 -0.299 -0.950 -0.087 48 35 29 0 0
-0.0693 0.1171 -0.2687 -0.961 -0.268 0.062 47 32 27 0 0
-0.0715 0.1166 -0.2805 -0.947 -0.212 -0.242 42 29 23 0 0
-0.0678 0.1166 -0.2931 -0.927 -0.341 0.155 39 26 20 0 0
-0.0637 0.1147 -0.3793 -0.974 0.087 0.209 43 24 17 0 0
-0.0516 0.1154 -0.3939 -0.744 -0.556 0.370 59 39 33 0 0
-0.0529 0.1152 -0.3968 -0.736 -0.568 0.368 59 36 29 0 0
-0.0900 0.1117 -0.4018 -0.927 -0.175 0.332 50 26 13 0 0
-0.1214 0.1081 -0.4286 -0.932 0.085 0.353 54 27 13 0 0
-0.1225 0.1079 -0.4314 -0.932 0.085 0.353 63 38 25 0 0
-0.0147 0.1167 -0.4740 -0.929 -0.362 0.073 52 30 17 0 0
-0.0172 0.1164 -0.4766 -0.742 -0.604 0.291 55 33 20 0 0
-0.0163 0.1139 -0.5733 -0.942 -0.214 0.259 64 36 18 0 0
-0.0417 0.1076 -0.7214 -0.997 -0.025 -0.069 59 31 10 0 0
-0.1043 0.0975 -0.8852 -0.979 -0.101 -0.176 68 50 36 0 0
-0.1286 0.0928 -0.9777 -0.785 -0.129 0.606 111 98 90 0 0
-0.1309 0.0925 -0.9798 -0.919 -0.038 0.392 110 97 89 0 0
-0.1324 0.0923 -0.9823 -0.926 -0.048 0.375 113 98 91 0 0
-0.1507 0.0903 -0.9956 -0.579 -0.347 0.738 79 64 57 0 0
-0.1588 0.0890 -1.0172 -0.930 -0.333 -0.155 56 27 11 0 0
-0.1560 0.0891 -1.0219 -0.960 -0.248 0.127 58 29 11 0 0
-0.1745 0.0846 -1.1252 -0.995 -0.100 -0.008 83 58 39 0 0
-0.1727 0.0842 -1.1492 -0.863 -0.324 -0.389 75 55 39 0 0
-0.1701 0.0843 -1.1541 -0.912 -0.379 -0.158 63 48 32 0 0
-0.1698 0.0842 -1.1575 -0.887 -0.424 -0.184 71 61 48 0 0
-0.0467 0.1314 0.0794 -0.998 -0.051 -0.040 53 27 10 0 0
-0.0473 0.1280 -0.0464 -0.993 -0.017 0.114 39 18 10 0 0
-0.0476 0.1279 -0.0494 -0.993 -0.017 0.114 33 16 12 0 0
-0.0536 0.1271 -0.0581 -0.640 -0.614 0.463 28 16 12 0 0
-0.0955 0.1220 -0.1036 -0.394 0.093 0.915 71 50 44 0 0
-0.0674 0.1196 -0.2932 -0.993 -0.057 0.103 36 23 17 0 0
-0.0662 0.1187 -0.3330 -0.838 -0.401 -0.370 48 33 30 0 0
-0.0898 0.1148 -0.3989 -0.531 -0.066 0.845 48 27 15 0 0
-0.0169 0.1196 -0.4737 -0.692 -0.709 0.136 46 26 13 0 0
-0.0292 0.1173 -0.5154 -0.823 -0.122 0.555 53 30 18 0 0
-0.0274 0.1174 -0.5190 -0.818 -0.433 0.379 53 30 17 0 0
-0.0309 0.1164 -0.5437 -0.848 -0.513 0.129 55 30 14 0 0
-0.0308 0.1164 -0.5470 -0.918 -0.386 -0.088 57 30 14 0 0
-0.0210 0.1169 -0.5625 -0.945 -0.163 0.282 64 38 18 0 0
-0.0177 0.1165 -0.5893 -0.910 -0.329 0.254 63 36 19 0 0
-0.0276 0.1140 -0.6480 -0.900 -0.379 0.216 77 45 22 0 0
-0.0365 0.1116 -0.7071 -0.924 -0.244 0.293 63 32 12 0 0
-0.0375 0.1114 -0.7100 -0.927 -0.292 0.237 63 32 12 0 0
-0.0465 0.1103 -0.7199 -0.974 -0.191 -0.125 59 31 10 0 0
-0.0477 0.1096 -0.7423 -0.935 -0.338 -0.110 55 26 11 0 0
-0.0470 0.1095 -0.7491 -0.859 -0.183 0.478 56 27 11 0 0
-0.0714 0.1063 -0.7855 -0.929 -0.332 0.162 56 29 12 0 0
-0.0711 0.1062 -0.7889 -0.968 -0.224 -0.109 56 29 12 0 0
-0.0698 0.1062 -0.7926 -0.916 -0.361 -0.175 55 27 12 0 0
-0.0691 0.1062 -0.7962 -0.916 -0.361 -0.175 54 26 12 0 0
-0.0940 0.1011 -0.8999 -0.932 0.056 0.359 58 38 27 0 0
-0.0969 0.1008 -0.9018 -0.952 -0.171 0.255 55 34 23 0 0
-0.0975 0.1006 -0.9081 -0.973 -0.210 0.100 51 31 20 0 0
-0.0991 0.0989 -0.9665 -0.429 -0.570 0.701 103 87 82 0 0
-0.1292 0.0957 -0.9810 -0.772 -0.349 0.530 112 98 91 0 0
-0.1482 0.0936 -0.9939 -0.983 -0.183 -0.005 88 77 72 0 0
-0.1525 0.0932 -0.9949 -0.625 -0.275 0.731 80 65 58 0 0
-0.1738 0.0872 -1.1455 -0.797 -0.403 -0.450 82 59 41 0 0
-0.1699 0.0873 -1.1545 -0.845 -0.525 0.103 63 48 32 0 0
-0.1681 0.0873 -1.1621 -0.804 -0.563 -0.191 97 89 77 0 0
-0.1818 0.0859 -1.1668 -0.890 -0.135 0.436 188 188 187 0 0
-0.0413 0.1353 0.0941 -0.951 -0.306 0.053 138 114 102 0 0
-0.0414 0.1352 0.0912 -0.876 -0.216 0.432 111 85 67 0 0
-0.0429 0.1348 0.0824 -0.950 -0.147 0.274 55 29 11 0 0
-0.0437 0.1347 0.0795 -0.950 -0.147 0.274 51 26 10 0 0
-0.0416 0.1345 0.0650 -0.951 -0.100 0.292 51 24 10 0 0
-0.0427 0.1343 0.0621 -0.967 -0.037 0.251 50 24 9 0 0
-0.0442 0.1341 0.0591 -0.987 0.061 0.149 51 25 10 0 0
-0.0478 0.1309 -0.0494 -0.971 0.079 0.223 38 17 12 0 0
-0.1315 0.1207 -0.1364 -0.936 -0.332 0.120 47 24 12 0 0
-0.0688 0.1229 -0.2780 -0.977 0.115 0.179 42 29 23 0 0
