ply
format ascii 1.0
element vertex 871
property float x
property float y
property float z
property float nx
property float ny
property float nz
property uchar diffuse_red
property uchar diffuse_green
property uchar diffuse_blue
property uchar class
property uchar detection
end_header
0.2348 0.1056 -1.0230 0.990 0.136 -0.043 71 33 10 0 0
0.2417 0.1057 -1.0347 0.999 -0.052 -0.012 85 54 27 0 0
0.0352 0.0807 0.0602 0.938 -0.017 0.347 86 62 44 0 0
0.0363 0.0807 0.0572 0.938 -0.017 0.347 79 52 34 0 0
0.0397 0.0807 0.0542 0.820 -0.258 0.510 73 39 20 0 0
0.0408 0.0808 0.0512 0.803 -0.125 0.583 65 28 7 0 0
0.0448 0.0830 -0.0427 0.435 -0.273 -0.858 44 18 5 0 0
0.0281 0.0836 -0.0490 0.786 0.611 -0.097 81 70 64 0 0
0.0890 0.0898 -0.3613 0.622 -0.725 0.296 71 51 38 0 0
0.1518 0.0901 -0.4355 0.852 -0.515 -0.090 76 45 30 0 0
0.0354 0.0940 -0.4745 0.761 0.585 -0.279 107 89 81 0 0
0.0526 0.0942 -0.4987 0.624 -0.753 0.209 97 73 58 0 0
0.0514 0.0943 -0.5021 0.829 -0.492 0.266 98 75 59 0 0
0.0515 0.0944 -0.5052 0.875 -0.451 0.176 99 76 60 0 0
0.0584 0.0959 -0.5729 0.510 -0.860 -0.007 102 75 54 0 0
0.0590 0.0959 -0.5759 0.455 -0.890 0.017 101 75 52 0 0
0.0589 0.0960 -0.5791 0.472 -0.882 0.018 100 72 50 0 0
0.1657 0.1011 -0.8896 0.911 -0.400 0.099 75 48 29 0 0
0.1671 0.1013 -0.8984 0.882 -0.462 0.096 71 44 25 0 0
0.1668 0.1013 -0.9017 0.893 -0.406 0.197 73 44 26 0 0
0.1707 0.1025 -0.9505 0.767 0.008 0.642 50 26 13 0 0
0.1713 0.1025 -0.9533 0.959 -0.184 0.216 63 40 26 0 0
0.1727 0.1027 -0.9622 0.925 -0.244 0.290 80 63 54 0 0
0.2176 0.1022 -0.9857 0.947 -0.124 0.298 90 71 61 0 0
0.2179 0.1022 -0.9887 0.999 -0.038 0.034 90 70 59 0 0
0.2367 0.1026 -1.0220 0.903 -0.431 0.004 74 36 13 0 0
0.2456 0.1025 -1.0262 0.981 -0.168 -0.100 77 41 15 0 0
0.2402 0.1031 -1.0448 0.906 0.077 0.417 95 65 41 0 0
0.2406 0.1052 -1.1293 0.896 -0.328 0.300 91 61 37 0 0
0.2419 0.1053 -1.1380 0.965 -0.259 -0.040 91 61 36 0 0
0.2452 0.1058 -1.1612 0.944 -0.232 0.236 152 146 143 0 0
0.0352 0.0777 0.0601 0.938 -0.017 0.347 134 125 119 0 0
0.0373 0.0778 0.0571 0.842 -0.292 0.454 126 115 108 0 0
0.0389 0.0778 0.0541 0.820 -0.258 0.510 95 74 62 0 0
0.0404 0.0778 0.0511 0.803 -0.125 0.583 77 45 26 0 0
0.0494 0.0791 -0.0104 0.982 -0.190 -0.005 49 20 6 0 0
0.0503 0.0795 -0.0251 0.961 -0.122 0.247 50 22 9 0 0
0.0217 0.0810 -0.0581 0.789 -0.111 0.604 128 124 123 0 0
0.1744 0.0792 -0.1325 0.834 -0.347 -0.429 75 41 21 0 0
0.1275 0.0822 -0.2106 0.248 -0.740 0.626 65 47 37 0 0
0.1118 0.0836 -0.2504 0.641 -0.752 -0.150 68 46 35 0 0
0.1024 0.0869 -0.3740 0.737 -0.664 0.124 65 45 36 0 0
0.0996 0.0872 -0.3866 0.889 -0.047 0.456 68 46 35 0 0
0.0367 0.0909 -0.4742 0.698 0.654 -0.291 111 96 87 0 0
0.0349 0.0911 -0.4809 0.853 0.428 -0.299 101 88 77 0 0
0.0357 0.0911 -0.4839 0.951 0.072 -0.300 102 88 79 0 0
0.0277 0.0918 -0.5049 0.743 -0.668 0.054 101 85 75 0 0
0.1739 0.0969 -0.8512 0.954 -0.254 -0.158 78 40 19 0 0
0.1742 0.0978 -0.8856 0.997 -0.063 0.052 75 48 29 0 0
0.1604 0.0995 -0.9429 0.956 -0.170 0.240 47 20 9 0 0
0.1609 0.0996 -0.9458 0.988 -0.113 0.102 48 21 10 0 0
0.2000 0.0992 -0.9669 0.969 0.236 -0.066 93 75 65 0 0
0.2363 0.0997 -1.0222 0.918 -0.316 0.241 74 36 13 0 0
0.2387 0.1002 -1.0457 0.899 -0.005 0.438 96 66 42 0 0
0.2417 0.1022 -1.1287 0.991 0.055 0.125 93 62 39 0 0
0.2478 0.1020 -1.1280 0.947 -0.057 0.317 92 61 40 0 0
0.2436 0.1028 -1.1559 0.626 -0.539 0.564 92 82 69 0 0
0.2433 0.1029 -1.1592 0.625 -0.525 0.578 127 122 111 0 0
0.2451 0.1029 -1.1612 0.625 -0.525 0.578 157 152 149 0 0
0.0368 0.0747 0.0599 0.884 0.093 0.459 182 182 182 0 0
0.0390 0.0748 0.0569 0.862 0.103 0.496 181 180 181 0 0
0.0397 0.0748 0.0540 0.777 -0.166 0.607 153 145 138 0 0
0.0393 0.0749 0.0511 0.795 -0.262 0.548 90 66 49 0 0
0.1000 0.0770 -0.0910 0.511 -0.520 0.685 81 54 41 0 0
0.1501 0.0764 -0.1086 0.566 -0.413 0.713 88 59 48 0 0
0.1377 0.0785 -0.1865 0.831 0.214 0.514 66 49 41 0 0
0.1041 0.0805 -0.2367 0.848 0.116 -0.517 67 48 36 0 0
0.1084 0.0808 -0.2509 0.641 -0.752 -0.150 71 49 37 0 0
0.1062 0.0825 -0.3224 0.759 0.121 0.640 86 55 32 0 0
0.1001 0.0840 -0.3745 0.777 -0.625 0.075 64 43 35 0 0
0.1059 0.0839 -0.3764 0.943 0.114 -0.314 62 40 30 0 0
0.0960 0.0843 -0.3843 0.935 -0.185 -0.302 73 51 39 0 0
0.1519 0.0843 -0.4355 0.999 -0.025 0.031 81 53 37 0 0
0.0385 0.0877 -0.4738 0.564 0.820 -0.096 128 116 109 0 0
0.0380 0.0878 -0.4771 0.601 0.788 -0.132 151 144 139 0 0
0.0376 0.0879 -0.4804 0.638 0.746 -0.190 156 150 147 0 0
0.0312 0.0883 -0.4914 0.203 -0.974 0.103 141 136 134 0 0
0.0243 0.0887 -0.4994 0.721 -0.683 0.112 128 121 118 0 0
0.0248 0.0887 -0.5025 0.743 -0.668 0.054 128 120 116 0 0
0.0251 0.0888 -0.5056 0.743 -0.668 0.054 127 119 114 0 0
0.0250 0.0889 -0.5088 0.997 -0.076 0.011 129 121 116 0 0
0.0251 0.0890 -0.5120 0.949 0.302 0.087 129 121 117 0 0
0.0254 0.0890 -0.5151 0.712 0.694 0.107 128 120 114 0 0
0.0258 0.0891 -0.5182 0.620 0.766 0.169 125 117 109 0 0
0.0267 0.0892 -0.5211 0.980 -0.039 0.194 122 113 106 0 0
0.0272 0.0892 -0.5242 0.990 -0.085 0.116 118 109 101 0 0
0.0276 0.0893 -0.5273 0.990 -0.085 0.116 118 108 101 0 0
0.0276 0.0903 -0.5689 0.259 -0.966 0.006 117 101 91 0 0
0.0296 0.0905 -0.5780 0.253 -0.966 0.054 120 100 90 0 0
0.0778 0.0925 -0.7036 0.719 -0.018 0.695 72 46 32 0 0
0.0786 0.0926 -0.7066 0.792 -0.136 0.595 73 47 32 0 0
0.1623 0.0942 -0.8502 0.960 0.106 -0.259 70 35 15 0 0
0.1708 0.0945 -0.8715 0.989 0.113 0.097 84 59 39 0 0
0.1722 0.0949 -0.8865 0.988 -0.138 0.062 74 47 27 0 0
0.1724 0.0950 -0.8927 0.915 -0.199 -0.352 74 48 28 0 0
0.1572 0.0960 -0.9190 0.912 -0.257 0.320 99 71 47 0 0
0.1595 0.0965 -0.9402 0.978 -0.082 0.191 49 22 12 0 0
0.1601 0.0965 -0.9431 0.978 -0.082 0.191 46 19 9 0 0
0.1607 0.0966 -0.9460 0.978 -0.082 0.191 46 19 9 0 0
0.1642 0.0969 -0.9634 0.881 -0.474 -0.014 78 60 48 0 0
0.2400 0.0973 -1.0481 0.965 -0.055 0.256 101 73 48 0 0
0.2392 0.0986 -1.0987 0.822 -0.214 0.529 52 27 12 0 0
0.2435 0.0986 -1.1023 0.980 0.032 0.195 70 36 14 0 0
0.2476 0.0991 -1.1281 0.947 -0.057 0.317 93 62 41 0 0
0.0372 0.0718 0.0598 0.884 0.093 0.459 181 182 183 0 0
0.0388 0.0718 0.0569 0.775 -0.169 0.609 181 182 185 0 0
0.0399 0.0719 0.0510 0.893 -0.094 0.439 114 95 81 0 0
0.1387 0.0758 -0.1922 0.328 0.188 0.926 66 49 39 0 0
0.1061 0.0775 -0.2365 0.923 0.094 -0.373 70 50 39 0 0
0.1065 0.0776 -0.2394 0.727 0.222 -0.650 72 51 40 0 0
0.1076 0.0776 -0.2422 0.653 0.070 -0.754 72 51 40 0 0
0.0940 0.0790 -0.2885 0.594 -0.696 0.405 68 46 35 0 0
0.0804 0.0799 -0.3115 0.616 -0.785 0.058 82 58 39 0 0
0.1436 0.0808 -0.4018 0.800 -0.573 -0.180 83 54 43 0 0
0.1502 0.0814 -0.4360 0.968 -0.069 0.241 84 55 40 0 0
0.0212 0.0857 -0.5002 0.832 -0.537 0.142 183 182 182 0 0
0.0218 0.0857 -0.5033 0.832 -0.537 0.142 183 182 182 0 0
0.0224 0.0858 -0.5063 0.743 -0.668 0.054 184 184 182 0 0
0.0248 0.0858 -0.5089 0.997 -0.076 0.011 184 183 182 0 0
0.0244 0.0867 -0.5442 0.250 -0.968 0.028 176 172 171 0 0
0.0245 0.0867 -0.5474 0.259 -0.966 0.015 175 171 170 0 0
0.0238 0.0868 -0.5508 0.683 0.730 -0.027 172 168 166 0 0
0.0235 0.0869 -0.5540 0.683 0.730 -0.027 171 166 164 0 0
0.0233 0.0870 -0.5573 0.683 0.730 -0.027 168 162 160 0 0
0.0231 0.0871 -0.5606 0.683 0.730 -0.027 163 157 155 0 0
0.0228 0.0872 -0.5639 0.716 0.693 0.084 161 156 153 0 0
0.0171 0.0875 -0.5719 0.259 -0.966 0.006 161 156 153 0 0
0.0174 0.0875 -0.5750 0.259 -0.966 0.006 159 155 152 0 0
0.0985 0.0901 -0.7503 0.650 -0.600 0.467 65 39 26 0 0
0.1012 0.0901 -0.7524 0.757 -0.638 0.143 65 39 26 0 0
0.1181 0.0905 -0.7839 0.943 -0.199 -0.266 68 42 29 0 0
0.1191 0.0906 -0.7867 0.997 -0.077 0.011 68 42 29 0 0
0.1314 0.0906 -0.7975 0.980 0.079 -0.180 62 36 23 0 0
0.1332 0.0906 -0.7999 0.992 0.022 -0.122 64 41 27 0 0
0.1600 0.0912 -0.8482 0.981 -0.017 0.193 68 33 18 0 0
0.1638 0.0913 -0.8527 0.983 0.185 0.012 72 37 16 0 0
0.1681 0.0920 -0.8853 0.904 -0.383 -0.192 83 58 38 0 0
0.1691 0.0920 -0.8880 0.863 -0.300 -0.406 80 55 34 0 0
0.1696 0.0922 -0.8941 0.940 -0.336 0.053 75 49 29 0 0
0.1686 0.0923 -0.8977 0.977 0.181 -0.114 74 47 28 0 0
0.1579 0.0930 -0.9187 0.930 -0.225 0.290 108 83 58 0 0
0.1609 0.0932 -0.9299 0.975 -0.166 0.145 88 61 40 0 0
0.1595 0.0933 -0.9338 0.935 -0.003 0.355 69 42 22 0 0
0.1549 0.0935 -0.9393 0.987 -0.151 0.056 60 33 16 0 0
0.2395 0.0945 -1.0484 0.961 -0.161 0.225 99 71 46 0 0
0.2414 0.0946 -1.0566 0.987 -0.084 0.134 99 71 48 0 0
0.2223 0.0961 -1.1026 0.999 0.020 0.027 48 25 13 0 0
0.0396 0.0690 0.0509 0.893 -0.094 0.439 133 120 112 0 0
0.0250 0.0721 -0.0673 0.927 -0.181 0.328 72 61 56 0 0
0.0735 0.0715 -0.0835 0.793 -0.608 -0.037 77 52 41 0 0
0.1602 0.0718 -0.1619 0.740 -0.670 -0.059 66 48 41 0 0
0.1245 0.0731 -0.1908 0.638 -0.378 0.671 71 54 44 0 0
0.1095 0.0745 -0.2362 0.558 -0.539 -0.631 72 52 41 0 0
0.1016 0.0751 -0.2548 0.589 -0.735 -0.335 75 53 41 0 0
0.0668 0.0784 -0.3656 0.357 -0.721 0.594 47 32 25 0 0
0.1580 0.0781 -0.4224 0.925 -0.366 -0.099 75 38 18 0 0
0.1503 0.0785 -0.4330 0.876 -0.377 -0.301 80 49 32 0 0
0.0929 0.0872 -0.7493 0.930 0.034 0.365 66 40 27 0 0
0.0981 0.0873 -0.7601 0.818 -0.116 0.563 66 40 27 0 0
0.0915 0.0876 -0.7658 0.511 -0.540 0.669 70 44 31 0 0
0.1021 0.0874 -0.7649 0.872 0.489 -0.025 72 45 33 0 0
0.1003 0.0875 -0.7688 0.911 0.105 -0.398 71 44 33 0 0
0.1321 0.0874 -0.7909 0.999 -0.044 -0.022 74 48 36 0 0
0.1315 0.0877 -0.8038 0.839 -0.469 0.276 68 44 32 0 0
0.1662 0.0882 -0.8517 0.988 -0.154 0.006 72 36 16 0 0
0.1661 0.0883 -0.8549 0.909 -0.404 0.105 82 42 20 0 0
0.1664 0.0884 -0.8578 0.909 -0.404 0.105 87 51 26 0 0
0.1586 0.0903 -0.9343 0.975 -0.132 0.181 69 41 22 0 0
0.1545 0.0906 -0.9395 0.987 -0.151 0.056 57 30 14 0 0
0.2227 0.0930 -1.0961 0.922 -0.135 -0.362 42 21 14 0 0
0.2391 0.0932 -1.1176 0.988 -0.137 0.071 93 64 37 0 0
0.0403 0.0661 0.0450 0.804 -0.550 0.226 84 45 19 0 0
0.0337 0.0688 -0.0612 0.794 0.131 -0.594 177 180 182 0 0
0.0235 0.0691 -0.0674 0.867 -0.295 0.402 80 73 70 0 0
0.1670 0.0685 -0.1473 0.963 0.268 0.032 73 47 34 0 0
0.1591 0.0690 -0.1620 0.772 -0.563 -0.295 67 49 42 0 0
0.1613 0.0690 -0.1647 0.650 -0.542 -0.532 66 49 41 0 0
0.0945 0.0839 -0.7423 0.764 0.508 0.397 68 42 29 0 0
0.0881 0.0844 -0.7575 0.891 0.165 -0.423 66 40 27 0 0
0.0953 0.0846 -0.7708 0.476 -0.336 0.813 67 40 29 0 0
0.1596 0.0848 -0.8295 0.943 -0.296 0.153 70 41 24 0 0
0.1584 0.0872 -0.9280 0.995 0.034 -0.089 98 68 45 0 0
0.1581 0.0873 -0.9314 0.988 -0.144 -0.046 81 52 32 0 0
0.1540 0.0876 -0.9397 0.987 -0.151 0.056 55 26 16 0 0
0.2393 0.0887 -1.0516 0.961 -0.161 0.225 98 71 45 0 0
0.2409 0.0888 -1.0569 0.993 -0.045 0.106 102 74 51 0 0
0.2445 0.0905 -1.1300 0.995 -0.058 0.085 96 65 44 0 0
0.2342 0.0911 -1.1460 0.989 -0.030 0.145 91 61 41 0 0
0.0436 0.0642 -0.0020 0.986 -0.156 -0.055 58 25 8 0 0
0.0433 0.0654 -0.0521 0.921 -0.386 -0.054 179 180 182 0 0
0.0797 0.0658 -0.0951 0.561 -0.147 0.815 78 54 46 0 0
0.0806 0.0659 -0.0979 0.600 -0.128 0.790 79 54 47 0 0
0.1541 0.0657 -0.1398 0.997 0.064 0.038 78 49 31 0 0
0.1651 0.0656 -0.1447 0.699 -0.670 0.252 73 47 33 0 0
0.1659 0.0657 -0.1474 0.972 -0.083 -0.220 73 48 35 0 0
0.1576 0.0664 -0.1707 0.831 -0.430 -0.354 70 53 46 0 0
0.1459 0.0667 -0.1774 0.700 -0.345 -0.625 70 53 46 0 0
0.1211 0.0674 -0.1883 0.992 -0.027 -0.124 71 54 47 0 0
0.1212 0.0674 -0.1912 0.790 -0.016 0.613 72 55 46 0 0
0.1209 0.0680 -0.2145 0.741 0.198 -0.642 71 53 41 0 0
0.1030 0.0686 -0.2282 0.853 0.129 -0.506 72 51 40 0 0
0.1056 0.0686 -0.2309 0.749 -0.422 -0.511 74 52 41 0 0
0.1037 0.0687 -0.2340 0.776 -0.591 -0.220 76 54 43 0 0
0.1030 0.0688 -0.2371 0.840 -0.534 -0.097 78 56 45 0 0
0.1010 0.0689 -0.2402 0.728 -0.536 -0.427 78 58 47 0 0
0.0921 0.0698 -0.2710 0.661 -0.649 -0.376 76 56 45 0 0
0.1521 0.0726 -0.4297 0.860 -0.354 0.368 82 48 28 0 0
0.0114 0.0808 -0.6845 0.039 -0.985 0.168 174 171 169 0 0
0.0926 0.0813 -0.7590 0.754 -0.219 0.619 67 40 29 0 0
0.2303 0.0849 -1.0068 0.783 -0.369 0.500 70 32 9 0 0
0.2308 0.0850 -1.0097 0.890 -0.425 -0.163 71 33 10 0 0
0.0361 0.0621 -0.0346 0.938 -0.346 -0.018 55 27 11 0 0
0.0360 0.0622 -0.0375 0.938 -0.346 -0.018 56 27 13 0 0
0.0325 0.0631 -0.0763 0.386 -0.542 0.747 94 76 67 0 0
0.0716 0.0628 -0.0867 0.787 -0.529 0.317 82 61 50 0 0
0.0742 0.0628 -0.0895 0.696 -0.447 0.561 83 62 51 0 0
0.0818 0.0629 -0.0950 0.495 -0.230 0.838 82 59 51 0 0
0.1253 0.0643 -0.1851 0.876 0.183 -0.447 71 54 47 0 0
0.1229 0.0644 -0.1882 0.709 0.593 -0.383 74 57 50 0 0
0.1207 0.0645 -0.1913 0.901 0.433 -0.009 75 58 49 0 0
0.0696 0.0676 -0.2923 0.688 -0.645 -0.332 79 60 50 0 0
0.0750 0.0677 -0.2975 0.423 -0.843 0.332 78 59 49 0 0
0.0937 0.0680 -0.3217 0.644 -0.025 -0.764 88 60 39 0 0
0.0270 0.0696 -0.3511 0.574 0.005 -0.819 157 152 148 0 0
0.0218 0.0698 -0.3551 0.536 -0.263 -0.802 143 138 135 0 0
0.0210 0.0699 -0.3584 0.438 -0.897 -0.066 148 144 141 0 0
0.1548 0.0697 -0.4321 0.886 -0.275 -0.375 82 50 32 0 0
0.0837 0.0784 -0.7625 0.811 -0.537 0.233 69 42 31 0 0
0.0846 0.0785 -0.7654 0.801 -0.560 0.210 69 42 31 0 0
0.0875 0.0785 -0.7675 0.653 -0.697 0.297 67 40 29 0 0
0.1471 0.0793 -0.8414 0.517 0.676 0.526 76 47 29 0 0
0.2240 0.0819 -0.9979 0.876 0.313 0.368 71 36 13 0 0
0.2321 0.0820 -1.0090 0.838 -0.416 -0.353 70 32 9 0 0
0.0359 0.0573 0.0448 0.774 -0.587 0.236 131 113 103 0 0
0.0369 0.0580 0.0155 0.997 -0.062 -0.045 55 24 6 0 0
0.0395 0.0581 0.0096 0.990 0.097 0.100 56 24 6 0 0
0.0401 0.0582 0.0037 0.974 0.084 0.209 59 26 7 0 0
0.0353 0.0591 -0.0317 0.861 -0.508 -0.013 50 22 8 0 0
0.0347 0.0592 -0.0347 0.875 -0.477 -0.084 50 22 8 0 0
0.0345 0.0592 -0.0376 0.875 -0.477 -0.084 49 23 9 0 0
0.1481 0.0606 -0.1603 0.528 -0.549 0.648 71 54 48 0 0
0.1406 0.0609 -0.1694 0.481 -0.626 -0.614 72 55 48 0 0
0.1408 0.0610 -0.1752 0.562 -0.633 -0.532 72 55 48 0 0
0.1440 0.0610 -0.1777 0.505 -0.749 -0.430 72 55 48 0 0
0.1226 0.0614 -0.1825 0.961 0.274 0.030 73 56 49 0 0
0.1243 0.0615 -0.1853 0.894 0.313 -0.321 70 53 46 0 0
0.1232 0.0616 -0.1883 0.835 0.471 -0.285 76 59 51 0 0
0.1214 0.0616 -0.1913 0.998 0.010 0.064 80 63 54 0 0
0.1203 0.0617 -0.1944 0.739 -0.539 0.403 74 57 47 0 0
0.0955 0.0627 -0.2233 0.869 -0.477 0.135 74 54 45 0 0
0.0958 0.0628 -0.2262 0.619 -0.736 -0.276 74 54 46 0 0
0.0679 0.0648 -0.2986 0.336 -0.762 0.553 90 73 66 0 0
0.0683 0.0649 -0.3016 0.429 -0.568 0.702 88 70 61 0 0
0.0701 0.0649 -0.3044 0.429 -0.455 0.781 86 67 56 0 0
0.0857 0.0651 -0.3201 0.366 -0.930 -0.016 92 64 43 0 0
0.0768 0.0653 -0.3245 0.717 -0.695 0.056 90 64 45 0 0
0.0129 0.0670 -0.3599 0.449 -0.891 -0.064 178 178 180 0 0
0.0124 0.0670 -0.3631 0.317 -0.929 0.191 178 179 181 0 0
0.0197 0.0670 -0.3649 0.193 -0.875 0.444 138 137 137 0 0
0.1181 0.0666 -0.4043 0.362 -0.619 0.697 84 60 48 0 0
0.0880 0.0755 -0.7705 0.557 -0.762 0.329 67 40 29 0 0
0.0887 0.0756 -0.7767 0.910 -0.068 0.409 66 39 28 0 0
0.0838 0.0758 -0.7818 0.952 0.162 0.261 66 39 28 0 0
0.1463 0.0763 -0.8386 0.303 0.475 0.826 80 51 34 0 0
0.1645 0.0787 -0.9537 0.661 -0.713 0.232 79 58 50 0 0
0.2161 0.0792 -1.0022 0.985 0.046 0.164 71 36 13 0 0
0.0352 0.0543 0.0447 0.875 -0.474 -0.099 164 155 153 0 0
0.0344 0.0544 0.0418 0.727 -0.642 0.246 117 91 76 0 0
0.0370 0.0559 -0.0229 0.913 -0.063 0.404 56 24 7 0 0
0.0400 0.0563 -0.0436 0.900 -0.041 0.435 175 173 170 0 0
0.0414 0.0564 -0.0465 0.900 -0.041 0.435 180 181 181 0 0
0.1427 0.0577 -0.1551 0.681 0.641 0.354 74 56 47 0 0
0.1503 0.0576 -0.1573 0.645 0.399 0.651 72 54 47 0 0
0.1452 0.0578 -0.1606 0.497 -0.515 0.698 73 54 49 0 0
0.1295 0.0583 -0.1762 0.647 -0.061 -0.760 73 56 49 0 0
0.1239 0.0585 -0.1825 0.723 -0.677 -0.140 73 56 49 0 0
0.1228 0.0586 -0.1855 0.591 -0.711 -0.380 72 55 48 0 0
0.0943 0.0597 -0.2176 0.812 -0.187 0.553 74 55 45 0 0
0.0793 0.0623 -0.3242 0.350 -0.912 -0.215 90 67 50 0 0
0.0091 0.0641 -0.3669 0.246 -0.862 0.442 178 179 180 0 0
0.1295 0.0637 -0.4110 0.678 -0.058 0.732 99 74 60 0 0
0.0801 0.0723 -0.7608 0.918 -0.074 0.390 73 46 35 0 0
0.0825 0.0724 -0.7663 0.866 -0.407 0.290 71 45 33 0 0
0.0838 0.0725 -0.7722 0.773 -0.532 0.345 70 43 32 0 0
0.0907 0.0726 -0.7791 0.940 0.152 0.306 66 39 28 0 0
0.0876 0.0727 -0.7836 0.847 -0.080 0.525 66 39 28 0 0
0.0892 0.0728 -0.7862 0.847 -0.080 0.525 66 39 28 0 0
0.0915 0.0728 -0.7884 0.774 -0.106 0.624 66 39 28 0 0
0.1002 0.0730 -0.8010 0.750 -0.431 0.501 71 44 33 0 0
0.1495 0.0746 -0.8973 0.906 -0.415 -0.088 79 53 37 0 0
0.1484 0.0747 -0.9011 0.894 -0.411 0.177 76 50 34 0 0
0.0324 0.0515 0.0418 0.796 -0.585 0.153 146 133 127 0 0
0.0360 0.0520 0.0153 0.970 -0.148 -0.193 57 24 7 0 0
0.0378 0.0521 0.0094 0.958 -0.224 0.178 58 25 8 0 0
0.0405 0.0533 -0.0436 0.895 0.201 0.398 181 180 183 0 0
0.0416 0.0534 -0.0466 0.922 0.086 0.377 180 181 183 0 0
0.0399 0.0535 -0.0496 0.910 -0.329 0.254 180 181 183 0 0
0.1380 0.0551 -0.1669 0.781 0.237 0.578 70 56 47 0 0
0.1398 0.0552 -0.1697 0.815 0.050 -0.577 70 56 47 0 0
0.1196 0.0557 -0.1829 0.467 -0.862 -0.197 74 57 50 0 0
0.0872 0.0566 -0.2095 0.982 0.108 0.156 73 54 46 0 0
0.0920 0.0566 -0.2120 0.699 -0.668 -0.255 76 57 50 0 0
0.0915 0.0567 -0.2150 0.599 -0.791 -0.126 79 60 53 0 0
0.0596 0.0592 -0.3091 0.346 -0.679 0.647 86 69 57 0 0
0.0704 0.0594 -0.3226 0.300 -0.954 -0.008 96 69 53 0 0
0.0591 0.0596 -0.3305 0.422 -0.897 0.132 102 85 77 0 0
0.0439 0.0610 -0.3856 0.349 -0.763 0.543 109 92 85 0 0
0.0844 0.0608 -0.3931 0.135 -0.255 0.957 68 48 40 0 0
0.1417 0.0611 -0.4323 0.731 -0.603 -0.318 85 56 39 0 0
0.0822 0.0692 -0.7600 0.805 -0.271 0.528 75 50 38 0 0
0.0865 0.0691 -0.7615 0.826 0.341 0.449 74 50 38 0 0
0.1361 0.0705 -0.8431 0.376 -0.604 0.703 79 52 33 0 0
0.1587 0.0702 -0.8394 0.589 0.805 0.068 77 48 27 0 0
0.1484 0.0715 -0.8915 0.955 0.175 0.238 83 57 40 0 0
0.1490 0.0716 -0.8976 0.949 0.184 -0.256 78 52 37 0 0
0.1496 0.0717 -0.9005 0.961 -0.269 -0.062 76 50 35 0 0
0.2296 0.0740 -1.0384 0.984 -0.168 -0.055 94 63 37 0 0
0.2283 0.0742 -1.0455 0.964 -0.196 0.177 98 68 44 0 0
0.2234 0.0751 -1.0861 0.900 -0.428 0.077 62 38 22 0 0
0.2359 0.0763 -1.1448 0.849 -0.044 0.526 87 60 42 0 0
0.2373 0.0764 -1.1471 0.849 -0.044 0.526 69 46 32 0 0
0.0319 0.0485 0.0417 0.902 -0.155 -0.403 178 177 179 0 0
0.0311 0.0486 0.0388 0.920 -0.387 -0.062 138 124 120 0 0
0.0345 0.0495 -0.0024 0.993 0.043 0.107 61 28 9 0 0
0.0316 0.0496 -0.0083 0.993 -0.021 -0.119 62 29 9 0 0
0.0355 0.0498 -0.0172 0.988 -0.151 -0.009 65 31 11 0 0
0.0351 0.0499 -0.0201 0.992 0.124 -0.019 65 30 10 0 0
0.1475 0.0515 -0.1378 0.741 -0.542 -0.397 79 47 27 0 0
0.1298 0.0526 -0.1763 0.487 -0.399 -0.777 75 58 51 0 0
0.0912 0.0535 -0.2033 0.707 -0.513 -0.487 75 57 49 0 0
0.0879 0.0537 -0.2125 0.532 -0.811 -0.242 81 64 56 0 0
0.0862 0.0538 -0.2156 0.473 -0.872 -0.130 82 66 58 0 0
0.0408 0.0555 -0.2722 0.250 -0.944 -0.213 111 102 99 0 0
0.0526 0.0567 -0.3317 0.355 -0.934 0.043 106 92 89 0 0
0.0511 0.0569 -0.3380 0.551 0.068 0.831 183 180 182 0 0
0.0301 0.0580 -0.3820 0.252 -0.804 0.538 118 113 111 0 0
0.0402 0.0580 -0.3863 0.433 -0.443 0.785 93 81 78 0 0
0.0437 0.0581 -0.3888 0.540 -0.490 0.684 90 78 77 0 0
0.0938 0.0578 -0.3974 0.269 -0.209 0.940 77 55 46 0 0
0.1391 0.0582 -0.4329 0.731 -0.603 -0.318 83 55 38 0 0
0.0988 0.0671 -0.8112 0.592 -0.194 -0.783 72 45 34 0 0
0.1315 0.0674 -0.8388 0.869 0.494 -0.035 81 54 36 0 0
0.1497 0.0684 -0.8877 0.977 -0.034 0.211 83 57 41 0 0
0.1494 0.0685 -0.8911 0.972 0.158 -0.173 84 58 41 0 0
0.1477 0.0686 -0.8982 0.963 -0.203 -0.178 76 50 35 0 0
0.1470 0.0687 -0.9018 0.926 -0.353 0.132 78 52 37 0 0
0.2273 0.0711 -1.0398 0.999 -0.047 0.023 97 66 40 0 0
0.2374 0.0733 -1.1407 0.967 -0.250 0.040 91 64 42 0 0
0.2374 0.0734 -1.1439 0.892 -0.430 0.138 81 56 40 0 0
0.0302 0.0456 0.0387 0.918 -0.392 -0.069 179 176 175 0 0
0.0300 0.0457 0.0358 0.918 -0.392 -0.069 141 130 124 0 0
0.0333 0.0460 0.0211 0.651 -0.739 0.176 62 27 9 0 0
0.0343 0.0465 -0.0025 0.982 -0.094 0.166 61 29 9 0 0
0.0348 0.0466 -0.0055 0.982 -0.094 0.166 63 30 11 0 0
0.1403 0.0492 -0.1583 0.536 0.372 -0.758 77 62 55 0 0
0.1028 0.0502 -0.1905 0.445 -0.502 -0.742 78 61 54 0 0
0.0990 0.0503 -0.1937 0.489 -0.556 -0.672 76 59 52 0 0
0.0939 0.0504 -0.1972 0.581 -0.547 -0.602 76 59 51 0 0
0.0896 0.0506 -0.2035 0.705 -0.609 -0.363 78 61 54 0 0
0.0880 0.0507 -0.2066 0.569 -0.721 -0.396 78 61 54 0 0
0.0856 0.0507 -0.2098 0.491 -0.794 -0.359 80 65 57 0 0
0.0711 0.0511 -0.2203 0.358 -0.887 -0.293 82 68 59 0 0
0.0348 0.0523 -0.2638 0.307 -0.913 -0.268 126 119 119 0 0
0.0341 0.0524 -0.2670 0.246 -0.943 -0.224 145 138 139 0 0
0.0427 0.0535 -0.3179 0.185 -0.976 0.117 105 88 81 0 0
0.0336 0.0551 -0.3876 0.475 -0.528 0.704 94 81 79 0 0
0.0381 0.0551 -0.3899 0.736 -0.379 0.561 87 73 71 0 0
0.0735 0.0549 -0.3923 0.138 0.077 0.987 75 60 56 0 0
0.0971 0.0549 -0.3998 0.512 -0.404 0.758 81 59 48 0 0
0.1001 0.0634 -0.7819 0.917 0.391 0.085 70 43 32 0 0
0.1328 0.0644 -0.8383 0.814 0.296 -0.499 84 57 39 0 0
0.1301 0.0645 -0.8427 0.872 0.402 -0.280 83 56 37 0 0
0.1406 0.0669 -0.9529 0.341 -0.323 0.883 70 48 38 0 0
0.2146 0.0675 -1.0030 0.718 0.681 0.145 74 38 14 0 0
0.2272 0.0682 -1.0398 0.984 0.139 -0.108 96 65 39 0 0
0.2311 0.0688 -1.0658 0.970 -0.224 -0.095 99 71 47 0 0
0.2290 0.0689 -1.0733 0.892 -0.315 0.325 90 65 42 0 0
0.2296 0.0690 -1.0761 0.979 -0.141 0.148 81 54 37 0 0
0.2298 0.0691 -1.0791 0.993 -0.088 0.074 73 43 28 0 0
0.2254 0.0695 -1.0975 0.782 -0.218 0.584 54 29 17 0 0
0.2352 0.0704 -1.1421 0.834 -0.464 0.300 87 61 41 0 0
0.2361 0.0705 -1.1447 0.834 -0.464 0.300 74 51 36 0 0
0.0289 0.0428 0.0328 0.960 -0.084 -0.266 158 146 142 0 0
0.0279 0.0428 0.0299 0.908 -0.399 -0.127 117 95 79 0 0
0.0279 0.0429 0.0269 0.667 -0.733 0.135 99 67 45 0 0
0.0285 0.0430 0.0240 0.667 -0.733 0.135 86 48 24 0 0
0.0299 0.0430 0.0210 0.651 -0.739 0.176 74 37 15 0 0
0.0301 0.0431 0.0181 0.695 -0.698 0.172 69 34 14 0 0
0.0309 0.0431 0.0151 0.695 -0.698 0.172 67 33 14 0 0
0.0209 0.0439 -0.0174 0.995 0.047 -0.084 66 32 11 0 0
0.0181 0.0440 -0.0204 0.822 0.504 0.265 76 41 20 0 0
0.0764 0.0455 -0.1016 0.163 -0.259 0.952 101 82 75 0 0
0.1010 0.0455 -0.1091 0.534 0.497 0.684 100 81 74 0 0
0.1429 0.0460 -0.1439 0.571 -0.567 -0.593 76 47 30 0 0
0.1269 0.0464 -0.1566 0.875 0.113 -0.470 78 64 55 0 0
0.1304 0.0465 -0.1620 0.695 -0.020 -0.718 76 61 54 0 0
0.1258 0.0467 -0.1682 0.868 0.414 -0.273 74 59 54 0 0
0.1099 0.0470 -0.1811 0.562 -0.708 -0.427 77 61 54 0 0
0.1116 0.0471 -0.1868 0.471 -0.254 -0.845 77 62 55 0 0
0.1064 0.0472 -0.1902 0.498 -0.263 -0.826 78 62 55 0 0
0.0958 0.0474 -0.1941 0.583 -0.408 -0.703 78 63 56 0 0
0.0924 0.0475 -0.1974 0.594 -0.532 -0.604 78 62 55 0 0
0.0772 0.0479 -0.2107 0.383 -0.815 -0.435 80 65 61 0 0
0.0368 0.0520 -0.3902 0.878 -0.146 0.457 83 71 68 0 0
0.0419 0.0521 -0.3923 0.434 -0.001 0.901 83 71 67 0 0
0.0514 0.0520 -0.3936 0.165 -0.522 0.837 82 68 63 0 0
0.1364 0.0524 -0.4336 0.618 -0.664 -0.420 86 61 46 0 0
0.1300 0.0526 -0.4380 0.553 -0.512 -0.657 90 68 55 0 0
0.1157 0.0529 -0.4503 0.615 -0.706 -0.350 175 173 173 0 0
0.0589 0.0601 -0.7625 0.098 -0.926 0.363 86 66 57 0 0
0.0894 0.0605 -0.7894 0.659 -0.472 0.586 73 46 34 0 0
0.1111 0.0612 -0.8253 0.903 0.228 0.365 78 53 39 0 0
0.1115 0.0613 -0.8284 0.354 -0.123 0.927 79 53 40 0 0
0.1230 0.0615 -0.8426 0.678 -0.401 -0.616 85 58 43 0 0
0.1180 0.0617 -0.8480 0.674 -0.385 -0.631 86 59 42 0 0
0.2167 0.0644 -0.9987 0.723 0.659 0.207 80 46 23 0 0
0.2265 0.0647 -1.0121 0.947 0.260 0.187 74 38 12 0 0
0.2310 0.0657 -1.0595 0.994 -0.038 0.098 98 70 46 0 0
0.2281 0.0660 -1.0738 0.892 -0.315 0.325 90 62 42 0 0
0.2291 0.0661 -1.0764 0.983 -0.100 0.155 79 51 33 0 0
0.2296 0.0661 -1.0792 0.991 -0.093 0.097 69 42 26 0 0
0.2191 0.0665 -1.0918 0.989 0.087 -0.122 48 25 13 0 0
0.2285 0.0664 -1.0893 0.959 0.132 -0.250 50 26 14 0 0
0.2375 0.0673 -1.1343 0.825 -0.561 0.069 92 64 41 0 0
0.2358 0.0675 -1.1417 0.894 -0.446 0.036 85 60 42 0 0
0.0251 0.0400 0.0240 0.825 -0.566 -0.010 100 75 58 0 0
0.0264 0.0401 0.0210 0.695 -0.698 0.172 86 55 34 0 0
0.0272 0.0401 0.0180 0.695 -0.698 0.172 83 50 28 0 0
0.0268 0.0402 0.0151 0.751 -0.657 0.062 82 48 26 0 0
0.0271 0.0402 0.0121 0.751 -0.657 0.062 73 38 17 0 0
0.0219 0.0408 -0.0145 0.991 0.127 -0.045 75 44 23 0 0
0.0210 0.0409 -0.0175 0.995 0.047 -0.084 76 49 30 0 0
0.0972 0.0425 -0.1065 0.199 -0.112 0.974 102 82 75 0 0
0.1035 0.0426 -0.1091 0.527 0.016 0.849 102 84 76 0 0
0.1124 0.0426 -0.1115 0.362 -0.191 0.912 104 82 71 0 0
0.1290 0.0429 -0.1278 0.765 -0.624 0.161 100 66 42 0 0
0.1400 0.0430 -0.1356 0.475 -0.535 0.699 86 54 34 0 0
0.1279 0.0435 -0.1565 0.950 0.217 -0.224 79 65 56 0 0
0.1231 0.0436 -0.1598 0.689 0.588 -0.425 78 63 56 0 0
0.0917 0.0445 -0.1946 0.672 -0.273 -0.688 81 67 61 0 0
0.0862 0.0447 -0.2040 0.275 -0.886 -0.375 80 66 60 0 0
0.0350 0.0490 -0.3906 0.256 -0.660 0.706 88 77 75 0 0
0.0394 0.0490 -0.3929 0.301 -0.577 0.759 85 74 71 0 0
0.0842 0.0489 -0.3964 0.274 -0.436 0.857 80 60 51 0 0
0.0887 0.0490 -0.3986 0.254 -0.544 0.800 79 57 46 0 0
0.1099 0.0492 -0.4124 0.424 -0.797 0.430 89 63 48 0 0
0.1152 0.0494 -0.4233 0.167 -0.910 0.379 83 50 31 0 0
0.1321 0.0496 -0.4346 0.605 -0.684 -0.407 84 61 46 0 0
0.1118 0.0499 -0.4482 0.506 -0.630 -0.589 136 130 126 0 0
0.1114 0.0500 -0.4514 0.640 -0.747 -0.177 182 181 182 0 0
0.0845 0.0574 -0.7849 0.531 0.832 0.161 78 52 39 0 0
0.0846 0.0575 -0.7881 0.457 0.844 0.279 77 50 38 0 0
0.0864 0.0575 -0.7906 0.337 -0.637 0.694 76 49 37 0 0
0.0890 0.0575 -0.7928 0.368 -0.716 0.593 74 47 36 0 0
0.1219 0.0583 -0.8335 0.695 -0.585 0.418 81 55 38 0 0
0.1216 0.0584 -0.8368 0.869 -0.491 0.057 80 53 37 0 0
0.1214 0.0584 -0.8401 0.734 -0.591 -0.334 83 55 41 0 0
0.1195 0.0585 -0.8441 0.624 -0.551 -0.554 84 56 42 0 0
0.2161 0.0615 -0.9960 0.639 0.473 0.607 77 43 24 0 0
0.2183 0.0615 -0.9979 0.729 0.562 0.391 77 41 19 0 0
0.2224 0.0637 -1.0993 0.893 -0.147 0.426 56 29 17 0 0
0.2294 0.0645 -1.1362 0.900 -0.345 0.267 94 65 40 0 0
0.2199 0.0648 -1.1486 0.972 -0.113 -0.207 92 64 43 0 0
0.2193 0.0649 -1.1521 0.988 -0.153 -0.014 82 59 41 0 0
0.0715 0.0396 -0.1020 0.122 -0.343 0.931 103 85 79 0 0
0.0868 0.0396 -0.1042 0.132 -0.331 0.934 104 86 79 0 0
0.1269 0.0406 -0.1538 0.827 -0.187 -0.530 81 67 57 0 0
0.0463 0.0422 -0.2171 0.344 -0.879 -0.329 98 90 85 0 0
0.0426 0.0422 -0.2205 0.354 -0.872 -0.338 105 98 95 0 0
0.0359 0.0460 -0.3936 0.271 -0.603 0.751 89 77 74 0 0
0.0360 0.0461 -0.3967 0.164 -0.446 0.880 84 70 65 0 0
0.0823 0.0459 -0.3969 0.228 -0.517 0.825 82 62 53 0 0
0.1038 0.0461 -0.4077 0.704 0.158 0.693 85 59 45 0 0
0.0957 0.0465 -0.4245 0.394 -0.888 0.239 85 52 35 0 0
0.0976 0.0466 -0.4272 0.257 -0.704 0.662 84 51 32 0 0
0.1230 0.0467 -0.4367 0.470 -0.724 -0.504 91 69 54 0 0
0.1107 0.0469 -0.4455 0.514 -0.701 -0.495 100 90 82 0 0
0.1078 0.0470 -0.4492 0.505 -0.699 -0.506 159 157 153 0 0
0.1040 0.0471 -0.4531 0.505 -0.699 -0.506 181 181 182 0 0
0.0868 0.0544 -0.7905 0.542 -0.500 0.676 76 52 38 0 0
0.0863 0.0545 -0.7939 0.786 -0.395 0.475 77 51 38 0 0
0.1035 0.0552 -0.8286 0.109 -0.408 0.907 75 47 34 0 0
0.1191 0.0553 -0.8347 0.811 -0.302 0.500 81 55 38 0 0
0.1210 0.0554 -0.8371 0.904 0.104 0.414 80 53 37 0 0
0.2068 0.0584 -0.9885 0.447 -0.597 0.666 97 79 69 0 0
0.2169 0.0586 -0.9987 0.837 -0.435 0.332 75 39 17 0 0
0.2163 0.0587 -1.0021 0.889 -0.444 -0.115 75 38 17 0 0
0.2186 0.0618 -1.1494 0.985 -0.167 -0.048 93 66 43 0 0
0.2332 0.0618 -1.1497 0.873 -0.488 0.029 84 70 56 0 0
0.0663 0.0367 -0.1023 0.105 -0.382 0.918 107 90 85 0 0
0.0973 0.0368 -0.1095 0.258 -0.434 0.863 106 88 80 0 0
0.1332 0.0376 -0.1477 0.435 -0.899 0.059 79 57 43 0 0
0.1307 0.0376 -0.1507 0.536 -0.797 -0.278 83 66 56 0 0
0.0955 0.0384 -0.1826 0.470 -0.538 -0.699 84 69 66 0 0
0.0319 0.0430 -0.3944 0.311 -0.564 0.765 90 78 75 0 0
0.0355 0.0430 -0.3969 0.224 -0.247 0.943 89 75 70 0 0
0.0909 0.0430 -0.4013 0.252 -0.560 0.789 83 62 50 0 0
0.1013 0.0430 -0.4022 0.203 -0.278 0.939 85 63 50 0 0
0.1120 0.0436 -0.4302 0.583 -0.325 0.745 86 57 35 0 0
0.1127 0.0439 -0.4421 0.414 -0.704 -0.578 99 84 71 0 0
0.1057 0.0440 -0.4467 0.427 -0.670 -0.607 121 113 106 0 0
0.1024 0.0441 -0.4505 0.518 -0.784 -0.342 177 176 174 0 0
0.0788 0.0514 -0.7937 0.143 -0.829 0.541 77 54 40 0 0
0.0811 0.0515 -0.7960 0.606 -0.642 0.470 78 53 40 0 0
0.0861 0.0515 -0.7972 0.510 -0.414 0.754 78 52 39 0 0
0.1079 0.0523 -0.8332 0.027 -0.685 0.728 79 53 39 0 0
0.1420 0.0526 -0.8533 0.853 -0.413 0.319 84 52 30 0 0
0.1429 0.0527 -0.8561 0.793 -0.577 0.194 91 61 37 0 0
0.1436 0.0528 -0.8589 0.793 -0.577 0.194 92 65 42 0 0
0.1237 0.0545 -0.9388 0.899 -0.252 0.357 73 45 31 0 0
0.1619 0.0554 -0.9838 0.787 -0.110 -0.607 81 63 53 0 0
0.2169 0.0559 -1.0081 0.838 -0.217 0.502 73 35 10 0 0
0.2177 0.0589 -1.1499 0.965 -0.232 0.126 90 65 42 0 0
0.2181 0.0590 -1.1529 0.939 -0.335 0.076 74 53 35 0 0
0.2182 0.0590 -1.1560 0.902 -0.416 0.113 73 55 41 0 0
0.0589 0.0337 -0.1027 0.104 -0.371 0.923 113 98 93 0 0
0.1190 0.0344 -0.1315 0.516 0.336 0.788 92 60 39 0 0
0.1162 0.0344 -0.1346 0.663 -0.455 0.595 89 58 37 0 0
0.0574 0.0399 -0.3957 0.061 -0.474 0.878 88 73 69 0 0
0.1166 0.0407 -0.4292 0.753 -0.193 0.629 85 54 33 0 0
0.1056 0.0410 -0.4437 0.424 -0.712 -0.560 109 94 84 0 0
0.0997 0.0411 -0.4481 0.476 -0.669 -0.571 147 141 138 0 0
0.0987 0.0411 -0.4514 0.559 -0.763 -0.325 182 183 182 0 0
0.0683 0.0484 -0.7947 0.266 -0.897 0.352 78 56 42 0 0
0.0725 0.0484 -0.7963 0.209 -0.887 0.412 78 54 41 0 0
0.0789 0.0484 -0.7969 0.225 -0.869 0.440 77 54 40 0 0
0.0813 0.0485 -0.7992 0.214 -0.788 0.577 77 52 39 0 0
0.1166 0.0495 -0.8486 0.158 -0.901 0.403 84 54 36 0 0
0.2246 0.0537 -1.0413 0.905 -0.189 0.381 99 69 45 0 0
0.2229 0.0541 -1.0612 0.949 -0.299 -0.103 99 72 45 0 0
0.2215 0.0542 -1.0682 0.963 -0.268 0.031 100 73 46 0 0
0.2287 0.0558 -1.1430 0.866 -0.164 0.473 86 62 43 0 0
0.0557 0.0308 -0.1029 0.080 -0.382 0.921 119 106 102 0 0
0.0709 0.0308 -0.1052 0.111 -0.400 0.910 115 101 93 0 0
0.1015 0.0311 -0.1153 0.875 0.114 0.470 104 75 57 0 0
0.0971 0.0374 -0.4183 0.583 -0.773 -0.252 87 58 41 0 0
0.1039 0.0379 -0.4411 0.425 -0.735 -0.528 108 90 78 0 0
0.0952 0.0381 -0.4492 0.521 -0.807 -0.277 169 166 164 0 0
0.0236 0.0451 -0.7927 0.042 -0.907 0.420 101 91 87 0 0
0.0284 0.0452 -0.7942 0.050 -0.895 0.443 98 85 82 0 0
0.0786 0.0456 -0.8100 0.246 -0.647 0.722 78 52 39 0 0
0.1095 0.0463 -0.8389 0.417 -0.847 0.331 79 51 36 0 0
0.1198 0.0471 -0.8793 0.792 -0.492 -0.362 94 73 60 0 0
0.1176 0.0472 -0.8836 0.734 -0.441 -0.517 94 74 62 0 0
0.1709 0.0495 -0.9886 0.630 0.598 -0.495 89 72 64 0 0
0.2193 0.0524 -1.1202 0.946 -0.285 0.155 99 68 39 0 0
0.2287 0.0529 -1.1429 0.907 -0.379 0.185 79 56 39 0 0
0.1015 0.0282 -0.1154 0.920 -0.030 0.390 105 77 60 0 0
0.1045 0.0283 -0.1181 0.671 0.147 0.726 100 69 48 0 0
0.1166 0.0287 -0.1347 0.824 -0.554 0.118 95 64 43 0 0
0.0880 0.0342 -0.4081 0.523 -0.851 -0.049 87 62 49 0 0
0.0979 0.0343 -0.4091 0.873 -0.337 -0.351 92 64 50 0 0
0.0971 0.0344 -0.4123 0.953 -0.182 -0.241 91 63 49 0 0
0.0963 0.0344 -0.4155 0.953 -0.182 -0.241 90 63 46 0 0
0.0975 0.0345 -0.4183 0.805 -0.449 -0.387 87 58 41 0 0
0.0994 0.0345 -0.4209 0.676 -0.443 -0.589 86 57 38 0 0
0.1075 0.0347 -0.4283 0.672 -0.738 -0.059 89 61 40 0 0
0.0936 0.0350 -0.4435 0.450 -0.785 -0.426 110 94 85 0 0
0.0904 0.0351 -0.4473 0.553 -0.826 0.109 133 125 122 0 0
0.0753 0.0425 -0.8082 0.153 -0.645 0.749 78 53 40 0 0
0.0769 0.0425 -0.8108 0.166 -0.492 0.855 78 52 39 0 0
0.0923 0.0429 -0.8238 0.164 -0.372 0.913 77 51 38 0 0
0.1176 0.0441 -0.8804 0.828 -0.422 -0.369 95 75 65 0 0
0.1180 0.0442 -0.8834 0.796 -0.328 -0.508 96 77 67 0 0
0.1228 0.0445 -0.8973 0.610 -0.739 -0.285 89 68 57 0 0
0.2209 0.0471 -1.0090 0.647 0.210 0.733 74 36 13 0 0
0.2177 0.0483 -1.0673 0.929 -0.355 0.106 103 75 51 0 0
0.2257 0.0498 -1.1385 0.820 -0.436 0.372 93 65 41 0 0
0.2136 0.0503 -1.1621 0.863 -0.491 0.119 116 107 99 0 0
0.2180 0.0504 -1.1657 0.680 -0.326 0.657 161 158 154 0 0
0.2167 0.0504 -1.1698 0.660 -0.308 0.685 170 169 165 0 0
0.0999 0.0253 -0.1155 0.786 -0.573 -0.234 106 79 60 0 0
0.1001 0.0254 -0.1184 0.660 -0.580 0.477 101 71 49 0 0
0.1025 0.0254 -0.1212 0.636 -0.550 0.541 102 70 48 0 0
0.1103 0.0256 -0.1294 0.462 -0.668 0.583 103 71 50 0 0
0.1146 0.0257 -0.1320 0.552 -0.745 0.374 99 68 47 0 0
0.0937 0.0313 -0.4070 0.280 -0.791 0.544 90 66 53 0 0
0.1042 0.0314 -0.4109 0.424 -0.779 0.463 91 63 47 0 0
0.1048 0.0315 -0.4168 0.719 -0.489 -0.493 88 59 41 0 0
0.1021 0.0316 -0.4204 0.718 -0.231 -0.657 87 58 38 0 0
0.0976 0.0316 -0.4244 0.948 0.305 -0.085 91 61 41 0 0
0.0904 0.0319 -0.4412 0.450 -0.785 -0.426 107 90 80 0 0
0.0869 0.0320 -0.4451 0.450 -0.785 -0.426 121 111 105 0 0
0.0862 0.0321 -0.4483 0.610 -0.749 0.257 167 165 163 0 0
0.0724 0.0393 -0.8062 0.170 -0.794 0.584 79 59 47 0 0
0.0715 0.0394 -0.8097 0.180 -0.523 0.833 77 55 43 0 0
0.0745 0.0395 -0.8118 0.139 -0.543 0.828 77 53 40 0 0
0.1164 0.0405 -0.8552 0.872 0.108 0.477 85 53 32 0 0
0.1233 0.0406 -0.8554 0.787 -0.510 0.347 85 54 31 0 0
0.1129 0.0411 -0.8825 0.923 0.060 -0.381 98 78 69 0 0
0.2141 0.0455 -1.0726 0.941 -0.336 -0.032 98 71 48 0 0
0.2135 0.0463 -1.1110 0.954 -0.262 0.146 83 43 18 0 0
0.2247 0.0469 -1.1391 0.915 -0.273 0.299 93 64 40 0 0
0.2259 0.0470 -1.1415 0.958 -0.253 0.137 85 60 38 0 0
0.2126 0.0473 -1.1628 0.888 -0.411 0.206 126 120 111 0 0
0.2133 0.0474 -1.1655 0.816 -0.264 0.515 149 145 140 0 0
0.0218 0.0217 -0.1048 0.021 -0.409 0.912 149 144 142 0 0
0.0783 0.0222 -0.1138 0.215 -0.828 0.518 111 89 78 0 0
0.1050 0.0227 -0.1269 0.308 -0.915 0.261 103 71 50 0 0
0.1091 0.0228 -0.1295 0.351 -0.934 0.062 102 70 49 0 0
0.1158 0.0228 -0.1320 0.409 -0.885 -0.222 100 69 48 0 0
0.1143 0.0229 -0.1350 0.409 -0.885 -0.222 95 65 44 0 0
0.1135 0.0230 -0.1379 0.509 -0.718 -0.475 91 63 42 0 0
0.0596 0.0280 -0.4048 0.133 -0.780 0.612 93 75 69 0 0
0.0968 0.0285 -0.4155 0.437 -0.800 0.411 91 64 44 0 0
0.0968 0.0285 -0.4186 0.647 -0.756 0.100 91 63 42 0 0
0.0956 0.0286 -0.4218 0.552 -0.803 -0.224 92 63 42 0 0
0.0985 0.0287 -0.4243 0.657 -0.749 -0.093 92 63 44 0 0
0.0815 0.0289 -0.4433 0.481 -0.867 -0.127 119 107 99 0 0
0.0705 0.0364 -0.8134 0.130 -0.543 0.830 78 56 44 0 0
0.0865 0.0367 -0.8263 0.876 -0.220 0.430 78 52 39 0 0
0.0981 0.0374 -0.8536 0.422 0.298 0.856 81 50 32 0 0
0.1040 0.0374 -0.8543 0.558 0.255 0.790 81 48 30 0 0
0.1167 0.0375 -0.8551 0.872 0.108 0.477 84 52 30 0 0
0.1202 0.0376 -0.8568 0.863 -0.449 0.231 88 58 34 0 0
0.2087 0.0428 -1.0853 0.998 0.030 -0.047 64 36 21 0 0
0.2230 0.0440 -1.1401 0.917 -0.204 0.344 95 65 43 0 0
0.2100 0.0444 -1.1644 0.827 -0.512 0.232 135 129 122 0 0
0.2125 0.0444 -1.1660 0.730 -0.279 0.624 156 152 148 0 0
0.2121 0.0445 -1.1694 0.509 -0.053 0.859 167 164 162 0 0
0.0753 0.0193 -0.1170 0.224 -0.778 0.587 113 87 70 0 0
0.0958 0.0195 -0.1188 0.532 -0.815 0.228 106 77 59 0 0
0.0979 0.0196 -0.1216 0.612 -0.782 -0.122 106 75 56 0 0
0.0974 0.0197 -0.1245 0.612 -0.782 -0.122 104 73 53 0 0
0.1024 0.0198 -0.1300 0.443 -0.894 0.064 102 71 50 0 0
0.1045 0.0199 -0.1357 0.347 -0.932 -0.103 98 68 47 0 0
0.1054 0.0200 -0.1385 0.416 -0.789 -0.453 94 67 46 0 0
0.0634 0.0251 -0.4072 0.148 -0.795 0.589 92 74 65 0 0
0.0904 0.0255 -0.4200 0.550 -0.818 0.168 93 64 45 0 0
0.0903 0.0256 -0.4230 0.536 -0.838 0.097 96 67 48 0 0
0.0914 0.0257 -0.4289 0.522 -0.849 0.083 103 77 62 0 0
0.0909 0.0258 -0.4351 0.396 -0.845 -0.360 101 82 70 0 0
0.0774 0.0260 -0.4473 0.468 -0.670 0.576 176 174 173 0 0
0.1174 0.0345 -0.8548 0.933 -0.226 0.280 88 56 33 0 0
0.1195 0.0345 -0.8571 0.919 -0.386 0.074 87 57 31 0 0
0.2014 0.0382 -1.0071 0.775 -0.631 -0.044 77 41 20 0 0
0.2093 0.0399 -1.0881 0.884 -0.238 0.403 54 27 15 0 0
0.2158 0.0401 -1.0969 0.906 0.185 0.379 68 36 18 0 0
0.2129 0.0402 -1.1018 0.908 -0.368 0.199 70 37 18 0 0
0.2114 0.0406 -1.1219 0.968 -0.252 0.009 97 62 34 0 0
0.2127 0.0409 -1.1402 0.971 -0.145 0.188 99 70 45 0 0
0.2092 0.0414 -1.1616 0.896 -0.408 0.176 119 112 103 0 0
0.2084 0.0414 -1.1654 0.793 -0.368 0.484 143 138 133 0 0
0.2120 0.0415 -1.1695 0.509 -0.053 0.859 170 166 167 0 0
0.0230 0.0157 -0.1079 0.042 -0.500 0.865 149 140 137 0 0
0.0491 0.0160 -0.1096 0.070 -0.524 0.849 127 111 105 0 0
0.0908 0.0170 -0.1396 0.583 -0.775 -0.242 97 69 48 0 0
0.0480 0.0172 -0.1693 0.276 -0.837 -0.473 113 107 104 0 0
0.0830 0.0228 -0.4338 0.400 -0.903 -0.157 106 85 73 0 0
0.0606 0.0302 -0.8208 0.233 -0.522 0.821 87 66 55 0 0
0.0664 0.0303 -0.8217 0.289 -0.558 0.778 85 63 50 0 0
0.0685 0.0304 -0.8241 0.181 -0.701 0.690 83 60 47 0 0
0.0971 0.0319 -0.8898 0.550 -0.642 -0.535 110 98 91 0 0
0.0931 0.0320 -0.8948 0.496 -0.728 -0.474 111 99 93 0 0
0.1108 0.0330 -0.9386 0.513 -0.668 0.539 72 50 37 0 0
0.1303 0.0339 -0.9712 0.838 -0.369 -0.403 76 56 45 0 0
0.1417 0.0339 -0.9686 0.798 -0.351 -0.490 78 58 47 0 0
0.2010 0.0352 -1.0073 0.667 -0.722 0.186 78 42 21 0 0
0.2067 0.0363 -1.0579 0.952 0.073 0.298 101 72 48 0 0
0.2215 0.0371 -1.0935 0.988 -0.145 0.060 68 35 18 0 0
0.2135 0.0378 -1.1302 0.922 0.089 0.377 97 66 38 0 0
0.2161 0.0379 -1.1349 0.934 0.328 0.142 100 70 42 0 0
0.2081 0.0384 -1.1624 0.860 -0.487 0.150 127 122 115 0 0
0.2093 0.0384 -1.1648 0.683 -0.269 0.679 151 146 143 0 0
0.2112 0.0385 -1.1668 0.683 -0.269 0.679 168 163 162 0 0
0.2118 0.0386 -1.1696 0.610 -0.239 0.755 174 170 172 0 0
0.0425 0.0130 -0.1130 0.168 -0.634 0.755 119 102 96 0 0
0.0916 0.0140 -0.1337 0.404 -0.905 -0.132 103 76 54 0 0
0.0907 0.0140 -0.1367 0.404 -0.905 -0.132 102 74 53 0 0
0.0427 0.0141 -0.1668 0.223 -0.839 -0.496 120 117 115 0 0
0.0642 0.0272 -0.8259 0.155 -0.717 0.679 84 63 50 0 0
0.0691 0.0273 -0.8271 0.136 -0.670 0.729 83 60 48 0 0
0.0967 0.0279 -0.8414 0.329 -0.110 0.938 83 56 37 0 0
0.0818 0.0291 -0.9099 0.312 -0.950 0.033 115 103 97 0 0
0.0806 0.0291 -0.9137 0.283 -0.938 0.199 116 104 97 0 0
0.0932 0.0299 -0.9439 0.380 -0.861 0.338 78 56 43 0 0
0.1095 0.0304 -0.9621 0.093 0.491 0.866 71 47 35 0 0
0.1309 0.0308 -0.9676 0.784 0.620 -0.037 75 55 44 0 0
0.1318 0.0308 -0.9704 0.871 -0.349 0.347 75 55 44 0 0
0.1559 0.0315 -0.9902 0.965 -0.002 0.264 88 70 63 0 0
0.1594 0.0317 -1.0011 0.559 0.162 0.813 91 74 66 0 0
0.2070 0.0334 -1.0609 0.928 -0.333 0.164 97 70 43 0 0
0.2080 0.0354 -1.1624 0.732 -0.524 0.435 140 135 129 0 0
0.2093 0.0355 -1.1648 0.801 -0.505 0.320 157 152 149 0 0
0.2089 0.0355 -1.1682 0.581 -0.422 0.696 170 166 164 0 0
0.0706 0.0107 -0.1263 0.288 -0.912 0.291 112 84 70 0 0
0.0757 0.0108 -0.1289 0.412 -0.910 0.037 109 82 64 0 0
0.0888 0.0111 -0.1398 0.379 -0.834 -0.401 101 75 58 0 0
0.0053 0.0153 -0.4096 0.018 -0.711 0.703 139 132 131 0 0
0.0776 0.0243 -0.8269 0.049 -0.461 0.886 85 61 48 0 0
0.0807 0.0244 -0.8288 0.123 -0.549 0.827 84 60 45 0 0
0.0997 0.0250 -0.8466 0.498 -0.858 0.130 89 62 40 0 0
0.0722 0.0260 -0.9177 0.248 -0.942 0.225 130 120 113 0 0
0.0785 0.0262 -0.9246 0.290 -0.922 0.256 126 113 103 0 0
0.0883 0.0268 -0.9463 0.380 -0.861 0.338 76 54 41 0 0
0.0933 0.0269 -0.9471 0.317 -0.814 0.486 75 53 40 0 0
0.0935 0.0269 -0.9503 0.294 -0.822 0.487 73 51 39 0 0
0.1021 0.0272 -0.9592 -0.067 -0.204 0.977 74 51 39 0 0
0.1341 0.0278 -0.9725 0.783 -0.232 0.577 72 52 41 0 0
0.1372 0.0279 -0.9741 0.824 -0.291 -0.487 72 52 41 0 0
0.1506 0.0280 -0.9705 0.809 -0.435 -0.394 73 55 43 0 0
0.2007 0.0294 -1.0107 0.587 -0.526 0.615 78 43 22 0 0
0.2063 0.0305 -1.0613 0.949 -0.063 -0.310 98 70 44 0 0
0.2067 0.0324 -1.1600 0.747 -0.572 0.339 123 118 110 0 0
0.2079 0.0325 -1.1657 0.732 -0.524 0.435 164 159 156 0 0
0.0259 0.0126 -0.4150 0.081 -0.901 0.427 118 106 99 0 0
0.0487 0.0134 -0.4383 0.290 -0.957 -0.033 141 133 130 0 0
0.0623 0.0211 -0.8333 0.090 -0.676 0.732 90 67 53 0 0
0.0654 0.0213 -0.8385 0.216 -0.616 0.757 89 63 48 0 0
0.0687 0.0214 -0.8404 0.234 -0.706 0.668 87 61 46 0 0
0.0876 0.0238 -0.9532 0.341 -0.869 0.358 75 53 40 0 0
0.1483 0.0250 -0.9716 0.710 -0.688 0.148 72 52 41 0 0
0.1515 0.0251 -0.9764 0.787 -0.467 -0.403 77 58 47 0 0
0.1528 0.0252 -0.9790 0.790 0.000 -0.613 80 60 52 0 0
0.1502 0.0252 -0.9835 0.846 -0.525 -0.087 81 61 53 0 0
0.1952 0.0264 -1.0105 0.958 -0.215 0.189 79 45 25 0 0
0.1952 0.0265 -1.0137 0.585 0.508 0.632 79 44 24 0 0
0.2008 0.0271 -1.0454 0.982 0.106 0.154 103 73 47 0 0
0.2045 0.0275 -1.0591 0.966 -0.236 0.104 100 70 46 0 0
0.0710 0.0202 -0.9381 0.410 -0.857 0.311 99 86 77 0 0
0.0835 0.0206 -0.9519 0.715 -0.566 0.411 72 52 38 0 0
0.0832 0.0207 -0.9554 0.381 -0.827 0.414 73 53 39 0 0
0.1448 0.0223 -0.9928 0.404 -0.875 -0.267 81 59 52 0 0
0.1943 0.0234 -1.0110 0.942 -0.305 0.138 79 45 25 0 0
0.1787 0.0248 -1.0966 0.946 -0.282 0.156 63 32 20 0 0
0.0646 0.0170 -0.9445 0.300 -0.883 0.362 95 82 73 0 0
0.0716 0.0172 -0.9444 0.464 -0.698 0.545 99 83 76 0 0
0.0739 0.0172 -0.9466 0.488 -0.712 0.504 94 76 70 0 0
0.0899 0.0177 -0.9587 0.241 0.094 0.966 75 53 39 0 0
0.1603 0.0194 -0.9815 0.642 -0.241 -0.728 79 57 46 0 0
0.1556 0.0194 -0.9872 0.702 -0.417 -0.577 80 58 47 0 0
0.1510 0.0195 -0.9960 0.860 -0.386 0.333 85 66 55 0 0
0.1854 0.0208 -1.0350 0.946 -0.228 0.231 89 54 32 0 0
0.1789 0.0218 -1.0965 0.962 0.010 0.272 57 29 17 0 0
0.2030 0.0236 -1.1720 0.713 -0.664 -0.225 179 175 174 0 0
0.0132 0.0130 -0.9485 0.083 -0.976 0.201 137 131 130 0 0
0.0239 0.0132 -0.9470 0.082 -0.970 0.229 128 119 118 0 0
0.0283 0.0133 -0.9482 0.085 -0.969 0.231 119 109 107 0 0
0.0291 0.0134 -0.9512 0.132 -0.975 0.177 108 98 96 0 0
0.0496 0.0138 -0.9516 0.151 -0.929 0.337 91 78 69 0 0
0.0700 0.0141 -0.9485 0.398 -0.736 0.547 86 69 64 0 0
0.0754 0.0142 -0.9492 0.530 -0.490 0.692 83 66 57 0 0
0.0745 0.0142 -0.9530 0.647 -0.643 0.411 81 62 52 0 0
0.0731 0.0143 -0.9570 0.576 -0.666 0.474 77 57 46 0 0
0.0892 0.0146 -0.9590 0.298 0.927 0.227 75 53 39 0 0
0.0865 0.0147 -0.9636 0.661 0.356 0.661 75 53 39 0 0
0.1520 0.0164 -0.9923 0.830 -0.498 -0.250 80 58 47 0 0
0.1892 0.0178 -1.0297 0.917 -0.333 0.218 87 53 27 0 0
0.1847 0.0178 -1.0354 0.946 -0.228 0.231 92 58 35 0 0
0.1958 0.0186 -1.0673 0.882 -0.332 -0.335 99 71 47 0 0
0.1883 0.0188 -1.0845 0.951 -0.112 -0.289 66 38 22 0 0
0.1871 0.0188 -1.0884 0.951 -0.112 -0.289 58 30 18 0 0
0.1799 0.0188 -1.0959 0.979 0.089 0.184 59 31 19 0 0
0.2043 0.0206 -1.1679 0.837 -0.530 -0.137 176 172 171 0 0
0.0094 0.0098 -0.9537 -0.052 -0.880 0.472 118 109 108 0 0
0.0211 0.0101 -0.9550 0.071 -0.941 0.330 104 94 91 0 0
0.0285 0.0102 -0.9549 0.133 -0.969 0.209 97 89 83 0 0
0.0359 0.0104 -0.9548 0.179 -0.959 0.219 91 80 74 0 0
0.0616 0.0109 -0.9526 0.661 -0.749 -0.044 84 67 62 0 0
0.0614 0.0109 -0.9560 0.661 -0.749 -0.044 82 65 56 0 0
0.0613 0.0110 -0.9594 0.661 -0.749 -0.044 81 63 53 0 0
0.0882 0.0115 -0.9595 0.643 0.098 0.759 76 54 40 0 0
0.1523 0.0132 -0.9825 0.805 -0.548 -0.228 76 54 43 0 0
0.1471 0.0132 -0.9884 0.933 0.138 -0.333 77 55 44 0 0
0.1450 0.0133 -0.9927 0.928 0.374 0.010 78 56 45 0 0
0.2020 0.0154 -1.0479 0.977 -0.197 -0.082 107 78 56 0 0
0.1820 0.0160 -1.1011 0.909 -0.412 -0.063 70 41 24 0 0
0.2088 0.0176 -1.1586 0.816 -0.506 0.281 163 162 159 0 0
0.2012 0.0176 -1.1666 0.893 -0.330 0.307 172 171 169 0 0
0.2023 0.0176 -1.1692 0.894 -0.332 0.301 178 175 174 0 0
0.0290 0.0054 -0.8607 0.159 -0.941 0.300 167 161 156 0 0
0.0843 0.0083 -0.9582 0.347 -0.126 0.929 78 56 45 0 0
0.1114 0.0092 -0.9742 0.042 -0.558 0.829 77 53 43 0 0
0.1457 0.0102 -0.9891 0.660 0.709 -0.249 74 52 41 0 0
0.2080 0.0146 -1.1591 0.755 -0.519 0.400 167 166 163 0 0
0.1997 0.0146 -1.1676 0.824 -0.567 -0.027 175 174 171 0 0
0.0074 0.0035 -0.9615 -0.064 -0.774 0.631 100 91 89 0 0
0.1051 0.0060 -0.9774 0.048 -0.667 0.743 76 52 42 0 0
0.1551 0.0076 -1.0035 0.240 -0.883 0.405 78 55 42 0 0
0.1747 0.0084 -1.0186 0.675 -0.379 0.633 75 43 25 0 0
0.2059 0.0115 -1.1572 0.808 -0.580 0.108 165 161 159 0 0
0.2002 0.0117 -1.1705 0.783 -0.378 0.494 179 179 177 0 0
0.1685 0.0052 -1.0187 0.771 -0.212 0.601 76 44 29 0 0
0.1781 0.0069 -1.1001 0.727 -0.686 -0.022 76 45 30 0 0
0.0706 -0.0010 -0.9782 0.097 -0.909 0.406 78 54 45 0 0
0.0826 -0.0007 -0.9789 0.396 -0.729 0.558 76 53 42 0 0
0.1554 0.0017 -1.0065 0.489 0.006 0.872 77 49 37 0 0
0.1603 0.0021 -1.0232 0.713 -0.567 0.412 77 45 31 0 0
0.1634 0.0022 -1.0248 0.478 -0.600 0.642 78 45 30 0 0
0.1771 0.0039 -1.1039 1.000 0.021 -0.008 76 44 26 0 0
0.0403 -0.0051 -0.9730 0.004 -0.565 0.825 82 65 56 0 0
0.0547 -0.0047 -0.9727 0.017 -0.580 0.815 81 62 51 0 0
0.0832 -0.0038 -0.9786 0.138 -0.866 0.480 77 55 43 0 0
0.1596 -0.0009 -1.0236 0.451 -0.512 0.731 75 44 27 0 0
0.1632 -0.0008 -1.0248 0.445 -0.610 0.656 77 45 29 0 0
0.1615 -0.0000 -1.0710 0.959 0.271 -0.087 106 78 56 0 0
0.1613 0.0000 -1.0743 0.926 -0.308 0.217 108 80 58 0 0
0.1620 0.0001 -1.0771 0.878 -0.464 -0.120 107 79 58 0 0
0.1905 0.0016 -1.1217 0.940 -0.299 0.164 103 76 56 0 0
0.0425 -0.0081 -0.9753 0.018 -0.597 0.802 82 65 56 0 0
0.1574 -0.0042 -1.0087 0.879 -0.451 0.156 76 47 34 0 0
0.1814 -0.0014 -1.1369 0.988 -0.152 0.004 96 72 50 0 0
0.1843 -0.0012 -1.1416 0.808 -0.582 0.094 94 72 53 0 0
0.1420 -0.0078 -1.0040 0.706 0.175 -0.687 79 52 39 0 0
0.1488 -0.0075 -1.0101 0.751 -0.454 -0.479 76 47 35 0 0
0.1476 -0.0074 -1.0140 0.620 -0.697 -0.359 75 46 33 0 0
0.1377 -0.0076 -1.0258 0.456 -0.890 -0.023 76 44 31 0 0
0.1585 -0.0056 -1.1019 0.705 -0.695 0.138 71 44 32 0 0
0.0395 -0.0144 -0.9835 0.010 -0.351 0.936 84 66 56 0 0
0.1129 -0.0119 -0.9932 0.167 -0.613 0.772 75 51 39 0 0
0.0332 -0.0178 -0.9866 -0.013 -0.608 0.794 86 68 60 0 0
0.0514 -0.0171 -0.9878 0.108 -0.661 0.743 83 62 53 0 0
0.1284 -0.0143 -1.0014 0.449 -0.814 0.369 80 54 41 0 0
0.0304 -0.0210 -0.9880 -0.026 -0.670 0.742 87 69 64 0 0
0.1069 -0.0182 -0.9962 0.076 -0.496 0.865 78 54 42 0 0
0.1171 -0.0178 -0.9975 0.147 -0.479 0.865 78 54 42 0 0
0.1262 -0.0175 -0.9993 0.345 -0.192 0.919 79 56 42 0 0
0.1282 -0.0174 -1.0015 0.809 -0.432 0.399 80 55 41 0 0
0.1171 -0.0175 -1.0172 0.609 -0.640 0.468 78 50 38 0 0
0.1607 -0.0137 -1.1594 0.444 -0.603 0.663 125 117 112 0 0
0.1633 -0.0136 -1.1611 0.463 -0.596 0.656 142 137 134 0 0
0.1039 -0.0214 -0.9978 0.076 -0.496 0.865 78 54 42 0 0
0.1318 -0.0202 -1.0062 0.437 -0.852 -0.287 80 53 41 0 0
0.1574 -0.0168 -1.1614 0.479 -0.715 0.510 139 133 129 0 0
0.1605 -0.0167 -1.1628 0.453 -0.606 0.654 152 148 146 0 0
0.1626 -0.0166 -1.1647 0.476 -0.596 0.646 162 159 160 0 0
0.1671 -0.0164 -1.1652 0.443 -0.555 0.704 167 165 168 0 0
0.0295 -0.0273 -0.9952 -0.011 -0.673 0.740 88 70 63 0 0
0.0316 -0.0272 -0.9976 0.526 -0.756 0.389 87 68 61 0 0
0.1305 -0.0233 -1.0036 0.403 -0.899 -0.170 80 53 40 0 0
0.1253 -0.0233 -1.0161 0.394 -0.903 -0.173 79 53 39 0 0
0.1159 -0.0236 -1.0244 0.581 -0.814 -0.027 79 52 39 0 0
0.1150 -0.0236 -1.0282 0.462 -0.867 0.186 80 53 37 0 0
0.1177 -0.0234 -1.0300 0.382 -0.905 0.188 80 52 37 0 0
0.1586 -0.0198 -1.1639 0.503 -0.689 0.522 161 158 156 0 0
0.1622 -0.0196 -1.1650 0.403 -0.531 0.745 167 165 165 0 0
0.0352 -0.0302 -0.9992 0.318 -0.790 0.524 88 69 61 0 0
0.0415 -0.0300 -0.9995 0.707 -0.704 0.069 86 67 58 0 0
0.1074 -0.0270 -1.0223 0.750 -0.383 0.539 80 54 41 0 0
0.1129 -0.0267 -1.0292 0.537 -0.104 0.837 83 57 39 0 0
0.1560 -0.0229 -1.1655 0.503 -0.689 0.522 165 164 162 0 0
0.1605 -0.0227 -1.1660 0.451 -0.538 0.712 170 169 167 0 0
0.1631 -0.0226 -1.1677 0.434 -0.493 0.754 172 173 169 0 0
0.0329 -0.0335 -1.0004 0.090 -0.859 0.504 91 72 65 0 0
0.1022 -0.0305 -1.0119 0.640 -0.592 0.489 79 55 42 0 0
0.1042 -0.0303 -1.0141 0.827 0.430 0.363 78 54 40 0 0
0.1057 -0.0302 -1.0166 0.869 -0.084 0.488 78 54 40 0 0
0.1091 -0.0301 -1.0181 0.658 -0.525 0.540 79 53 40 0 0
0.1107 -0.0299 -1.0272 0.578 0.118 0.808 84 58 43 0 0
0.1580 -0.0258 -1.1709 0.267 -0.616 0.741 176 175 174 0 0
0.0324 -0.0366 -1.0074 0.308 -0.730 0.610 90 71 62 0 0
0.1035 -0.0335 -1.0112 0.392 -0.881 0.265 83 60 45 0 0
0.1074 -0.0333 -1.0124 0.667 -0.680 0.305 81 58 44 0 0
0.1078 -0.0332 -1.0155 0.648 -0.622 0.439 80 57 43 0 0
0.1092 -0.0331 -1.0214 0.615 -0.425 0.664 85 57 45 0 0
0.1089 -0.0331 -1.0248 0.502 0.309 0.808 86 59 45 0 0
0.1114 -0.0329 -1.0268 0.611 0.035 0.791 89 63 49 0 0
0.1145 -0.0328 -1.0284 0.531 -0.264 0.805 91 66 54 0 0
0.1167 -0.0326 -1.0305 0.634 -0.536 0.558 94 70 58 0 0
0.1182 -0.0325 -1.0330 0.609 -0.608 0.509 97 73 62 0 0
0.0238 -0.0401 -1.0117 0.110 -0.710 0.696 94 76 69 0 0
0.0361 -0.0396 -1.0090 0.263 -0.538 0.801 93 75 66 0 0
0.0453 -0.0391 -1.0111 0.331 -0.222 0.917 86 66 56 0 0
0.1099 -0.0361 -1.0243 0.608 -0.194 0.770 96 71 58 0 0
0.1117 -0.0360 -1.0266 0.631 -0.389 0.671 96 73 60 0 0
0.0339 -0.0428 -1.0134 0.214 -0.458 0.863 98 80 72 0 0
0.0395 -0.0425 -1.0140 0.217 -0.315 0.924 94 75 65 0 0
0.0814 -0.0436 -1.0261 0.273 -0.911 0.310 105 85 73 0 0
0.0785 -0.0467 -1.0309 0.238 -0.953 0.189 117 100 91 0 0
0.0365 -0.0550 -1.0394 0.179 -0.940 0.290 150 142 135 0 0
0.1018 -0.0498 -1.1787 0.513 -0.073 0.855 178 177 175 0 0
