ply
format ascii 1.0
element vertex 688
property float x
property float y
property float z
property uchar diffuse_red
property uchar diffuse_green
property uchar diffuse_blue
end_header
0.2371639312186619 0.2525182608985509 -1.1266883376290155 151 134 122
0.2373066891180652 0.2525368085829066 -1.130015994308798 154 138 126
0.23747434935498368 0.2525086955335953 -1.1333154748673717 156 142 132
0.23567676658669914 0.2561704788824486 -1.1389303383070035 161 148 139
0.23508617485685426 0.2575669893920986 -1.1431347124440505 167 155 147
0.23468014148758065 0.2586174064390666 -1.1471268815806304 171 159 151
0.23604787275181166 0.2569122428039641 -1.156040802948293 175 166 163
0.23849359883514154 0.2526040395287387 -1.1566216437229042 175 167 164
0.23756163767636318 0.25464348607156306 -1.1612524628963035 176 170 169
0.24020673656323677 0.2499588537460632 -1.161572901363882 178 174 172
0.2444408376228545 0.24228498546655694 -1.1599509578901313 180 177 176
0.24707991691419107 0.23760829259693278 -1.1602374682245222 181 180 178
0.24967642439692136 0.23301022791584863 -1.1605582325339103 183 182 180
0.2530659095655733 0.2269189821363073 -1.1598922374446816 186 185 184
0.25360242203102157 0.22619375520551566 -1.1627014617983438 189 188 186
0.256313598949782 0.2213760262052299 -1.1628338989440075 190 189 187
0.20139558817217285 0.30078342049539414 -1.018968736453282 196 189 187
0.20475092871490866 0.2948378026079588 -1.019084475799994 174 164 158
0.20830930875888454 0.288798767691262 -1.022478735897404 140 122 111
0.2095336959917271 0.2868090336813054 -1.0247300589637447 129 108 94
0.2156553766493117 0.276852562721704 -1.035885293753472 131 100 85
0.21642337882170556 0.2757085136942902 -1.0385750249466552 135 103 89
0.21713597089323983 0.27466727478437114 -1.041319639015596 135 106 91
0.22184096025965017 0.2661964892662763 -1.0398409531920938 138 109 95
0.22078483794401227 0.2687292235651694 -1.0479266266526017 140 115 102
0.22437869641234398 0.26232233162664687 -1.0475762182583561 143 119 105
0.22468049309624916 0.26204345004941965 -1.0507295753049926 142 119 105
0.22443874697865224 0.26277682274635067 -1.0544672776810267 143 121 107
0.22792513913126014 0.2568488597420877 -1.0576565282445225 148 128 114
0.23639361761357225 0.24331880253054097 -1.0760765651961925 179 167 160
0.23427229685003853 0.24755792176705288 -1.0819008243692345 159 147 141
0.23163905166539123 0.25360409736206185 -1.0987604298251392 112 95 87
0.23372945927782035 0.2499848665217775 -1.099875809579224 108 90 80
0.23501301585348933 0.24787128229190503 -1.1018957789121118 106 86 75
0.23197872304266065 0.2538216329672385 -1.1088363918956092 111 90 77
0.23160678925257222 0.2548006360806708 -1.1127530924939055 118 98 85
0.23291430253821033 0.25264228788486004 -1.1147454798480096 126 104 92
0.23521311387836644 0.24863096375896057 -1.1155879602276801 134 107 94
0.236483225893437 0.24654098753231068 -1.1176048180972338 141 112 97
0.23998561873314495 0.24027778495679142 -1.1170254313182597 144 115 99
0.24238032226057585 0.23608349647679508 -1.1177110040451348 144 116 97
0.24279295965294917 0.2355940554542798 -1.1206943788318164 145 118 99
0.24398925011850736 0.2336390042186436 -1.1227592211053332 146 121 104
0.24386268692500446 0.2341577071961841 -1.1263711106852803 147 123 107
0.24396758611515296 0.23424365316463247 -1.1297133023484727 147 122 108
0.23496407572040315 0.2513718563269577 -1.1438231241758778 147 124 111
0.23761955550106412 0.24668777590032265 -1.1441774803907745 150 131 118
0.23811037984152897 0.2460537161563398 -1.1470889694173638 155 140 128
0.23744961746404586 0.2475752356975217 -1.1513729630285443 158 146 136
0.24057959200814227 0.24200013861620556 -1.1511269030295597 159 150 140
0.23986554188015757 0.2436214393285032 -1.1554748410766937 163 154 147
0.24007874018120545 0.2435067467534771 -1.1587134973209992 166 159 153
0.24189523039036287 0.24038888272473363 -1.1600158045567899 169 163 158
0.2456942263527441 0.23355594496780666 -1.1589042932277651 173 169 165
0.24838981119441322 0.22878840182964977 -1.1591077714560938 175 174 171
0.25114685724349023 0.2239042091501997 -1.1592182931302508 178 178 176
0.2532629683515046 0.22021986059965581 -1.1600941822325916 183 182 180
0.2550130217737613 0.21722063447604034 -1.161405409082501 186 185 183
0.19142195311333712 0.3115945221207397 -1.0158284994507687 206 205 209
0.19440584562904742 0.30636184603909467 -1.0163815229220143 189 184 186
0.1990740257566715 0.29801153113561263 -1.015218550436613 166 157 154
0.19887550950427943 0.29866388207612116 -1.0189439736536823 148 133 128
0.20578930891531355 0.28615399558543164 -1.0154572384464762 136 116 107
0.2071360157227813 0.28394470212784273 -1.01759083826413 126 101 88
0.20734245209481306 0.28384571710343615 -1.0208818797707735 124 98 83
0.2114085229406623 0.27660050815041215 -1.0202160275142946 124 97 79
0.21572813965541984 0.2700092847577248 -1.0331832505137848 117 84 64
0.21872069970631408 0.26502617596861444 -1.0370121398571666 118 85 63
0.2216259859191448 0.2599214269760882 -1.037427916624999 122 90 71
0.22199242289866555 0.2595226132773246 -1.0405106167303733 123 93 77
0.22269730438028273 0.25849611747270795 -1.043233452890591 125 96 82
0.22324900833545688 0.25775348348345917 -1.046116408653793 127 101 87
0.22405741515472843 0.25653449481804497 -1.0487230600652957 129 106 92
0.22936190439474063 0.2469733889651767 -1.0465040204209042 131 109 96
0.23013106307712147 0.24582529267517442 -1.0491289376061257 134 112 97
0.22928084611673127 0.24768237379353145 -1.0534988342858533 139 117 102
0.23225309352540388 0.24244473467685473 -1.0537357819502373 143 120 105
0.2339168823698883 0.24186751173274304 -1.082987664608442 134 120 113
0.23258159102424783 0.24491034859211 -1.09141181295157 106 93 87
0.23371917277031018 0.24307528214510457 -1.0935993632666023 95 82 73
0.23426314618280586 0.24234386806322716 -1.0964519894602853 93 75 64
0.236065805823924 0.23927066818033346 -1.0978745665664769 100 74 64
0.23677737875465124 0.23822672263819056 -1.1005279637760472 103 76 65
0.2384155792363658 0.23545809440474705 -1.102120019802348 104 79 67
0.23696467161601084 0.23843832299876433 -1.107241176343358 111 83 71
0.23686519942101641 0.23890379602107248 -1.110821838464619 123 92 77
0.23836457534867075 0.23639265703880752 -1.1125618021341754 130 98 83
0.24008841720564583 0.2334628006787611 -1.1140331554192304 133 100 84
0.24110672678635053 0.23184611176530884 -1.1163125826981288 134 101 83
0.24237224807459548 0.22976848743312772 -1.118298799709904 136 104 85
0.24625387305466942 0.2228163193890968 -1.1172226843381032 136 107 88
0.24669103737856496 0.22228026379705423 -1.1201551115494734 138 109 92
0.23836891431315466 0.23806842504439152 -1.133380201668273 140 110 93
0.2379341906809677 0.23915996536556644 -1.1373705963691632 139 109 93
0.24007208281867143 0.23545592146358701 -1.1383239549959958 140 113 98
0.23896273141556068 0.2378054329031538 -1.1431157734423156 142 121 106
0.2421511262766306 0.23214110380864073 -1.142803576499241 147 128 114
0.24118103547862468 0.23423125423556046 -1.147433877283016 147 135 121
0.2428599567306301 0.23138054245641282 -1.1489014803965716 147 137 126
0.24588758484312098 0.2262928017727407 -1.1522034359188524 154 146 138
0.24590905075986674 0.22681357593979093 -1.1591131242917634 165 162 157
0.24903548406261877 0.2212573227424529 -1.1587822409862711 170 168 164
0.25105999794544615 0.21775692644036398 -1.1597742286150066 177 175 172
0.2535609586480944 0.21336568532294053 -1.1601702996153478 182 180 178
0.2546471218813043 0.21161575353228534 -1.1622860551295213 185 184 182
0.25282746404926704 0.21529388944004546 -1.1679726782951283 188 186 184
0.2556684173128993 0.21026509394136922 -1.1679206581094992 191 188 186
0.19176732298008073 0.30415133029388824 -1.012930039244619 161 152 152
0.1921435665642786 0.3037419732045157 -1.016089932407028 137 123 121
0.19653960557298678 0.29592336268913444 -1.0152104462707312 125 108 102
0.20060254379241432 0.2887164469232834 -1.01463737010307 120 99 89
0.21242754486022553 0.26719600192435244 -1.0061827352464954 119 93 80
0.21427752270626998 0.2640632908663658 -1.0077748096022754 122 92 75
0.21677890569154273 0.2597282684202352 -1.0086917987509307 122 90 71
0.21819864354956403 0.2584984267499475 -1.024535957727918 108 75 54
0.22021681963304057 0.2550509538976592 -1.0258999900667065 107 75 53
0.22138443267916508 0.25345055146094264 -1.0315967777560018 108 73 52
0.23213290952485288 0.23607984709374943 -1.051188405118506 130 106 92
0.23293764438180198 0.23486759383760625 -1.053754542587487 133 109 95
0.23330721058899953 0.2344600340596673 -1.0567902720056235 136 113 99
0.23703356866873376 0.22784186755906788 -1.0561615331615075 139 117 101
0.23729942425225284 0.22762513446049987 -1.0592973459716233 140 118 101
0.23636599354560306 0.2304556870209509 -1.0740576407775309 150 132 119
0.23559089273055517 0.23216733624884808 -1.0783602664587468 151 134 124
0.2348430813273582 0.23466060685816315 -1.092994429171228 89 72 63
0.2361203563512761 0.23257085487882784 -1.0950045802502582 93 70 61
0.23698094856424867 0.23125290873714258 -1.0974805066059006 96 69 61
0.23992208040858962 0.22607738134665673 -1.0975825032017648 98 71 60
0.23821016982214072 0.22952822065038136 -1.1029817786871214 103 75 64
0.23861073923988585 0.22906253319844416 -1.1059741159856884 108 80 66
0.2398056998863919 0.22712330221750915 -1.1080520380483527 112 84 69
0.24132663086450457 0.22457881111579875 -1.1097471861629444 118 89 74
0.24177734384126554 0.22401931016671356 -1.1126718361605228 120 91 77
0.24319128100977075 0.22167222256705094 -1.1144769075800762 120 92 77
0.24513490778437524 0.21834134603819613 -1.1156567001702609 121 95 79
0.24634032704069578 0.21637983817250578 -1.1176867613110415 125 99 82
0.24113997374949014 0.22658853033237875 -1.1306754879851058 130 102 83
0.24452235586872761 0.22058454983002157 -1.1301455101918312 133 107 88
0.24406556619505693 0.22171003051668714 -1.134134996743519 138 112 95
0.24432465057739994 0.22150599352260486 -1.1372802969050093 143 119 102
0.2434018058121982 0.22349811724403623 -1.1418329196922268 144 126 108
0.24411312301001875 0.22245402809510667 -1.144442841809967 144 128 112
0.24776913572670362 0.2159363816245333 -1.1435219445321116 142 127 113
0.24663865552724565 0.21831479964311906 -1.1483278217878055 141 128 116
0.24698083086332856 0.21795595831770065 -1.151369058490128 146 135 124
0.2482719977758366 0.21583234343267288 -1.153262428905447 150 141 133
0.24970703582584172 0.213440541787401 -1.1549738134419303 160 153 147
0.24822653041002263 0.21647151184068175 -1.1602234213791167 168 163 159
0.25120354634512543 0.21121037282728367 -1.160046916895074 173 170 166
0.2540415582779833 0.20620628004155983 -1.1600204935244258 178 176 173
0.25586776997082883 0.20308370415954974 -1.1612171908958115 185 181 180
0.2579178602754246 0.19954347924901322 -1.1621266866088389 188 185 184
0.2625975679165873 0.1911066813620281 -1.1597750932159343 188 187 185
0.25346976426618073 0.20837658669351755 -1.1744960834426665 191 190 188
0.18217196562024615 0.31414684893444944 -1.0092683757892866 186 186 185
0.1857196621335726 0.3079197044187142 -1.0093182096938582 159 154 152
0.18929427466641213 0.3016413036450437 -1.0093181254798393 136 125 122
0.1931935273362155 0.2947650773151654 -1.0089715858934607 118 105 100
0.19599786741891786 0.2898970832740947 -1.0096925830375507 112 95 87
0.20008151248513711 0.282678451770885 -1.0091135754414375 109 86 78
0.20487902248617607 0.2741465718493044 -1.0077894767682987 105 78 67
0.22094747080923416 0.24490871574905507 -0.9950574603810841 110 78 65
0.22361688279870143 0.24055112036999982 -0.9992064826341905 112 77 57
0.22272243134156872 0.24246803551205948 -1.003543523123743 114 77 55
0.22371134660100223 0.240923944523211 -1.0059611365036487 114 76 54
0.22495776678986706 0.23890607425764077 -1.0081091648864675 112 74 53
0.21914544872479294 0.24986585493958402 -1.0175265724613698 111 75 52
0.2223770744332932 0.2441983340825446 -1.0176325986604955 106 72 50
0.2297255395204732 0.2331409951087937 -1.0408200784058592 116 90 70
0.23370819288041714 0.22607954512728073 -1.0399878209779665 118 96 79
0.23460593603954435 0.22469853081420715 -1.0424423385553152 123 101 86
0.23545072201514666 0.22341472562868003 -1.044949464542025 125 103 89
0.23293216564108016 0.22832799801143677 -1.0510895116950614 127 103 90
0.23768314562152265 0.22011788225497575 -1.0527750046706559 130 105 91
0.24125624110824673 0.2138032189747759 -1.0522868573900919 134 107 93
0.24039759767368032 0.2156578451079032 -1.056631466344374 137 111 94
0.2371681919461019 0.22188500727527605 -1.063591053193796 142 115 99
0.24053208418269478 0.21595372193358423 -1.0633027172884428 144 118 102
0.24002088799503885 0.21716887001729634 -1.067280879959065 145 123 107
0.2387072526135396 0.21986493882139502 -1.0721558654265249 145 124 109
0.23625591327038836 0.224661272942001 -1.078309963668248 144 125 111
0.23541389297369852 0.2264891453215559 -1.0826852010562338 137 120 108
0.23494293730796068 0.22763275172311742 -1.086652532824736 111 97 87
0.23624813678317502 0.2254978103957532 -1.0886271365653262 98 80 72
0.23723752559303182 0.22394538767367428 -1.0909507157479696 90 71 63
0.2382068713893996 0.22242956580892814 -1.0932918181365672 90 69 60
0.23990779417378919 0.21956212795571955 -1.0947968244357065 93 68 59
0.23995908323795367 0.21974119859970279 -1.0981714495237638 96 71 60
0.23621511172058546 0.22693242455289922 -1.1058869263077646 96 71 59
0.23634414010497312 0.2269692207548885 -1.1091896552649532 94 70 58
0.2416923500894606 0.21736023628484458 -1.106488097512631 94 72 59
0.2430142037471565 0.2151908067914473 -1.108397040052193 99 78 65
0.24379102433047561 0.21402839381067584 -1.1109294780879266 104 82 69
0.24461372089819716 0.21278086371355565 -1.113404978412959 108 85 72
0.24640361306185576 0.20974435295160818 -1.1147493934166126 111 85 73
0.24206575970579286 0.21804097034131956 -1.1232460637656012 116 90 75
0.24234919660723686 0.21779130087038773 -1.1263574023716374 121 94 80
0.24200641577596946 0.21870026377949664 -1.130205383381471 122 95 80
0.24685136252794784 0.21000968816839652 -1.1279361965236903 125 97 81
0.2481027038411472 0.20796746323811832 -1.1298872384930188 131 103 88
0.24787047834191717 0.20867088402154238 -1.1335927331333486 133 111 92
0.2477585185169971 0.20915194796130748 -1.1371587552230307 137 118 100
0.2474422674684985 0.2105601676777069 -1.1478505896650684 136 120 106
0.24794615104305462 0.2099012603568555 -1.1506854835350873 138 125 113
0.24950409220606762 0.20728920032677825 -1.1522437397834229 146 135 125
0.2521693018033379 0.2026244455018826 -1.1524490856002394 155 147 139
0.2538048139809774 0.19986677377364614 -1.1538898972181961 163 157 151
0.2518635302444472 0.20373877153812375 -1.1596868835959202 170 166 162
0.2547279520155785 0.19870210275462125 -1.1596161350595706 178 174 172
0.2574121716647262 0.19399805879535487 -1.159747505094656 183 179 178
0.2623485344598012 0.1851156870981423 -1.1570867049381968 185 184 182
0.2552571533720359 0.19854118716294722 -1.1692523310200311 189 188 186
0.2567225871068085 0.1960962197613926 -1.1708684373226372 191 190 188
0.18203725044214963 0.30760382518566576 -1.0068807915004796 138 130 129
0.18701851248255114 0.29877709240861805 -1.005517439402679 120 109 106
0.1929320493932552 0.28824292552039965 -1.0031988248252892 109 96 93
0.19554267181368573 0.28374634156320244 -1.004118016483904 103 90 83
0.19822983525991614 0.27910843869458635 -1.004944434785292 99 83 73
0.20143794689970207 0.27351611612287013 -1.0052330405217695 100 77 68
0.20629080452893908 0.264912645685047 -1.0038509418860013 99 72 60
0.21006457584359176 0.25828137188273115 -1.0035225444059694 104 73 58
0.23071917274934312 0.2218248428394852 -0.9996767280494163 111 75 51
0.2257790954827525 0.23114276800162376 -1.0081513065556362 108 73 51
0.22602896300710174 0.23095551385932234 -1.01130863209024 104 71 50
0.22666407083042914 0.230062395910497 -1.0140673363281318 97 66 46
0.22880830041381484 0.2264034596416415 -1.0152556444843643 97 66 46
0.22924254753416345 0.22587766499791984 -1.0182132540726727 95 64 44
0.23459582777228935 0.2179495684122261 -1.036415456631321 112 86 66
0.238588592712071 0.21116071606869546 -1.0389368060242492 120 94 80
0.23951429165195798 0.20973031278902726 -1.0413336681472571 121 95 81
0.23955723866835127 0.2099202950547269 -1.0446811447901712 122 96 83
0.24177215683529668 0.2061219937833832 -1.0456720249560856 126 99 84
0.24640987297288353 0.19787287212807197 -1.044009467675257 128 100 86
0.24542564263431343 0.19994812759997227 -1.0484603013568654 133 106 89
0.2465247630826705 0.19819662995291404 -1.0506355576444695 137 110 92
0.24495266434695917 0.20135292156507728 -1.0557439553220789 139 112 94
0.24408776120890407 0.20321062876500023 -1.0600850936945225 138 113 96
0.242569483472039 0.20626991946715573 -1.0651581725640804 141 117 99
0.240773512257892 0.20984073476787404 -1.07055287257326 142 121 102
0.2381655861227302 0.21490561490781124 -1.0768678353111099 143 123 107
0.2374397287510809 0.21651122268479112 -1.0810988038055804 137 119 105
0.23780634608959306 0.21610814392035987 -1.0841112417733305 119 101 90
0.23830076679933962 0.21546992419462913 -1.086979180869389 101 84 75
0.23888668344951508 0.21466324994903646 -1.0897422280976978 91 75 64
0.24013065026890265 0.21264555129852697 -1.0917574628528306 88 69 58
0.2403432127122533 0.2125254337713527 -1.0949380334993484 82 61 50
0.23918909937248994 0.214920903000462 -1.0996775464171415 79 56 47
0.23786942418893253 0.2176219885828371 -1.104616935754933 81 57 48
0.23844935567545797 0.2168264236383186 -1.1073879797546289 81 61 50
0.24467193908368956 0.20591030247311187 -1.10707634341576 88 68 56
0.2466528446208055 0.20280235654593332 -1.1116117522210414 102 76 64
0.23857873992291295 0.2179506737477987 -1.1244403311169506 107 80 69
0.2384646786274699 0.2184338677307408 -1.1280200877444644 111 85 72
0.246579889109394 0.20374874713371272 -1.1219475512158656 114 88 72
0.24218658289558392 0.21211893870945553 -1.130539338466297 116 89 72
0.24886465918398482 0.20007816298923914 -1.1260943495610884 119 91 76
0.24954067972689464 0.1991021467956059 -1.1287105411424585 122 95 80
0.24954235672133115 0.19936966310375695 -1.132124913588938 124 100 84
0.24650601342716466 0.20524157338982307 -1.1391616086691503 129 106 89
0.24612181578770026 0.20622223419121788 -1.1430525019873388 132 111 95
0.24279059607743075 0.21264137102362035 -1.1504818513275443 131 111 97
0.24791653423246823 0.20345430100097017 -1.1477662728062705 129 112 98
0.24935072135836317 0.2010788799278321 -1.14946868835978 132 117 105
0.25069502835076374 0.19886871641746462 -1.1512713398191632 140 129 119
0.2504503800001414 0.19986350570900083 -1.1584242397312856 158 153 148
0.25303918750706494 0.19535368979625942 -1.158694334856674 169 165 161
0.2555530558999013 0.1909809568509634 -1.1590391234253254 176 173 169
0.2567294721093433 0.18907802164272736 -1.1610105388238985 180 179 176
0.2587284552115836 0.18565452260179688 -1.1619616434980065 183 183 181
0.2595853660360422 0.1843408035878492 -1.1643115907853778 187 186 184
0.2626024561831408 0.1790336400460844 -1.1639792200545964 190 189 187
0.17928270345263336 0.2366267988339833 -0.12687606288374978 130 103 87
0.17930815420129115 0.2375411420426719 -0.1390637997237519 116 88 75
0.18076597358077398 0.3028867686126104 -1.0020819071763873 122 114 113
0.18467083868626458 0.2960531060957178 -1.0017951297330863 113 100 99
0.18936162618748986 0.2877858154971926 -1.0007103455703623 107 93 90
0.1942685524920763 0.27912229580611075 -0.9993811467336556 100 87 81
0.1967944712510131 0.2747946961486413 -1.0003760318650534 96 80 74
0.20134044889025582 0.2667844755790768 -0.9993482477523402 92 73 64
0.20511067810450867 0.2601858195818222 -0.9990635856479391 95 71 60
0.20862360692743964 0.2540542638403757 -0.99901157445371 101 71 57
0.21195949163153635 0.24824369582488348 -0.9991143557566724 104 72 54
0.22087943353192968 0.23224873589427242 -0.9935685626634151 107 73 53
0.2283751056391622 0.21991352338466552 -1.0029654313904122 103 67 48
0.22879463600009456 0.21941493424884745 -1.0059297010097394 97 63 44
0.22967885849218073 0.2180679740573993 -1.008413105745573 92 60 40
0.22999147981133922 0.21776428935789116 -1.0114845041425675 92 62 41
0.23246534438460123 0.21351403185864176 -1.0123083590164939 96 65 45
0.2360394556919266 0.2072531133417829 -1.011968483420752 98 67 46
0.23643290753357388 0.2083974670177849 -1.035240077422462 99 70 53
0.23965203008973013 0.20277774016102934 -1.0351798554330043 105 76 61
0.24144884161280175 0.1997575891833851 -1.0366285117271694 112 84 69
0.24155099147877543 0.19983639785579438 -1.0398953775780562 114 87 72
0.24247187625690636 0.19841747004861265 -1.0422768420902664 118 92 77
0.2469760108027777 0.19044177645341387 -1.0407601646622944 120 94 77
0.2473636298247376 0.18999698678832255 -1.0437007610646767 125 98 80
0.25039108885687356 0.18472042341978395 -1.0437530721530917 130 103 84
0.24767177915170902 0.18996226493962892 -1.0500921352818102 136 110 93
0.24616175330732507 0.1929917656780447 -1.0551213964098345 137 111 96
0.24615656291683657 0.19326669223724982 -1.0585012552158728 138 113 96
0.2446491956089993 0.19629293116667612 -1.0635480004862081 135 113 95
0.24015120461699607 0.2047981976002664 -1.0719329899590107 135 115 98
0.23972551611240053 0.20584567560152772 -1.0758098109979632 138 118 103
0.23883451559181956 0.207746146683197 -1.080212508419521 134 116 103
0.23985356658230714 0.20614695510897993 -1.082479101016104 120 102 93
0.24039724195522513 0.20541864273846128 -1.0852757978092595 99 81 72
0.24073190720647705 0.20507332740858314 -1.0883067677703837 84 66 56
0.2410042399196035 0.20484226347553253 -1.091408001000635 79 60 51
0.24156881807424202 0.20407530453538625 -1.094176900256011 79 57 50
0.24024891823683506 0.20676434388644016 -1.099093885984667 79 57 49
0.23854453885415905 0.2101595516718197 -1.104462613417536 77 58 47
0.23653413266332757 0.21411733103728187 -1.110197213352575 77 58 46
0.23478740513954133 0.21759260759504429 -1.115644789655112 81 61 49
0.2348242518460134 0.2177958989610656 -1.1190461128035039 88 66 52
0.23486124457340762 0.2179990628990933 -1.1224490538535095 95 70 57
0.2348981660104727 0.21820249833566469 -1.1258538655131731 100 73 62
0.24361487714734675 0.20246975701025693 -1.1191351231291358 104 77 63
0.24487070933005028 0.2004326730831199 -1.1210853806055654 107 80 63
0.24295627320548252 0.20421754661807393 -1.1267499485193655 111 84 65
0.25037374410392566 0.1911295502939432 -1.1248432058356952 117 87 68
0.24991184560085639 0.19224598514273825 -1.1287937221438962 119 89 72
0.24994428124439377 0.19245438162241774 -1.132162134032342 121 92 75
0.24837141004376473 0.19561354520256796 -1.1374462022995804 120 97 80
0.24857800162438431 0.19550253259875106 -1.1406158485819724 122 101 85
0.24846462599554708 0.1959798605044198 -1.1441698412933077 122 103 88
0.24891572119083485 0.19541940285572418 -1.1470475248216443 122 105 91
0.2456693248658966 0.20192947794423524 -1.1578213619219642 134 123 113
0.2480312152181559 0.1978544772581851 -1.1583902660662848 143 136 129
0.2503814723914234 0.1937996742030735 -1.158957979473432 155 150 145
0.2528136437518017 0.18959291680799262 -1.1594103335137569 166 162 157
0.25455406227895383 0.18665818469148726 -1.16069442611737 173 172 168
0.2569617009413823 0.1824942880111956 -1.1611476609849165 180 179 177
0.2595610180857715 0.17797622729254844 -1.161348852177475 184 183 180
0.15989909511074357 0.262702580928772 -0.10698409267963381 180 180 181
0.1784284064267385 0.23299297029103977 -0.13897096270741754 113 86 67
0.17823610118502328 0.23356696507005234 -0.14203955884983918 110 84 67
0.1822660821406859 0.22700088797694742 -0.1476591923097254 109 93 86
0.17820959653669227 0.23432827446363158 -0.1511950852523529 121 111 107
0.17548829114747935 0.30546076410610423 -1.001187951395671 119 109 109
0.18251544491909555 0.2929884338078923 -0.9978927183702991 109 97 95
0.1868504405276498 0.2853974257183368 -0.997179330147764 107 92 88
0.19018494251573073 0.2796198998702713 -0.997418066197381 101 87 81
0.19496128706312682 0.2712236048168839 -0.9962167793100063 94 80 72
0.1982816258312951 0.26546802281993265 -0.9964212700680961 92 73 66
0.20290730433319848 0.257340719587825 -0.9953108367287398 94 70 62
0.20568176489086043 0.2525726924545212 -0.9960105299823864 97 70 58
0.21001914022300333 0.244964710717814 -0.9951328181271315 102 71 54
0.21147321095786586 0.24259195600934336 -0.9971140317554621 104 73 53
0.21456530556692394 0.23724265436143588 -0.9974405954025983 104 71 52
0.2179896603071028 0.23128806363426013 -0.9974120671551334 105 71 51
0.22510738301518501 0.2186197087753309 -0.9936228087315269 105 70 49
0.23406587065184825 0.20417996244697237 -1.0081168297281822 95 64 46
0.23363394742155863 0.20522943838566868 -1.0119402402327557 95 64 45
0.23226722733037697 0.20798047764195704 -1.0167449354018658 95 64 44
0.2410382940479204 0.19411848512025545 -1.034464350157592 99 71 52
0.24985759699660764 0.1790928570295341 -1.038361735111821 115 88 71
0.25055436865020486 0.1780836302087003 -1.0409465996654903 120 93 74
0.24969730716616353 0.1804314715575834 -1.0519303439370387 131 105 87
0.24497221713431472 0.18931484852979266 -1.0605070556207046 132 107 89
0.2428428220619175 0.19346421345062065 -1.0662412192333166 133 109 93
0.2419498608072569 0.19535824338280938 -1.0706170771612278 134 111 97
0.23974040404888686 0.1996561273393841 -1.076470956991539 133 110 97
0.24022624885857774 0.1990345266475229 -1.0793244300044356 130 109 98
0.24093652594362253 0.19800299243810904 -1.0819242500802821 114 94 85
0.2408663527182751 0.19839654671159593 -1.0854006074238471 91 74 65
0.24190888633927143 0.1967578514216185 -1.0876212927326274 82 65 57
0.24194786277732266 0.1969520839242544 -1.0909748520974802 79 60 53
0.24086499241448867 0.199196230365757 -1.095606829137024 77 58 49
0.23987032886663326 0.20127995774540242 -1.1001479963213872 76 57 46
0.23830365410291027 0.20440988144720235 -1.1053535388587654 76 56 45
0.237192797428474 0.20670761951111172 -1.1100488101161494 77 57 45
0.23707871196849334 0.20718376875692696 -1.1136053613712404 81 58 47
0.23787092626171497 0.2060029121958633 -1.1161169139013516 88 61 49
0.23582571542916414 0.21001099458889283 -1.1219157231260652 96 66 54
0.23862591783410042 0.20515747783778404 -1.1220938654634973 100 69 56
0.2439650842304647 0.1956576884107149 -1.1192902798479256 104 74 57
0.246131498197393 0.1919602207120202 -1.1201644008745741 109 79 59
0.24717073362759673 0.19032440365229264 -1.1223485424598336 113 83 62
0.2489862467060287 0.18726734781308285 -1.1236125809764133 115 85 64
0.25066696674919364 0.18445616038543067 -1.125024663196107 118 87 67
0.2494146422304626 0.18701413406110295 -1.1299033689131885 120 90 70
0.24931272118787895 0.18746643764663073 -1.1334253462932429 120 93 75
0.24971138813492466 0.18700217041958495 -1.136353026336664 122 97 80
0.24963388485822527 0.1874100386569873 -1.139849513384894 122 100 83
0.24961805619416966 0.18770512265152262 -1.14327458862926 122 102 87
0.254672512733661 0.17950553526656107 -1.150779475142279 141 132 125
0.250781318643102 0.18690520333535066 -1.1589184706697513 151 146 140
0.2526505362618288 0.18374429780475865 -1.160048126078111 164 160 156
0.25460570893971435 0.18042483407638565 -1.1610606888320232 172 171 168
0.25655272671399454 0.17711936239155018 -1.1620709069640252 180 179 177
0.1582938160125114 0.2593449328834231 -0.10699818086053786 181 179 179
0.18275948309450246 0.21775322440216127 -0.11716918546089143 125 96 81
0.18212353777463408 0.21956168785036267 -0.12628029514554784 119 87 63
0.18552497328962964 0.21411110612140877 -0.13197209989892977 113 81 58
0.1851315465609482 0.21502974616937215 -0.13502859920254426 108 77 54
0.18084878912518354 0.2227191508389284 -0.13851627956100346 107 77 53
0.1905774122717207 0.20624978271445205 -0.14345425234413764 103 80 63
0.18621331014557466 0.21408297596133624 -0.1469790401646966 104 84 74
0.18318252216386277 0.21959609834356497 -0.15036938065816008 112 97 91
0.17940563740044246 0.22641044896362944 -0.15387312855104168 116 107 104
0.17196309674997903 0.30483533553912934 -0.9985771694625486 115 104 103
0.1775196675298833 0.2950679293319667 -0.996746714584969 111 95 94
0.18450790493776195 0.2827098191118749 -0.9934894563124813 106 91 86
0.18882684729639201 0.27517369276297593 -0.9927854654607661 104 86 81
0.1917471097691478 0.27016432760014164 -0.9934206093695357 96 80 73
0.195482100954522 0.2636801795274506 -0.9932377010564387 90 74 65
0.19951777519004402 0.2566503099872629 -0.9927343294034704 89 68 61
0.20400572655656896 0.24880024664911868 -0.9917574572037969 93 66 57
0.20954872068461125 0.2390390882513812 -0.9897043892839793 96 68 56
0.21275494586232718 0.23350338108891083 -0.9899401849264365 100 70 53
0.21522229463732923 0.22930325387962786 -0.990893396629783 100 70 53
0.2177659183527364 0.2249638660147107 -0.9917546651490295 98 68 52
0.21957812096405888 0.22194732973684503 -0.9933357487078457 94 63 46
0.2267147553740328 0.20928964028759728 -0.9895304431313722 92 60 43
0.23364394716304326 0.1988284004536263 -1.0094051550676808 91 60 42
0.23437391897966908 0.19776618211285324 -1.0120125024942503 90 59 41
0.23156735145675797 0.20311666449152332 -1.0183129459893179 89 58 40
0.23206704329694539 0.20247256463386948 -1.0211679691686188 89 57 39
0.23106526767409266 0.2045518463377702 -1.0256014407803336 90 57 39
0.24747287044731447 0.17582328859858679 -1.0216519625620915 90 59 39
0.2486551569992199 0.1739357620538412 -1.0237207251738714 97 67 47
0.24933635667089815 0.1729574843332948 -1.0263210452835119 103 74 53
0.2511212626208282 0.17049118024981652 -1.0343850444392868 112 85 68
0.2514135614691908 0.17021857368309903 -1.037397783915563 115 88 69
0.24836350986985048 0.1765379681255334 -1.0507507207882707 124 99 78
0.2470436020831884 0.17919707308167204 -1.055554609914297 127 101 80
0.24571915277334672 0.18186532658204524 -1.0603750169551611 131 104 86
0.24369205457086243 0.18581213744579284 -1.0659867337329019 134 107 92
0.24054567962667522 0.19179578877540113 -1.0728612365616486 134 109 95
0.24043159833500302 0.19226588527020358 -1.0763734440288577 133 108 96
0.24070484303190842 0.19203158121537972 -1.0794544463170896 129 106 94
0.24123341133584456 0.19133272556458816 -1.0822484439533127 109 90 79
0.2413081709077129 0.19145954852983196 -1.085552442242927 91 75 64
0.24015361640413202 0.19382387744713978 -1.090248804882435 81 64 55
0.24108564170090224 0.1923907809132503 -1.0925871412097317 76 58 49
0.24000656093432565 0.19461872618488063 -1.0972107552106598 76 57 46
0.23965286517807396 0.1955265984419086 -1.1010155925912533 77 57 43
0.24008207739089388 0.195009027609586 -1.1039278508601587 77 56 43
0.2393915820325667 0.19653085103905454 -1.1081261934431503 79 55 45
0.23844191946276766 0.19852535073271765 -1.112630444469895 81 54 43
0.2395649563152915 0.19674407890097084 -1.1147458568865303 88 59 45
0.23974349493951547 0.19668347573455552 -1.1179511920682375 93 63 47
0.24415724400385966 0.18890397400783537 -1.1162270217405263 99 68 50
0.2460666401727588 0.1856871951991551 -1.117397196495349 103 73 53
0.2474711915197714 0.18338989295185926 -1.1191468535006324 108 78 59
0.24945406114280794 0.1800374390240272 -1.120208749087613 111 83 63
0.2509587300170659 0.17755611335790406 -1.12182184704959 115 86 66
0.25088371428341555 0.17795540664032122 -1.125293687435733 119 89 70
0.2527997758122273 0.17472264799603682 -1.1264067120709615 121 91 72
0.25103337382813534 0.17820778928208153 -1.131888535359692 123 95 76
0.24773998369367756 0.1844805841493427 -1.139207424810583 122 95 77
0.24949450656276304 0.18154238381623214 -1.1405103442971531 122 97 80
0.2513390398058312 0.17843903974179243 -1.1416943832767001 121 100 86
0.24976569166837334 0.18236695151171253 -1.1571940547463697 137 129 121
0.2515548537704213 0.1793628477439103 -1.1584209313143707 151 145 140
0.2533970067309737 0.17626106233965289 -1.1595719131625315 163 159 155
0.2547552812288546 0.1740426193785633 -1.1613047614565433 174 172 169
0.25677238720981344 0.17061942829693738 -1.162219312623333 181 180 178
0.2587856300052215 0.16720230485304174 -1.1631258155548092 185 184 182
0.1827880862847615 0.21194596735947877 -0.12003864712955781 124 91 70
0.18476754517623123 0.20874623305626125 -0.12286043418325382 121 88 65
0.18373975363702366 0.21099153978941484 -0.12897437907413922 112 77 50
0.18567413992622125 0.20810038226770308 -0.13479149748943575 102 68 43
0.1936201069270685 0.19454793589562872 -0.13692856580152765 101 67 43
0.19105305892598282 0.19969337721359204 -0.14619559977055596 96 76 63
0.18791178197552813 0.20537663149401156 -0.14957658882846367 100 84 76
0.18312598319801038 0.21391622820004602 -0.15318356770251773 104 93 88
0.17822934512219193 0.22265062656086193 -0.15683545950252162 112 101 97
0.1540512983091708 0.32954550949594097 -1.0025547497376543 160 158 160
0.17532784055493913 0.29207059355330545 -0.9928808231101002 110 97 94
0.18003131684035573 0.28387275151207303 -0.9918651594526885 106 90 87
0.18534560220537322 0.2745725204643468 -0.9902270909766197 102 87 82
0.18903783302113858 0.2681911507365905 -0.9901299220420603 95 79 73
0.19098760008659452 0.26494686801447365 -0.9917081724290201 91 73 66
0.19558646732036616 0.2569287895983541 -0.9906818319442392 86 69 60
0.19968635172077562 0.2498075264583502 -0.9901152782008849 86 65 55
0.20497944195669815 0.2405337410362039 -0.9883455495487979 90 64 53
0.20968449901503194 0.23231717560924126 -0.9871222799302768 92 64 52
0.20931345600362783 0.2332493518602567 -0.9909077978637235 96 67 52
0.21215578561233173 0.22838797214968704 -0.9914960794958046 95 66 52
0.215247095411822 0.22307620485191829 -0.9918173132960371 92 63 50
0.22116916231182596 0.2126573343878377 -0.9892780741312255 90 61 47
0.22305481519212111 0.20951659462435737 -0.9907636860618116 91 61 47
0.22303954678031995 0.20980453054821777 -0.9941589260233964 92 60 46
0.22685388168057935 0.20318239561968396 -0.9936726555097506 93 61 45
0.2311593737967072 0.1969666273970357 -1.0094663318444137 90 58 43
0.23147691476188237 0.19691189259897446 -1.01587103399445 89 58 39
0.23872402982188945 0.18407678314309367 -1.011659816681704 89 58 40
0.23814944277042885 0.18537292967185987 -1.0156087896257922 92 60 42
0.23545453884739662 0.19050188087214698 -1.021796912898795 92 61 42
0.2346351401181611 0.19224209308027465 -1.0260242803815594 92 61 43
0.24844258463856217 0.16804934880829947 -1.0213903905442134 92 60 40
0.2489786333947295 0.16733574705453852 -1.024139221761514 98 67 45
0.24917176896102855 0.16724236042370938 -1.027254673870612 101 71 50
0.24969328163351973 0.16655486473568012 -1.0300166469268155 108 79 59
0.2501807120590983 0.1659289087204995 -1.0328137125621109 110 83 65
0.2505626029407442 0.1654938520887546 -1.0357237920653746 112 84 66
0.249664683661093 0.16814562389133053 -1.05002363693039 120 94 71
0.24783720796393693 0.1717127577534437 -1.0553761265344137 122 96 75
0.24551672353365805 0.17617417765107551 -1.0612894356191425 126 99 81
0.24136359971983035 0.1839575061825024 -1.0692565492945416 130 104 87
0.24048968945054225 0.18580093393652058 -1.0736021953359443 133 107 92
0.2392514009639305 0.18830540150333125 -1.078363392302421 131 106 93
0.2406256555931104 0.18607499574539177 -1.080206069139321 125 104 90
0.24167603156825956 0.18443116007185364 -1.0824051673950323 102 85 71
0.24170375083623546 0.1846412161146121 -1.085752765948957 91 74 62
0.24138377942735015 0.18548195393226694 -1.0894957914683931 83 66 56
0.24079792976685344 0.1868052728890851 -1.0935450963059115 77 58 48
0.24015424979666383 0.1882339809183437 -1.0976665279324127 78 56 44
0.2407632071416938 0.1873904756182143 -1.100362898106985 77 55 42
0.24012715129058665 0.18880602635180743 -1.1044843841347194 77 55 43
0.2395443375197266 0.19012545713103485 -1.108551246359095 79 55 42
0.2391861387124266 0.19103764945365592 -1.1123651767643918 83 57 43
0.23881046818543145 0.19198191651802607 -1.1162039425266326 85 58 40
0.24158196554959144 0.1872120823302349 -1.1163933292349797 94 66 46
0.24534084866242406 0.18064773308994064 -1.1154145972325624 97 69 51
0.24717391504796624 0.17757931274255967 -1.11666059571702 101 73 56
0.24845067161079337 0.17552060679600578 -1.118547264859433 107 80 59
0.24966505807450706 0.17357465849353004 -1.1204999804012723 109 82 60
0.25020414018281 0.1728553125022697 -1.1232422208028197 117 87 66
0.251655611046311 0.17047761670256584 -1.1249032843676512 121 90 69
0.2544827148345541 0.1655987593363774 -1.124923543528025 123 94 74
0.25316054971460744 0.16826180085696762 -1.129863577267872 122 94 75
0.2518565832155151 0.17089264947870297 -1.134793529689068 121 94 76
0.2528390299452491 0.1693664227462283 -1.136997079391627 118 93 76
0.25409863590933773 0.16733569152290603 -1.138862561709346 117 96 81
0.2505507458684261 0.17483397527003908 -1.1566913347166285 136 128 120
0.2520364843093475 0.17239127446644947 -1.1582764789962865 151 145 139
0.25289457699696594 0.17109053574788569 -1.160620420094974 165 160 156
0.25501690589865433 0.16748753686550513 -1.1614091937947295 175 171 169
0.25655773564505047 0.1649424566594702 -1.1628999033391474 180 179 178
0.26190409850119156 0.15546536414655093 -1.1596849642315346 184 183 183
0.15191890512021947 0.2581238525881147 -0.10726830009748681 133 122 118
0.1804851333600823 0.209501789807141 -0.1140950800526204 126 96 83
0.1899128821272777 0.1934488274381565 -0.11626760369256023 125 91 73
0.19219505201595863 0.1897345820903998 -0.11903755435975075 121 87 64
0.1848232993760833 0.2026973709521562 -0.12270619170210371 117 82 59
0.1835047894730623 0.20520480203476585 -0.12583153423004903 117 81 56
0.1920473901938376 0.1909003813231373 -0.13095492685516438 110 76 49
0.1965279131403851 0.1840653544929218 -0.14236704975593803 99 72 51
0.19471033216061007 0.18743618840189988 -0.14555536685952436 97 73 59
0.1914057007199058 0.1933800891469264 -0.14893707833915196 96 78 69
0.18600597053375165 0.20294995396369164 -0.15260147975276878 98 86 81
0.1832706972448502 0.20791259154765862 -0.1559602016210709 101 91 86
0.1782792773432883 0.216780575680248 -0.15963195344862144 104 96 94
0.16276711129366198 0.307407837670535 -0.9953770337982984 114 106 104
0.1708178254852336 0.29324101285109627 -0.9912381969241932 107 94 93
0.17617990513430148 0.2838926884027279 -0.9896228485934597 106 91 87
0.18030935610013057 0.2767529668418842 -0.9891581170497574 101 86 81
0.18547654699251406 0.26774921762509507 -0.9876642639586773 96 79 72
0.18876289338011282 0.26211807057763964 -0.9879592793050085 90 72 66
0.19150630139415764 0.2574597755420824 -0.988761427569618 87 68 61
0.19545034617831133 0.2506449466998485 -0.9883741560946795 86 66 57
0.20021861507893074 0.2423483994155258 -0.9871536124099125 89 67 55
0.20529572134828977 0.23349489429212028 -0.9855978775692816 92 66 54
0.20895818084725812 0.2271793274568328 -0.9854044738821988 95 66 54
0.20836141889477294 0.2285120812850892 -0.9894054604686278 94 65 51
0.21081274223413243 0.22436971289011265 -0.990383201722463 94 65 51
0.21264952661518352 0.22133030215418517 -0.9919586090052658 92 63 49
0.2180262111584106 0.211929049779731 -0.9899798687028892 88 59 45
0.22037068902016055 0.20797457242087028 -0.9910109085007461 89 58 45
0.22122845734955682 0.206691317088372 -0.9935259595893547 90 58 44
0.22445835705986256 0.20114324033326592 -0.9936374809888279 89 57 42
0.2261151593088941 0.19842203630255056 -0.995324924563572 89 57 42
0.2353031276481221 0.18368987255548852 -1.0093693569919446 87 56 38
0.2357279686228922 0.18318110805217275 -1.0122725722156167 90 59 41
0.23680746594547725 0.18149357737513538 -1.0144893465671796 95 64 46
0.23663342076062566 0.18206290899038707 -1.0180172448085576 98 67 48
0.2350075602351679 0.18524721651724718 -1.0230786222381179 92 61 43
0.2486638426526905 0.16141157198812436 -1.0186105111738881 88 56 34
0.24949005191773171 0.16017610278033628 -1.0210405115081498 93 61 38
0.24969658170624062 0.16005722364624148 -1.024130771091411 96 64 43
0.2501825128657355 0.15943471943094212 -1.0269210266412323 104 73 52
0.25066831870683026 0.1588123245771786 -1.0297098936719349 112 82 62
0.25087071429398505 0.15870085568742814 -1.0328040470728677 116 87 69
0.24649369427844392 0.1678688518487518 -1.054212710865326 121 94 72
0.2459126276860068 0.16917311007929944 -1.0581941720500252 121 94 72
0.2437257863427421 0.17337643433337369 -1.0639603772146426 121 94 73
0.24292440136198556 0.1750798316944774 -1.0682047008037643 123 96 78
0.23897852526150676 0.18246169374440188 -1.0759622770934358 127 101 84
0.23935451398281732 0.18204088224071593 -1.0789165887512717 124 101 85
0.24003901390645205 0.18106278091936512 -1.0815240358148857 118 98 82
0.24088340061496782 0.17979562238549582 -1.0839485794962411 103 85 72
0.24149959972042653 0.17894043080763158 -1.086626704092811 87 69 60
0.24150329414238927 0.17919186839673945 -1.0899962269202965 78 58 51
0.24160764892256115 0.17926153189734423 -1.0932533233064652 76 55 43
0.24099309699961635 0.18063077536615674 -1.0973312225302707 77 54 42
0.24091006359314093 0.18103959903929973 -1.100807695766321 76 54 41
0.2404427382463575 0.1821434740604124 -1.1047276378938087 77 54 41
0.2378732348870438 0.18704936818096485 -1.1110722346870998 79 53 39
0.2381056964734528 0.18688894966260478 -1.1142026576363309 79 52 37
0.23821426464975293 0.1869526753431055 -1.1174768865205524 86 58 42
0.23916345389793908 0.18549560612934757 -1.1197757955684726 93 65 49
0.24646979563744442 0.17253476378815186 -1.1146617530635217 98 70 53
0.2505486938998388 0.16566833291031746 -1.1166323624481425 110 81 60
0.25141978805441745 0.16434878397610306 -1.1189726812580472 116 85 64
0.2524144485037489 0.16280517076858342 -1.1211628832052503 121 90 69
0.2529358244860853 0.1621182322441222 -1.123907963390741 123 94 72
0.25088716455057075 0.16608597129076963 -1.129702105197969 123 94 74
0.25407085726574274 0.16057677920126973 -1.1292828507331185 126 96 78
0.25523634760630654 0.15872243232417554 -1.1312528939189161 124 97 80
0.2546312603037093 0.16007591417075084 -1.1353376027714472 121 97 79
0.2509737873318892 0.16825598380004336 -1.1600133710237372 151 145 139
0.25341992565611926 0.1640780602966715 -1.160409792750041 166 162 158
0.25575944922605814 0.16009234832051822 -1.1609211726918844 175 174 172
0.25766020576781085 0.1569016386290727 -1.1619575020254085 180 179 178
0.2616074191154938 0.14999607440874724 -1.1604555106965533 186 185 183
0.15988751306208177 0.23830963154636428 -0.1065533220310165 125 108 104
0.16471465852789527 0.23023671569561488 -0.10922594672620727 126 104 98
0.17374838717343596 0.21492342364384248 -0.11152555013949915 129 100 90
0.183643186756071 0.1981242856566314 -0.1136991815029371 124 91 78
0.1917754206522757 0.18435441768535404 -0.11597040260194033 123 87 68
0.19426432700919088 0.18029533809237527 -0.11870895918158456 121 85 62
0.19634468356513765 0.17716311299230633 -0.12442759223261146 115 79 54
0.19664905578746414 0.17686358402840638 -0.12735364792760634 109 73 47
0.1941558593620777 0.18138230984068598 -0.13056826868755617 105 71 44
0.19033186725861925 0.1881946428509843 -0.13394091214017706 106 72 45
0.19235039867286688 0.18584838225774863 -0.14860946187886043 95 74 63
0.18724725447661048 0.19487227303903207 -0.152225572852808 93 79 71
0.18337147044202926 0.20178248806790416 -0.15571781672757132 98 85 78
0.1830662366178394 0.2025376483276199 -0.1587694604668924 101 90 86
0.1803489579447048 0.20745289329874705 -0.16214647970641458 101 91 89
0.1746899577882921 0.21744349357546947 -0.16594310313526936 107 97 96
0.15579535760346913 0.31290043314300114 -0.9959930917704496 114 104 103
0.1666167222593021 0.2938378428566136 -0.9892836419537415 106 94 92
0.17256464241766803 0.2834778233467329 -0.9871444610259811 100 85 82
0.17634010898497385 0.2769972453481566 -0.9870434279471494 98 81 75
0.17806132137475514 0.2741865672735379 -0.9888898160842663 92 76 68
0.18612232616550642 0.26004177965823105 -0.9846188700668932 88 69 63
0.18956168395048495 0.25415599324143234 -0.9847619329826821 84 65 58
0.1933487376845507 0.24764678707692628 -0.9845455670312097 86 65 57
0.1959183699075675 0.24331301743804568 -0.9854902581973164 88 66 55
0.19927823541241602 0.2375645290695278 -0.9856466332321648 91 66 55
0.20402493758195905 0.22933337649208696 -0.9844212004154316 94 66 55
0.20510708323627186 0.22765665142216632 -0.9867716509362428 94 65 52
0.20758851938100142 0.22347544791142848 -0.9877342048139685 90 62 48
0.2095263387817129 0.22026602739139672 -0.9892202429724203 89 60 46
0.2122103375985828 0.21572002521716493 -0.9899522961844844 87 58 44
0.21729324390762278 0.206877936656076 -0.9882724222349658 86 57 43
0.2181787515561277 0.20554907541108847 -0.9907641699395376 88 57 43
0.2194094089189887 0.20360177855447298 -0.992904632378411 89 57 42
0.2230021902851422 0.1974231290128744 -0.9926551450849261 88 56 41
0.22453771351930546 0.19492804931399965 -0.9944652182196798 88 56 41
0.22804878971431952 0.19016718123556536 -1.0110331760131999 88 57 39
0.22851938303137032 0.18957860817891775 -1.013905740414247 85 54 36
0.2304664981937557 0.18634174072769433 -1.0152402850312334 88 57 39
0.23521300414270138 0.1780824221332049 -1.0136396955063074 92 61 43
0.23599811628809228 0.17692771924037226 -1.0161582134581468 92 61 43
0.23456703354531844 0.17974935006782733 -1.0210031240902397 89 58 40
0.25147271729305465 0.15166789601492392 -1.0328851598398379 110 81 62
0.2524307381440639 0.1504483357458491 -1.0384519070367333 116 88 67
0.25276679795252915 0.15034652210943528 -1.044695415155008 117 89 67
0.24679470630885753 0.16133642591734526 -1.054579844280699 117 89 68
0.24375275062907675 0.1670601664650241 -1.0612717615986715 120 92 70
0.24369723638006274 0.16741408149933812 -1.0646773392112328 119 91 69
0.24107897551904411 0.17237841373413318 -1.0709349181704049 122 94 73
0.24029865244380483 0.17403747339336345 -1.075162951925936 122 96 76
0.23948550529346013 0.17575617468631907 -1.0794352890174579 119 96 76
0.23982986218518562 0.17539223861501277 -1.0824159046206976 113 92 76
0.24071934672216166 0.17404701699157699 -1.0847820560174628 97 77 67
0.24190556666437646 0.172167245768085 -1.0868085235686125 84 65 57
0.24192206746401734 0.17239315002027195 -1.090154297564309 78 57 45
0.2418914381045416 0.17270407025772588 -1.0935555244389692 76 54 43
0.24110028274693096 0.1743849612852738 -1.0978264646790479 76 54 42
0.24074231856994055 0.1752860853502558 -1.101609397692558 77 53 41
0.23928211119037798 0.1781734387749277 -1.1066621333678233 78 54 39
0.23752151147672762 0.18160303431390334 -1.1120732807057905 80 53 40
0.2363578329972544 0.18395796205972664 -1.116809628116699 80 51 38
0.24458091005589072 0.16939409523546212 -1.1106800099499452 85 56 39
0.2502654380189744 0.15991179943278983 -1.1141498943619328 113 82 59
0.2512501161984051 0.15839082092884021 -1.1163508488044316 117 86 63
0.25200257229021217 0.15728834970333289 -1.1188199297213064 122 90 67
0.2512077298535138 0.15897716415742286 -1.12311195673108 125 94 71
0.2526902076312939 0.15655732666233885 -1.1247153515587744 127 96 75
0.25472396197081487 0.1531419374957506 -1.1256552655862155 129 98 79
0.2547654210891438 0.1533216115546076 -1.1289557606991 127 98 80
0.2556612251654748 0.15195911049899896 -1.1312370837794614 126 98 78
0.2560390456596671 0.15153149647924413 -1.1341347007077112 126 98 79
0.24984093313131528 0.16400537813844845 -1.1584512064758654 137 128 121
0.25173014313991143 0.1608483007019926 -1.1595292672008235 154 148 142
0.25425466343183184 0.15654203200193673 -1.159817926444122 167 165 160
0.2563391368954396 0.15303000392432453 -1.1606303929451411 176 174 172
0.2581112631177637 0.15008169910252017 -1.1618142343903513 182 181 179
0.2607489081149687 0.1455674529423877 -1.1619182373758024 186 185 183
0.14667526713015733 0.25469752084370706 -0.10436649217344808 127 114 111
0.1605025282042517 0.23122579995471265 -0.10639992773865554 122 105 99
0.16804309605383377 0.2185268463745478 -0.10884930188762756 127 105 98
0.17625718413392483 0.2046696688803259 -0.11119988357479975 131 102 91
