ply
format ascii 1.0
element vertex 663
property float x
property float y
property float z
property uchar diffuse_red
property uchar diffuse_green
property uchar diffuse_blue
end_header
-0.17213484028384113 0.08047358043717846 -1.0359616876531423 94 71 56
-0.1773827706483065 0.08346216044043228 -1.0359592877850308 96 74 60
-0.17981255645381952 0.08477410986564733 -1.0377801713620702 95 76 64
-0.17969521482470624 0.08457006966404872 -1.0412641873770407 97 77 66
-0.17842022437780683 0.08367668024991655 -1.0455128226533712 95 77 67
-0.17295285215998368 0.08028658180542934 -1.052537015933143 94 76 66
-0.1723153943404495 0.07977193102494166 -1.056387293547059 93 76 66
-0.1575629432647662 0.07084979097888594 -1.069620974669688 92 77 68
-0.16191547542225132 0.07330618136674158 -1.0701846829350634 91 77 68
-0.15358081381860053 0.06820424817437533 -1.0792154304190138 91 76 69
-0.15495724151698273 0.06888745942641908 -1.0817699147966071 88 73 66
-0.15317338297596764 0.06768740657325015 -1.0864472258688485 79 64 57
-0.15683658946617807 0.06973364985128686 -1.0874578993521449 70 53 46
-0.15688017549224403 0.06962266385469587 -1.0909060549577498 66 49 42
-0.14452926921091572 0.06212189944160308 -1.1027739364817235 66 49 42
-0.13893985560687833 0.05865081326762683 -1.110089864920856 66 49 42
-0.15552778020557545 0.06840469762441598 -1.1022765908358179 66 49 42
-0.15492215503364945 0.06790603211516222 -1.1061812579051786 66 49 41
-0.15090648688874603 0.06537294802439587 -1.1124354367990619 68 49 41
-0.14807207023243876 0.06354386809590055 -1.1178941682178771 73 52 39
-0.14322861344265148 0.06051541819607664 -1.1247570377490048 79 54 41
-0.1501638530610302 0.0645154789840381 -1.1234692339924721 80 54 38
-0.17281651208752513 0.07789791373646589 -1.1112145054278357 84 57 37
-0.17620164105538458 0.07978215433418355 -1.112317820290421 91 67 42
-0.17366551258850857 0.07813164162203998 -1.1175555533291694 96 72 48
-0.1723866546294851 0.07723136192550921 -1.1219232151208833 98 73 52
-0.17400526107089748 0.07806116573744609 -1.1242572744593111 98 73 52
-0.1685216054869799 0.0746490337211639 -1.131605468411911 98 74 54
-0.16690878116382474 0.07354823047186294 -1.1362357443980857 98 74 57
-0.17075557592772794 0.07570896194500121 -1.1369939871240444 98 76 59
-0.16170809196654168 0.07016537272449465 -1.1469319862296778 98 78 61
-0.14856715086814504 0.06217381966335099 -1.1598382147962307 99 81 67
-0.14114530929744828 0.05759833303005235 -1.1687005686288494 99 83 71
-0.13439094633051205 0.05342052311072848 -1.1771167029788476 96 82 72
-0.12085945725352454 0.045189592462462506 -1.1904539610101006 104 94 85
-0.15390689198735258 0.06480871723516271 -1.1701433518287687 123 114 107
-0.15891017919820077 0.06766161690394767 -1.170048681086281 144 138 133
-0.1626542111150261 0.06976206851963747 -1.1708516244240794 163 159 156
-0.029294422051159535 -0.01030450485556153 -1.2755489747306887 184 182 183
-0.02734876719520002 -0.011618926180254271 -1.2807907602781174 188 188 188
-0.15086401827215776 0.06201039428208478 -1.1971973505419597 193 193 193
-0.19452867501366125 0.08800945239590639 -1.1684101680090162 194 194 194
-0.08863189744617561 0.023302335065755728 -1.2802072706453742 203 203 203
-0.20965128453513582 0.09556896352991151 -1.1951259370422624 205 205 205
-0.243444237785555 0.11556325341020655 -1.1760690390110051 206 206 206
-0.245605092527321 0.11672578454424756 -1.1777952896053026 207 207 207
-0.24527238646483865 0.1163926817435621 -1.1814423414449247 208 208 208
0.016880458520366057 0.01887731907988116 0.04203333337604676 182 182 184
0.010812278055665194 0.02219974001851167 0.038928042333481176 182 182 184
0.005478473809333417 0.025106253661157873 0.03584446938209116 182 182 183
-0.0009390871686496514 0.02862831766579152 0.03277429624603892 182 182 184
-0.005647071668614088 0.03118103602250083 0.029725418614815573 182 182 184
-0.010980785426010782 0.03408942280296006 0.02669113523070967 182 182 184
-0.01692128843215235 0.03734285178342042 0.02367457451254632 182 182 184
-0.020932952354652187 0.039502070291288036 0.02066818709448244 182 182 182
-0.02357368436371911 0.04088343571452421 0.017665506675837706 182 182 183
-0.021941707549601605 0.03983907418760357 0.014637636800714018 182 181 182
-0.027434148287674938 0.04284007941536924 0.011668447870429907 182 181 181
-0.026671345471278068 0.04228924341861967 0.008647572940117473 181 179 180
-0.02629437269543304 0.041957385068042655 0.005627230669955588 181 180 181
-0.02828066511646412 0.042967872960276765 0.0026377160475881886 183 180 182
-0.026105683609261604 0.041614446158590016 -0.00041352463307049465 183 180 184
-0.022901178863001925 0.039675700429576195 -0.003492144884647598 183 182 186
-0.024523032691772098 0.040479057057981174 -0.006489700774838664 182 182 185
-0.02307191896751222 0.03953613071429447 -0.009548402689468376 182 181 184
-0.02115752143813674 0.0383296186269562 -0.012624372683466834 182 182 184
-0.05885801625605124 0.059641964241456506 -0.014737833072777172 181 181 183
-0.014683147879241028 0.03441156318929514 -0.01887049007745174 181 181 183
-0.06347052444328714 0.06203217963176255 -0.020560991062479418 181 181 183
-0.06219404327924933 0.061190316546099535 -0.023569492672304022 181 181 183
-0.0633881113250033 0.06175326149260007 -0.026506736310746883 181 181 183
-0.06499935664512052 0.06255358097077249 -0.02942788895662908 181 181 183
-0.066354775391261 0.06320851938938066 -0.032354179463866 181 181 183
0.03186474177207233 0.005118177587743928 -0.09257250162828272 180 181 183
-0.028550396625076236 0.039438303317271425 -0.0916811925612317 180 181 183
-0.030631929932874523 0.04050524930224711 -0.09460900054761583 180 181 183
-0.029708959558518096 0.039859064286251 -0.09774396652080874 180 180 181
-0.028489458525043462 0.039043565138667406 -0.10090542244125345 162 160 158
-0.038404903821078765 0.04457911783809079 -0.10324681943067227 107 98 96
-0.054389891609501945 0.05357836747318514 -0.10509497742900567 103 92 90
-0.06877452958381912 0.06166666188503743 -0.10701391997760686 104 93 91
-0.08265648900166657 0.06947000410994378 -0.10892477740973505 103 92 88
-0.08718407939923827 0.071936966433863 -0.11154806893646917 99 88 84
-0.09413149117540102 0.07578553700591484 -0.113956983052411 92 81 75
-0.10038651058444129 0.07923976294921045 -0.11640213805921468 98 81 75
-0.10813237645807772 0.08354584011930019 -0.11869868278409905 83 63 53
-0.11227105911164018 0.08579343748138611 -0.12128769374217883 76 53 40
-0.11627026372129576 0.08796188556429328 -0.12387660490584526 83 60 46
-0.11470816685279561 0.08695492148699424 -0.1269623346019169 83 61 47
-0.10519575503784975 0.08140695949312635 -0.1307966754744488 83 60 46
-0.11215798141887942 0.08526802842176581 -0.13310080847144323 81 57 43
-0.11641093390321472 0.0875822407189556 -0.1356445555300314 81 58 44
-0.10751397022182724 0.08238388029235183 -0.13947025340495417 75 52 40
-0.1096659347005602 0.08349769504196769 -0.14222135601063854 71 48 35
-0.11287477662443125 0.08521571497089614 -0.14485895027915996 73 52 41
-0.11651179952895721 0.08717882797727718 -0.1474427020577514 75 59 50
-0.11634958107390657 0.08697067170901822 -0.15041617606455837 76 65 59
-0.10853671723174875 0.08238869316400708 -0.15421216436351853 79 70 67
-0.11743004499150236 0.08735733813199284 -0.1562170364747935 80 72 70
-0.10928785774987318 0.08258591597315441 -0.16007843809956715 81 73 73
-0.10044082456993719 0.07741022052085447 -0.16404936399415312 82 74 74
-0.09298253767217304 0.07302754588540858 -0.1678944486149753 88 80 78
-0.09173458778816307 0.0721962369138327 -0.17104733040075315 90 85 82
-0.09120740830276691 0.07177703367197483 -0.1741215404751642 96 92 89
-0.07880545753525024 0.06456341911566037 -0.17861799478314822 99 94 92
-0.06716695248211638 0.057784899777826804 -0.18306724308747516 107 104 103
-0.05439755480087221 0.050357506801955804 -0.18769825937377177 128 128 128
-0.041848248156933596 0.04305426262992157 -0.1923485328962938 164 165 166
-0.030395168126222335 0.03637674108397985 -0.19690612128025156 179 180 182
-0.019764487866356647 0.030168399779297826 -0.20140039756911982 179 180 182
-0.01048530120050377 0.02473235105116696 -0.2057582678329661 179 180 182
-2.322705554775109e-05 0.018617582902296113 -0.21030658676806374 179 180 182
0.01661296304614618 0.008965326306611773 -0.21571814572801892 179 180 182
0.03153616489758045 0.000291866417558663 -0.22095853057976192 179 180 182
0.0433856827388212 -0.006622974034859244 -0.22583222426409044 178 179 181
0.054672939038416475 -0.013217395668799686 -0.23067165274748938 179 180 182
0.0672589886005692 -0.02055764037873811 -0.23573553293220667 179 180 182
-0.05701876711628676 0.04426251737986117 -0.3818998131758561 180 181 183
-0.056682685892936104 0.04394385040727284 -0.38517664177283395 180 181 183
-0.0517249061544927 0.04095938947768175 -0.3895547862989957 180 181 183
-0.04484470169377807 0.03686520593840477 -0.3944132805264733 180 181 183
-0.03937701869285058 0.03358486966370578 -0.39895809329071275 179 181 182
-0.03606484225461057 0.03154737493516886 -0.40300088833054504 182 181 179
-0.03506686209277911 0.030844756204533606 -0.4064909866859196 154 150 148
-0.034624640064463405 0.03046266217377448 -0.4098495838606411 126 117 113
-0.03251358618479917 0.02911717551568521 -0.41362662340589634 116 104 99
-0.032831229015707675 0.02917333015009389 -0.4168052031150846 113 98 90
-0.04670154751308732 0.03705401642307907 -0.41656594793381985 105 88 79
-0.048059619444487306 0.037711838775185275 -0.41945693871557677 109 91 81
-0.05048606540786364 0.03898675192149009 -0.4220714957460144 111 93 83
-0.0576223637578543 0.042982157076141704 -0.42346510132056253 110 91 81
-0.05895539473272588 0.04362635987833584 -0.42634095343766165 109 91 79
-0.06028733142232287 0.04427004520535724 -0.4292141540489298 111 95 82
-0.05895117035987843 0.04337228442310929 -0.4327868728584104 110 97 87
-0.060910274625314356 0.04437841422701538 -0.4354928379204334 118 105 99
-0.06073325802202316 0.04415024396340666 -0.4387638209496588 134 126 123
-0.07469836139815783 0.05209599115024341 -0.438235897893154 169 165 163
-0.08048283794823596 0.055314754689190095 -0.4398725256985939 182 182 184
-0.0875149995671536 0.05925560666445874 -0.4411497525545556 181 182 185
-0.09399170330896067 0.06287622715493597 -0.4425553349321977 181 182 184
-0.10286231758790783 0.06788205641088502 -0.4432777216624789 181 182 184
-0.10430153879786074 0.06859113128520808 -0.4460355143004361 181 182 184
-0.10616149478585206 0.06954370183341212 -0.4486721494871273 182 183 185
-0.2811849599931035 0.16368163244136064 -0.5815232792696835 195 196 198
-0.20244550479760456 0.11765023751216001 -0.6160249001981949 195 196 198
-0.20060070835361166 0.11645337005679768 -0.6198654753240715 195 196 198
-0.19768620877570992 0.11463219711816411 -0.6241479471537652 197 198 200
-0.20152933327559452 0.11675270395518111 -0.6256961622473559 197 198 200
-0.2151592967535022 0.1245837996812457 -0.6232335538212281 198 199 201
-0.19611039988031323 0.11334808251354181 -0.6341326905395016 198 199 201
-0.04047554688046373 0.022398363813638467 -0.7014307858558706 198 199 201
-0.008213959801722251 0.003434551262586641 -0.7182193943705205 199 200 202
0.037018732082336164 -0.023106069489281178 -0.7405340814497965 200 201 203
0.0009837161594718757 -0.002618990883329335 -0.739577078168354 203 204 206
0.029086338097752476 -0.0191717430170886 -0.7550629186014496 204 205 207
0.05275787345750957 -0.03314019636523944 -0.7687642171375124 205 206 208
-0.013370662457726473 0.0016413733879116904 -0.8390962308627652 210 210 212
-0.02485925334863308 0.008239750752813288 -0.8370817987144691 210 210 212
-0.027451379056740347 0.009622039643017236 -0.8393543563582092 211 211 213
-0.034422523693191265 0.013573275524382263 -0.8394787781849744 213 213 215
-0.03702180096996424 0.014960726370731273 -0.8417230739611061 215 215 217
-0.04273646149253933 0.018176388501220768 -0.8424243890949294 217 218 220
-0.046232713882400814 0.020091065867031813 -0.8442026253376798 218 219 221
-0.06138083997978104 0.028844535293614866 -0.8401822304424373 218 219 221
-0.06330386173168047 0.02983759696351245 -0.84269844994465 218 219 221
-0.06488726958323121 0.030631503323418595 -0.8453792484797091 218 219 221
-0.06805098197271389 0.03235339842071213 -0.8472616549842864 218 219 221
-0.06878693576919155 0.03265012432167644 -0.8503587474059379 219 219 221
-0.059983763634448656 0.027344780703555074 -0.858287691580788 219 219 221
-0.06309946706186496 0.029038575548222985 -0.8601920058214223 219 219 221
-0.06420916297024487 0.02955437704396556 -0.8631103642313426 219 219 221
-0.06715601482730683 0.031149611584198003 -0.8650847978777099 219 219 221
-0.07184974260506329 0.03377166173153116 -0.8661507513609892 219 219 221
-0.07482948092287407 0.0353871054453984 -0.8680855827767997 219 219 221
-0.07829096178490427 0.0372860693435377 -0.8697608797021672 219 219 221
-0.08043773129884174 0.0384126719349004 -0.8721089566886566 219 219 221
-0.08537860084541943 0.041182175517655954 -0.8729904653082116 219 219 221
-0.08036282497887098 0.038098074999529094 -0.8790776066005853 219 219 221
-0.0954245933611755 0.046819834758462624 -0.8746141806774528 219 219 221
0.013696725061048354 -0.01849517405181212 -0.9614160418551003 217 217 219
0.015649770667996915 -0.01978865567697162 -0.9661577217429289 217 217 219
0.017837801646509804 -0.021220906292446315 -0.9710381104734588 216 216 218
0.0213185134635481 -0.023414881117612585 -0.9766390482669799 214 214 217
0.023910060159241214 -0.025085779135362793 -0.9817666931555786 187 186 189
-0.02099408154619367 0.0012215347647964447 -0.9606520724161294 149 145 144
-0.023411850986024024 0.0025046639088440042 -0.9629300938629454 124 116 112
-0.0282183008262977 0.0051955838348279465 -0.9638705368122575 113 102 97
-0.03417947626534486 0.008567672154374692 -0.9641484880740214 107 93 86
-0.03899593203343579 0.011265921399378293 -0.9650466460367888 103 86 78
-0.04518521681127187 0.014774091242044408 -0.9651547791065314 98 80 73
-0.04840901509320965 0.016534838360648542 -0.9669154390490124 97 79 70
-0.05419311562628103 0.019805646040069978 -0.9672136597339718 95 76 67
-0.04689809866523345 0.015364363475778547 -0.9749328529625694 93 73 62
-0.058988731338767156 0.022355331476553462 -0.9716138968353625 90 70 59
-0.06423696706570627 0.025311997193733005 -0.9721692863221049 90 69 56
-0.06903301798341503 0.028002641297720746 -0.9729656498007516 91 68 55
-0.07657723537419393 0.03231546114521457 -0.9721586308799279 90 67 55
-0.07777510179812207 0.03288434788911655 -0.9749989023999868 87 65 54
-0.08284237787524044 0.03573702240368915 -0.975587520537777 84 62 51
-0.0860491829683383 0.037492236937814706 -0.9772428911787164 81 59 48
-0.09063362126650908 0.040061159085836094 -0.9780810716489651 80 57 46
-0.09353757022305965 0.041638514942329743 -0.9798898350473504 80 56 44
-0.09325009475514477 0.0413316819187294 -0.9835700386529053 80 57 43
-0.0965943106605839 0.043169550809314824 -0.9851056916009103 81 58 44
-0.09599231395362288 0.04267696171356583 -0.9889720069892567 81 58 44
-0.10067126578982301 0.045303901835301676 -0.9896979578377431 80 57 43
-0.1180725648611539 0.05544823267149308 -0.9828040346901317 80 54 40
-0.12260897164011361 0.05799328351025462 -0.98355548436844 79 53 38
-0.12885215153521418 0.061547658745557225 -0.9832635579274928 78 52 37
-0.14200168278912156 0.0691850813456602 -0.9787783878943083 78 52 37
-0.1503319774338573 0.07397563809285285 -0.9771609740463342 78 52 37
-0.16806303898280273 0.08432546227679301 -0.9697969574951403 78 52 37
-0.16949410665410186 0.08503969520703876 -0.9723041351672109 79 53 39
-0.16550793234670075 0.08255036582487973 -0.9781229475658613 81 54 42
0.014975827952041332 -0.024774149233626086 -1.1036404315956652 88 62 49
0.00672245503240082 -0.02003711059400623 -1.1022756871394823 87 63 51
0.005195583022542166 -0.01928007912555152 -1.105079192890441 87 63 52
0.0031520340180302697 -0.018217046200664277 -1.1075551361125917 87 63 50
0.0029870297020944125 -0.018265944331557718 -1.1112057681723222 88 62 49
-0.05205859010192676 0.013896135585333688 -1.0875422176798373 84 56 37
-0.12283935704475224 0.05568135103966473 -1.046116687324654 84 56 35
-0.11562203597688764 0.051268669661505756 -1.0542326294904996 84 56 35
-0.1322131476059042 0.0609617588326235 -1.0471200807969627 86 55 34
-0.14849649173464227 0.07047506973689965 -1.0401387044058834 85 57 35
-0.1601236261978432 0.07723127360315929 -1.0360957280232193 89 60 38
-0.16701333354207265 0.08118109389297266 -1.0350727504843258 91 66 45
-0.1727777492080146 0.08446482181838749 -1.0347539501000749 93 71 53
-0.17645448661364244 0.0865115564557184 -1.0357732377580895 95 73 59
-0.17363222083061342 0.08470482584959342 -1.041026393637525 94 75 62
-0.1756028584118491 0.08574018167118878 -1.0431514606988173 95 75 64
-0.17410183535433074 0.08471647434362202 -1.0475536953790887 93 74 64
-0.17948800549278354 0.0877782994942258 -1.0474205828936864 92 74 64
-0.17559806278717094 0.08533705606202217 -1.0534065135491635 91 73 63
-0.164571150871496 0.0786598778629913 -1.0641494739524304 91 75 66
-0.16101762044559706 0.0764162651289208 -1.0699633394185384 91 75 67
-0.15754047237217939 0.07421732208452363 -1.0757433194786736 89 74 67
-0.15667815751839453 0.07357005479658883 -1.0797876055979856 88 73 66
-0.1562722157966362 0.07319352774483007 -1.083530940926179 82 67 60
-0.1594300533385012 0.07493311902610099 -1.0848747287458997 72 56 49
-0.1604492848135024 0.07540299957225814 -1.0876543426868246 68 51 44
-0.1554383715332345 0.07229109767365005 -1.0945242017289023 67 50 43
-0.1494409701949654 0.06859223599118672 -1.102088962951326 66 49 42
-0.15403678089350542 0.07118633041036386 -1.102447730157125 66 48 41
-0.1556607912571924 0.07201513135719192 -1.1048249566315054 64 48 40
-0.14789055352307884 0.06726090556935088 -1.1136520511521892 65 49 41
-0.14691469188358225 0.06654391489448111 -1.1178317232252428 69 50 38
-0.14661996893198664 0.06623160145696094 -1.121546950879074 73 51 39
-0.14428074198643093 0.06470355093319603 -1.1266833768332405 75 52 38
-0.14873417446173565 0.06721428989490764 -1.1271076190323879 78 51 34
-0.17671492441866532 0.08371817451642094 -1.1111020059088748 89 61 41
-0.17739191051497308 0.08398585664071367 -1.114085890946422 96 71 48
-0.17492153927161527 0.08238120076280622 -1.1192781900432245 98 74 50
-0.17512993248421055 0.08236986494120623 -1.1225974238562242 98 73 51
-0.17433855650868985 0.081763547065576 -1.126623988910726 98 73 53
-0.15564840993491455 0.07050459060623006 -1.1433326022176942 99 73 55
-0.17497263896257775 0.08186977961835266 -1.1331192956066942 98 75 57
-0.1672703231173495 0.0771488058534348 -1.1420819621179064 99 77 59
-0.16141290667079838 0.07352491131285654 -1.149761301828403 100 79 64
-0.1506268393571564 0.06696503993646852 -1.1610003985446977 100 82 68
-0.14045965777901792 0.06077187031048095 -1.171842850557575 96 81 68
-0.13302981344247025 0.056207403312262455 -1.180757357090249 97 84 74
-0.15149280763904513 0.06706674249436287 -1.1709820846851728 110 100 91
-0.15612531676603597 0.06968868244375065 -1.1711610744220344 129 120 114
-0.16093427386787898 0.07241644868136662 -1.1711942605335042 151 146 141
-0.1665549082413161 0.07562866993608897 -1.1706170739015591 169 166 164
-0.17023545922361216 0.07768532642465402 -1.1714376741730004 180 178 179
-0.17322943163661716 0.07933320580466635 -1.1727486574900277 187 186 187
-0.17244011891170669 0.07872578543999956 -1.176833447664158 190 190 190
-0.15542075803276523 0.06843993514257984 -1.1929032361669145 192 192 192
-0.19511374528371025 0.09197426933313123 -1.1670676645039837 193 193 193
-0.1999427212901546 0.0941791635995598 -1.1807834864384024 199 199 199
-0.20985564128484796 0.09996091122073965 -1.1767826947756042 201 201 201
-0.2000503876230397 0.09397277556447833 -1.187634329339392 201 201 201
-0.19580503497844773 0.09130254816878913 -1.1943192147925012 202 202 202
-0.21371194625882384 0.1017253381569927 -1.1876423141415706 204 204 204
-0.21542103060014836 0.10261163849021986 -1.1897833930762716 205 205 205
-0.21503162466858675 0.10224448606839154 -1.193526968083819 205 205 205
-0.24720364927842123 0.12133234356357764 -1.172259599588399 206 206 206
-0.24891759969125654 0.12222454663026902 -1.1743202253528908 207 207 207
-0.248460354358741 0.12181931492257846 -1.1780530619809986 207 207 207
-0.30499687760883487 0.15548164217301996 -1.1376351658826662 208 208 208
0.025421396216981224 0.017744261321788846 0.04510943688728794 182 182 184
0.03771822060013445 0.010674379131922365 0.042122503763079806 182 181 186
0.024575121910247234 0.017984192887150672 0.03894306656121002 182 181 186
-0.0058885822806956575 0.03508822994334966 0.03573335945016765 182 182 184
-0.010977978312752133 0.037848589379945584 0.03268801611185612 182 182 184
-0.017937157020557554 0.04166690900034389 0.029656472840404617 181 181 183
-0.021354019464723227 0.04348264890322566 0.02664356565168005 182 181 183
-0.02691002628938284 0.04650873545673374 0.0236458332843595 180 179 180
-0.0308301816961443 0.04861008133705248 0.02065815816554521 174 173 171
-0.03430356438694031 0.050459103471811276 0.01767930653553766 162 159 157
-0.03813470786161037 0.05251094246487103 0.014713138161147825 151 147 145
-0.039006144283267416 0.05288833522509985 0.011730675640750284 142 135 132
-0.040701746478155415 0.053732218159598694 0.008758450674492272 136 128 124
-0.041561442712022084 0.054103112091485134 0.005779622095774987 133 124 121
-0.039621442548762244 0.05288917139547 0.0027617656537865442 133 125 123
-0.039966961397667644 0.05296886741235557 -0.00022773396364210094 135 128 126
-0.039339174911105224 0.05249743513399871 -0.003235082602215701 139 134 131
-0.037190476561191003 0.051164581014347364 -0.006275868244990622 151 146 144
-0.03518734740134914 0.049913820351252594 -0.0093226196156794 160 157 157
-0.0318172951975849 0.04788847933435411 -0.012409124001083 172 169 169
-0.053889856662828646 0.060275441652287876 -0.014884973478517168 179 178 178
-0.024287739758912928 0.04338900125622494 -0.018642448494682058 181 181 181
-0.058173745229352855 0.06247190458483436 -0.020729857752521272 181 181 182
-0.057823832364114876 0.06215837034778333 -0.02371780280860422 181 181 183
-0.05956169495167543 0.06302796149106826 -0.026643301501061666 181 181 183
-0.061256125509330586 0.06387309605621604 -0.0295660687087239 181 181 183
-0.06273667278977946 0.06459714051404966 -0.03249224116383145 181 181 183
-0.07134553602876266 0.06936266902792293 -0.03515545753558568 181 181 183
0.03589630996186755 0.006482299781125703 -0.09280881304468194 180 181 183
-0.028083475059983258 0.042708617397857196 -0.09168334084952842 180 181 183
-0.026135206438382387 0.04148277902684323 -0.09488778031168088 180 181 182
-0.02632115796920331 0.041469426334987 -0.09794982811754281 182 180 181
-0.030288588274540174 0.04360518621484681 -0.10073911668365217 130 126 125
-0.039661495286510605 0.048813904786153564 -0.10311561690845768 103 92 91
-0.06044942546857224 0.060512923386785836 -0.10459521682800067 101 89 88
-0.0740232373831862 0.06811314856305596 -0.10656475564434764 100 89 86
-0.0840081105074432 0.0736744311578277 -0.10877392971391228 99 88 84
-0.09035088009978637 0.07716581836956612 -0.11124563881632843 95 84 80
-0.09728121871806444 0.08099216085019517 -0.11364849558783768 94 82 76
-0.10646529850524639 0.08610130702882773 -0.11583856050228229 91 74 67
-0.07983561402425784 0.07083811278282243 -0.12108852988532827 80 59 49
-0.07377382264997821 0.06727318752212896 -0.12462236534961954 81 57 44
-0.07703417894309998 0.06901175461818418 -0.1273423657195707 85 62 48
-0.11599210567771263 0.09106528887598421 -0.1267870254886375 85 62 48
-0.11928401747024238 0.09282495454631591 -0.12942298212794587 83 59 46
-0.12386087659702615 0.09531640000629392 -0.13192721930639073 82 56 43
-0.12692359168682607 0.09694642692970884 -0.13456369711751745 79 53 40
-0.11878113463952372 0.0921971980593226 -0.1382943062188834 73 49 37
-0.11362136879412342 0.08914518347496869 -0.14175620187831983 69 45 33
-0.11444690823832834 0.08950091181558327 -0.14462777535304808 69 48 36
-0.12006699038911986 0.09258739933354497 -0.1470011809755845 72 55 46
-0.11987678133667402 0.09236495359060966 -0.14996921807085523 75 62 56
-0.11676147263930071 0.09047603842122862 -0.15325312441173336 79 70 67
-0.11055056113678845 0.086822916408867 -0.15688679919559487 80 72 70
-0.10455989264675654 0.08329438420259831 -0.1605195735925693 80 72 72
-0.10121514857007724 0.08127284439494854 -0.16387765974630403 81 72 72
-0.10189161924234347 0.08154268384964519 -0.16679019490535185 84 76 74
-0.10268623456191978 0.08187989090447265 -0.16968844845305486 84 77 74
-0.08978725526153551 0.0744105829617262 -0.1741968258988819 90 84 81
-0.08166366105716388 0.06966216936780348 -0.17818198779214214 90 86 82
-0.07381765850788137 0.06507087255081989 -0.18216381154340122 96 92 90
-0.06903304240446137 0.06222432297055625 -0.18579868525888155 101 97 96
-0.05890328736290535 0.05632840119176867 -0.19011857957293704 112 110 109
-0.0497222874140241 0.05097222708284088 -0.1943559454400065 135 136 137
-0.03868850205404925 0.04455772626511639 -0.19886493907035657 170 171 172
-0.027424861582642266 0.03801050432171129 -0.20344447247372804 179 180 182
-0.014129559200715038 0.03030234440412451 -0.20833310967137827 178 179 181
-0.0028208338243593985 0.02372603884510618 -0.21300530856266445 179 180 182
0.009631889111383268 0.016495159775503802 -0.2178739648163803 178 179 182
0.02118512117587466 0.00977596938771284 -0.22266521828936536 178 179 181
0.03289333804962476 0.0029666451065368457 -0.22752066818497382 178 179 181
0.044759079815494394 -0.003934296642786179 -0.2324415306711329 178 179 181
0.047385738782067005 -0.00556103615047427 -0.23609160947214206 179 180 182
0.06107975969700431 -0.01350889181922662 -0.24134730549968647 179 180 182
-0.048468394068608894 0.0430607270556972 -0.38044293570470267 179 180 182
-0.05085350619901821 0.044306980796533016 -0.38309402506807344 179 180 182
-0.045083225141453416 0.040866962774426835 -0.3876600905590408 179 180 182
-0.04061348503369881 0.03817350801488828 -0.3919403261016687 179 180 182
-0.03586253324324733 0.03531770675208912 -0.39630612503791024 180 180 183
-0.029282226458896023 0.031409523207641 -0.4011323230440983 178 176 176
-0.027741749362105356 0.030397917539403282 -0.40476016047794233 134 127 126
-0.02695749201530541 0.02982084948279088 -0.40821051213724996 116 105 103
-0.027523168074646 0.030019911474111947 -0.4113328251356183 111 99 95
-0.028088830049102072 0.03021896864298852 -0.4144550569276736 104 91 85
-0.02902075928286263 0.030628713497309508 -0.4174855414202634 102 84 77
-0.053139351561289225 0.04437760051886108 -0.4146693716334061 104 84 75
-0.05813152800102208 0.047125215191418296 -0.4166234625717681 106 84 72
-0.07011409427452768 0.05389596661320544 -0.41677330819707364 103 81 69
-0.07138626914496878 0.05450446752780243 -0.41964010281008934 101 79 67
-0.06538240230130637 0.05092516215627554 -0.4243918475055198 100 76 66
-0.06673727382103856 0.05158096048162354 -0.427244958216565 100 76 65
-0.0665191416161608 0.05133126953137497 -0.4305089233509606 97 76 64
-0.06902772099144795 0.05265148270018228 -0.433053190738931 101 82 69
-0.06880259310585402 0.05239774375718048 -0.43631952501161747 109 94 84
-0.05951732998710144 0.04692587696991561 -0.4420225724963477 125 114 108
-0.07799713552001888 0.05744537621807159 -0.4402517881425633 159 155 154
-0.08496563475103111 0.06133606772788574 -0.4415496561737651 180 180 182
-0.09182212126608623 0.06516314389603085 -0.4428544567364958 181 182 184
-0.09987350444092079 0.0696796456650857 -0.44380605000418716 181 182 185
-0.10534602267705921 0.07271105265024229 -0.4454464142250378 182 183 185
-0.11623915991435085 0.078867400123697 -0.44555219670075985 182 183 185
-0.19132754136018582 0.11469958351849077 -0.6169246829195171 195 196 198
-0.19331729707314854 0.11573515380840582 -0.6192423699980456 195 196 198
-0.1864713489221121 0.1116364269518246 -0.6251101565558208 195 196 198
-0.22186322450667004 0.13208458775722384 -0.6139268068341925 197 198 200
-0.21360969318333928 0.127168647987923 -0.6203417274471803 197 198 200
-0.19919713164694203 0.11867094687416854 -0.6293046568109806 198 199 201
-0.19083367890082184 0.11368802305928333 -0.6358441039449453 198 199 201
0.00012537839203047296 0.002392015709527691 -0.7211607795307189 199 200 202
0.039908536142434475 -0.020882679054004982 -0.7412091140256073 200 201 203
0.02375122234734034 -0.012172605531306196 -0.752252829807986 204 205 207
0.0518570825064676 -0.028670331779140197 -0.7678299049293006 205 206 208
0.06949052660785915 -0.039217147920632835 -0.7826731971795231 206 207 209
-0.0215708670535643 0.010547553232671245 -0.8274648222635775 209 209 211
-0.028746666278843508 0.01460248509003085 -0.8275482252317561 209 209 211
-0.031943226969670044 0.01633373042935332 -0.8295252388109275 210 210 212
-0.03237465567934236 0.016449758709564603 -0.8328313099248563 210 210 212
-0.033602393123462374 0.017031097698368525 -0.8357505802913515 211 211 213
-0.035188287767048854 0.017821858728796124 -0.838492302398562 213 213 215
-0.038236257923363104 0.019467378923226093 -0.8405130349369295 216 216 218
-0.03783620272461875 0.01909760027072086 -0.8442214983189099 217 218 220
-0.040162910868696666 0.020321921284007484 -0.8465858830190388 218 219 221
-0.05389274923353124 0.02821441793665954 -0.8432838423942969 218 219 221
-0.055053088089329225 0.02875804178460696 -0.8461927504623513 217 218 220
-0.05699056484940071 0.029756304207126133 -0.8487104751723717 217 218 219
-0.059708916662549974 0.031211570858786848 -0.8508305012636062 216 217 219
-0.061926364518641586 0.032374116142690645 -0.8531945061403347 216 216 218
-0.056286241088988984 0.028939231428557033 -0.859529758828351 216 216 218
-0.058179496448289 0.029911964225370492 -0.8620609422481058 217 217 219
-0.060659221655508674 0.03122815374444351 -0.8642875615758506 218 218 219
-0.06327396413002952 0.03262367390814709 -0.8664373482028926 218 218 220
-0.0676655263133655 0.035059727993037935 -0.8676652339070331 218 218 220
-0.07124821936844605 0.037022770880169704 -0.8692953490238347 219 219 221
-0.07448414876029505 0.03878322047791067 -0.8710930569936891 219 219 221
-0.07789733406745597 0.04064789870472282 -0.8727878219276258 219 219 221
-0.08392903363321755 0.0440468054246327 -0.8731036959075668 219 219 220
-0.08672049917294689 0.04554835511498029 -0.8750962241249767 218 218 220
-0.09258820727886394 0.0488526275356395 -0.8754609690471883 218 218 220
-0.09091966622997184 0.04774164133084781 -0.8797852650042279 218 218 220
-0.09198871928804205 0.04823469642158168 -0.8826668768312211 218 218 220
-0.08345633042618898 0.04269717640264192 -0.9010669227992074 217 217 219
-0.08560087913218292 0.04382035935081053 -0.9033827515386487 217 217 219
-0.08405233930425551 0.0427777069641597 -0.9076949294097825 217 217 219
-0.07192225057137153 0.035527573114052434 -0.9177752823761529 217 217 219
-0.05225015550304897 0.02385071778494878 -0.9320272288454776 215 215 217
-0.04355185424149256 0.018609662071623657 -0.9403433126282336 192 192 194
-0.024815644474395743 0.00747655356842343 -0.9542213562606909 154 153 154
-0.026893717889053537 0.008556623598388033 -0.956679775269538 126 120 117
-0.032732657985238264 0.011844529622700904 -0.9570470290246135 111 101 97
-0.03533871087913866 0.013235327384155213 -0.959191858774494 106 93 88
-0.04525741530127862 0.018920060683718105 -0.9572446196798523 102 86 80
-0.04876017403318131 0.020838640829917418 -0.9588555417964774 100 81 74
-0.052579951800784744 0.02294386904748058 -0.9602762279787376 97 78 69
-0.03897203165687867 0.01481285086468228 -0.9715223437403744 95 76 67
-0.049343265932953795 0.02076647075849685 -0.9692401171152802 92 72 61
-0.053873158616614306 0.02328960101101049 -0.9702394617769173 90 69 57
-0.06112733299549927 0.02741419793431671 -0.9696681264525078 89 67 54
-0.06326680304407692 0.028533942026256413 -0.971998596992927 88 66 52
-0.06998040814335761 0.032342508998500254 -0.9716938861275195 87 64 50
-0.07426808058386097 0.03472594560322959 -0.9727632439331195 86 62 50
-0.0822068957061817 0.03925660593002337 -0.9717042209813269 83 61 49
-0.08542104058900138 0.04101025796448985 -0.9733592494246874 82 60 48
-0.08841937890541254 0.042637415545049934 -0.9751292121321165 80 58 47
-0.09188877677577782 0.0445420234484301 -0.9766136765638046 79 56 44
-0.09622635201573787 0.046957798799229546 -0.9775766638074028 79 55 42
-0.09615022742447625 0.04677745963313047 -0.9811237591865911 79 55 41
-0.09672173169004808 0.04697809211042445 -0.9842906553634547 79 56 41
-0.09803905771352225 0.04761763543775744 -0.9870151432885782 80 57 43
-0.10423879670562719 0.0511309318969944 -0.9868308749376311 80 56 42
-0.12023208062275961 0.060410067569155984 -0.9807750593360482 80 54 40
-0.12891053254125603 0.06538521834863441 -0.9790390962398833 79 53 38
-0.133309386266462 0.06784180786696123 -0.9798429519071213 78 52 37
-0.14630937106911898 0.07536409160685587 -0.9754417010973689 77 51 36
-0.15821853047592507 0.0822458988133013 -0.9716496181150188 77 51 36
-0.16035484083284182 0.08337287220316962 -0.973747137938659 78 52 37
-0.17406508509316163 0.09131858525505537 -0.968783850041625 78 52 39
-0.17413561165049488 0.09122982389752894 -0.9721076743321259 81 54 42
0.013896451384592057 -0.01985025422600621 -1.094613587258739 84 57 46
0.018736694477274995 -0.02284887487295255 -1.1013647005439933 85 59 48
0.011114687366182846 -0.018501579248787856 -1.100414164957646 89 64 52
-0.0029949712108205684 -0.010328021132279083 -1.095400169453466 90 66 55
-0.011855761976671958 -0.005247468074936104 -1.0936052098569295 90 67 57
-0.01104257562637631 -0.0058709438180955115 -1.0978318909719493 90 66 56
-0.009826879385472137 -0.006732060629857831 -1.1023171464085713 88 63 52
-0.00937999477006271 -0.007139925763169949 -1.1063253909952955 87 61 48
-0.09674280412759612 0.044260060106045475 -1.0548240063345915 84 57 39
-0.05180248731784709 0.017604064871846146 -1.0868800435810009 84 55 36
-0.08220565120073757 0.035405766912493725 -1.0711796760496552 82 54 34
-0.08529002487678236 0.03708750392670809 -1.0727965941716349 81 52 33
-0.12013760866315955 0.05752025249276868 -1.0540584551310712 83 53 32
-0.1483952167924173 0.07406776264912028 -1.039412405515224 83 54 33
-0.15873974892065004 0.08004232075763736 -1.0361990388393847 84 54 32
-0.16583147638908968 0.08409746225841937 -1.035048599405399 88 60 38
-0.17116843205981244 0.08711721036047984 -1.0350094019090745 92 68 49
-0.17491756145963777 0.0891997607943396 -1.0359837229101296 92 70 55
-0.17633355424456104 0.08990439447296483 -1.0384681624437098 90 71 58
-0.17847430113057033 0.09103742020310436 -1.0404741336655685 90 70 59
-0.1815843385335554 0.09274352743972536 -1.0418363904669934 90 72 61
-0.18250787046144099 0.09315771664610895 -1.044629348425866 91 73 62
-0.18062397202588698 0.09191240920872462 -1.049277361386048 90 73 62
-0.18390495856479142 0.09372025517546771 -1.0505088539929026 91 74 65
-0.16525000953013702 0.08255797174667087 -1.0663280386856164 90 73 65
-0.16303379294899334 0.08111402527095574 -1.0712525516549238 89 73 66
-0.16210803645457728 0.08043288223205801 -1.0753243414559248 87 72 65
-0.14869687837302342 0.0723659267443999 -1.0877902930344225 85 70 63
-0.15872505376975668 0.07816383856285909 -1.0845184248853972 77 60 53
-0.16030492828179657 0.07896443841702588 -1.0869179785832592 65 49 42
-0.16293423887266179 0.08038624373918013 -1.0886015029117129 64 48 41
-0.15682858932419008 0.07663849763710133 -1.096218017611813 64 47 40
-0.1530278479881258 0.07425404498331421 -1.1022897711766964 63 44 38
-0.1593169581616306 0.07784232971298599 -1.1014738995246065 62 47 39
-0.1511224084991631 0.07285568139155621 -1.1105775265647442 66 48 41
-0.15221984738997787 0.07337021370389465 -1.1133189975839732 68 50 39
-0.1531052702563782 0.07375926605082771 -1.1162045776747136 69 49 38
-0.14045440006798154 0.06613012993597754 -1.1284676952565411 72 50 36
-0.13784493403923564 0.06444769912614617 -1.1338078801098865 77 50 36
-0.17215305672859973 0.08463898341852527 -1.1134260139384888 83 54 38
-0.1774639440495723 0.08765212001809392 -1.113176735767425 92 65 44
-0.17916722369208404 0.08852788581335529 -1.115437387370274 97 71 49
-0.17884657031902393 0.08820413480852078 -1.1191168307961856 99 72 51
-0.1783269978639452 0.08776231581017867 -1.122940248864891 98 73 53
-0.1558356846293174 0.0742927276306576 -1.1423174182300648 97 73 54
-0.16549408970475304 0.07988437182514858 -1.1389719113475227 96 74 53
-0.1710384278894242 0.08303750513581609 -1.1385166548473544 97 75 55
-0.16316582117951045 0.07823291019041112 -1.1476207049924723 98 78 59
-0.1551639568775005 0.07335024828852033 -1.1568530963629853 99 80 63
-0.1448601372384701 0.06710034561393616 -1.1677753817276808 97 80 65
-0.13992742316151158 0.06403596983659418 -1.1748742496559208 93 78 65
-0.14979194820640107 0.06975286972723549 -1.1713042771118554 100 87 77
-0.15388365101570428 0.07204465378848737 -1.171878213228309 115 104 95
-0.15860482895937744 0.07471072171896989 -1.1719794857386652 137 129 123
-0.1639601191542571 0.07775398341981352 -1.1716006677577073 157 153 150
-0.16778916954984108 0.07989171149644775 -1.1723171474635312 173 171 172
-0.17122367971501634 0.08179566052715764 -1.1733088686711555 183 182 182
-0.16999247393438874 0.08092866682347988 -1.1777193448767742 187 187 187
-0.1805785359841177 0.08708178229919342 -1.173421761338733 190 190 190
-0.19956550865402078 0.09822807296479917 -1.1628671879952075 193 193 193
-0.20146063494171615 0.09922066581946992 -1.1649125869426449 194 194 194
-0.1924060558550087 0.09370575918628028 -1.1750983204734267 195 195 195
-0.19946653503204925 0.0973664260262847 -1.1836832841765197 200 200 200
-0.19730117128798427 0.09594447133205358 -1.1887826413991205 201 201 201
-0.21158621483301016 0.10430723154710289 -1.1814429165048297 202 202 202
-0.2223658548737509 0.11058688077431279 -1.1767045875332043 203 203 203
-0.21916553906438968 0.10855023804842091 -1.1825632190764925 204 204 204
-0.21959176026612323 0.10867104726068792 -1.1856696756470553 205 205 205
-0.21889679163523548 0.10812455026584601 -1.1896348208367895 205 205 205
-0.21027557324085644 0.10285978364873755 -1.1996898269965008 206 206 206
-0.20783984897654506 0.10127589215791336 -1.2050227153046127 207 207 207
-0.251613861226869 0.1272053831346212 -1.1746956592512 207 207 207
-0.2958483293639318 0.15341632030758034 -1.1438249271260397 208 208 208
0.05724659920347762 0.0035255138899264148 0.048460538430089406 182 182 184
0.03481366180534377 0.01604021063559468 0.045125166956107216 182 182 184
0.02172393124555095 0.023294813894081112 0.04193342597718976 182 182 185
0.008811526070766327 0.03045113672323156 0.03878484551442692 182 181 187
-0.015000050948490613 0.04374982339707828 0.03563251260090879 182 181 184
-0.021709569428336014 0.04741483332088377 0.03260078357726852 182 182 183
-0.02750707391950468 0.050566680149224955 0.029590578961081325 179 178 179
-0.0326158952047279 0.05333105940689281 0.0265975128103496 165 160 159
-0.03677415571112838 0.05556022468216913 0.023617451384935286 142 132 128
-0.04064916286870302 0.05763017932966648 0.02064844338675309 128 117 110
-0.04475745549976656 0.05983209517200817 0.017692134144156872 120 106 99
-0.048824736211532604 0.062011350313851674 0.01474762269331581 115 99 93
-0.05092682894906429 0.06308283125430286 0.011796800213538322 109 93 85
-0.050450694559415414 0.06270040408199387 0.008822985338616866 105 90 80
-0.051639798729343135 0.06325714694318883 0.005866950822489695 99 83 73
-0.05273228704149192 0.06375947368132033 0.0029118083077035936 98 83 73
-0.0521061601300271 0.06329224648855253 -6.898924622364064e-05 101 87 76
-0.049195647674086594 0.06153589098434627 -0.0030942092841457474 104 89 80
-0.047788076789413894 0.06062723345047308 -0.006101790584286049 104 89 81
-0.04712275491295967 0.060137241608722664 -0.009100190825610845 107 96 88
-0.04326563512073579 0.05784547994532122 -0.012175491282251434 117 109 103
-0.03965895742650617 0.05569452808052359 -0.015259478595851706 129 123 118
-0.03427671881165116 0.052540589582723056 -0.01840403573238989 153 150 146
-0.05285260660262485 0.06291376980190891 -0.020899501765412373 176 176 173
-0.05695718800205275 0.06511717863265852 -0.023762377435659114 181 181 181
-0.06091949322302653 0.06724070121744205 -0.026617507877637683 180 180 182
-0.06554768330152802 0.06974079402691286 -0.029438916242396855 180 181 183
-0.06403617362132294 0.06877305839549377 -0.03245954923240221 181 181 183
-0.06700380461254464 0.0703356536121332 -0.03532388598789493 181 181 183
-0.06981357784177121 0.07180937404484194 -0.03818587667441146 181 181 183
-0.06962867227729824 0.07159108973544784 -0.04115934253508421 182 182 184
0.029150986356911133 0.014079128697347173 -0.08917620734906542 180 181 183
0.036792402922769106 0.009632068755186754 -0.09283956922470256 180 181 183
-0.02638313149438898 0.04527735381449798 -0.0917684671238554 180 181 183
-0.02541004533898899 0.044608564035806784 -0.0949063051554602 180 181 183
-0.02531441129591689 0.044436466584576936 -0.0979872761014104 170 169 169
-0.03671823021137112 0.050777048709496765 -0.10023758817175334 109 100 100
-0.05168296275975575 0.059136043933134166 -0.10218634936388626 98 87 85
-0.06640568730299408 0.067359857295172 -0.10410362439741504 98 87 83
-0.08056815977552384 0.07526814035430535 -0.10601531826957597 98 87 83
-0.08491397342233892 0.07761592744852613 -0.10865857406660172 98 87 83
-0.09265148678389563 0.0818862497186402 -0.1110136527398485 95 84 80
-0.10020518022759382 0.08605335111827908 -0.11335894224083568 94 80 77
-0.10864579259788917 0.09072411004429365 -0.11560487939689205 88 68 61
-0.0769848870809805 0.07266299221416397 -0.12128204462116562 83 60 49
-0.06783670941159395 0.06736121187464877 -0.12508998055450632 79 57 43
-0.05898128896340168 0.062224144538603705 -0.1289051584737845 88 65 51
-0.116669640970237 0.0948217477507584 -0.12666734437016583 87 63 50
-0.11895998094336441 0.0960079426732693 -0.12939341775747715 82 58 46
-0.12473915786203696 0.09917330501561224 -0.13178210034607737 79 56 41
-0.13174175313422015 0.10303339705188289 -0.13403417532696563 76 53 37
-0.1274307133780332 0.10047555693206517 -0.13737691506496705 73 49 36
-0.11262468054729861 0.09196203118598349 -0.14178738537681834 69 46 35
-0.11487592147325179 0.09312619692472007 -0.1445133001033052 68 48 37
-0.12270925440351654 0.09745871944127585 -0.14665467509648444 68 51 42
-0.12340458568882022 0.09774056351632956 -0.1495226185127963 70 56 51
-0.11959923413180487 0.0954674633207154 -0.15287196925513313 72 62 60
-0.11782335031572408 0.09434602075575593 -0.15601542642928728 80 70 69
-0.11347053715727488 0.09176104346888743 -0.15945186422098245 80 72 70
-0.10565716046100056 0.08721020936170804 -0.16329407876336083 79 71 69
-0.10189135421642825 0.08495708958752743 -0.16670354610637741 80 72 70
-0.106469390999854 0.0874428680315002 -0.16916131755899977 82 74 72
-0.1004524435275176 0.08391031598202456 -0.17285083175335514 87 79 77
-0.09244969670094333 0.07924864601948509 -0.17680021421769118 87 81 78
-0.08459326677340032 0.07466897182778853 -0.18076171381887882 88 83 80
-0.07715476132134697 0.07032567355480934 -0.184701217590897 91 86 83
-0.07266429725415924 0.06765684290895858 -0.18830126057588342 96 91 88
-0.0636477528456694 0.062414605805654055 -0.1924908513949067 105 101 99
-0.055369120737766384 0.05759058008936699 -0.19661939683057186 113 111 109
-0.04604489003169547 0.052170883314356285 -0.20091468823228206 143 143 141
-0.035070195165464585 0.04581136035061653 -0.20546189850893437 172 172 173
-0.023569802329542155 0.03915132309930038 -0.21011972396971723 181 180 183
-0.011726276913150245 0.032294499732467126 -0.2148663016608778 179 179 183
-0.0018122570582918274 0.026533561357632282 -0.2193922948947679 178 179 183
0.009172096771482244 0.020162299822276727 -0.22410358881920944 178 179 181
0.020297379747736648 0.013709294582991034 -0.22887534121364475 179 180 182
0.031566559436773875 0.007172826966975701 -0.23370875695498994 179 180 182
0.04137021589516055 0.001468786680322777 -0.2383728990171322 179 180 182
0.05195731423687178 -0.004682567421558752 -0.24318783216445844 179 180 182
0.0744162897967568 -0.01759332529712279 -0.2497935511748204 179 180 182
-0.03745715631598542 0.040478687312925164 -0.37952585383233384 179 180 182
-0.03694267560109936 0.04006045960896272 -0.3828695266169564 179 180 182
-0.040950055258225655 0.042231033076778654 -0.3851603871570646 179 180 182
-0.035287143776875765 0.03886478248974428 -0.3897159220846704 179 180 182
-0.02851622600824746 0.03486313150708374 -0.3945570071602315 180 181 184
-0.024652366990033495 0.032525476301465746 -0.3987295535610356 181 180 183
-0.020653771229824446 0.030110024398057832 -0.40295064336033953 127 121 119
-0.021416556721640258 0.030421685513757193 -0.4060322861859705 111 100 99
-0.019662580964197166 0.029291372776301634 -0.4097287787640489 108 93 92
-0.020118389069767283 0.029427011402022904 -0.412889074981185 101 88 84
-0.04852983996870163 0.0455840368629073 -0.4091089386062238 98 85 78
-0.026445074007504468 0.032802011450519704 -0.4178562882590963 100 82 74
-0.059595244619652675 0.05167974938082537 -0.4127706421847581 99 77 68
-0.06318614433533587 0.05361540176923017 -0.41506679737823304 99 76 62
-0.07410364401777222 0.05975242405521039 -0.4154790163117234 99 75 62
-0.07500865330647288 0.06014922316559297 -0.41843074464664387 100 74 61
-0.07789642485219783 0.0616832344521922 -0.4208670076435113 96 72 57
-0.07937533420590626 0.06240946452662903 -0.4236624759470768 96 73 57
-0.07218546593917288 0.05816286562510922 -0.42873391935772454 95 72 56
-0.07469805618112245 0.05948181051964206 -0.4312646272347107 93 71 55
-0.07554543087349153 0.0598455265799256 -0.434232036540577 94 77 63
-0.06935274350534268 0.056169168204979816 -0.43908834300099137 102 90 81
-0.07569555188488696 0.05968655991029402 -0.4405808782060357 118 111 108
-0.08176160634762042 0.06304591235517 -0.44212730396095684 158 155 155
-0.0890024787006567 0.06708049711502331 -0.44333139484757045 182 182 185
-0.09664264056618552 0.07134528826064826 -0.4444005558344372 180 182 187
-0.10416632179541785 0.07554420115114238 -0.4454757798307587 182 183 186
-0.10739028315709115 0.07727477617409156 -0.447727098089236 182 183 185
-0.11307110791339317 0.08041688653477655 -0.4492770688707058 182 183 185
-0.18525791251819512 0.11459193048183713 -0.6189039949354851 195 196 198
-0.2045126768300624 0.12561926261148326 -0.6143212393411075 195 196 198
-0.20634079075366896 0.12655925339404667 -0.616674698961391 195 196 198
-0.21145617694319613 0.12940302853663346 -0.6176946981028859 197 198 200
-0.19870195439012933 0.12189826115876871 -0.6259522478529798 197 198 200
-0.18717994519792802 0.11510526381609898 -0.633758220798063 198 199 201
-0.18083508136612458 0.11130960827887469 -0.6394886182788346 198 199 201
-0.16156321542723778 0.09990124278565382 -0.6537520332633548 199 200 202
0.0452074880148963 -0.02004923552655579 -0.7428847085766032 200 201 203
0.07691618606544139 -0.038565107586704186 -0.759713267043525 201 202 204
0.07287058943923187 -0.03677983728669968 -0.7726087104094935 204 205 207
0.0657342425899387 -0.0327810872684238 -0.7732113811186541 205 206 208
0.039680148378625574 -0.017808259038542162 -0.7656686270668704 206 207 209
0.05430366838739592 -0.026429424044262642 -0.775565891373014 206 207 209
0.07419219525996942 -0.03810757033030793 -0.7878025903501075 207 208 210
-0.02678886793033547 0.017669725926406303 -0.8173394428797586 209 209 211
-0.015778862357526943 0.011128827478272527 -0.826095609731741 209 209 211
-0.018906952926932105 0.01281341534134587 -0.8281372745839913 209 209 211
-0.020013228615027814 0.01332170396485187 -0.8311395527556652 209 209 211
-0.02621671959726471 0.016797016564831513 -0.8316823394878593 210 210 211
-0.027139009634047973 0.01719874865923282 -0.8347593399737392 210 210 212
-0.028219269959327997 0.017692509033260702 -0.8377581416288632 211 211 213
-0.029552238638275108 0.01833349955282563 -0.8406315708507979 214 214 214
