ply
format ascii 1.0
element vertex 680
property float x
property float y
property float z
property uchar diffuse_red
property uchar diffuse_green
property uchar diffuse_blue
end_header
0.0062937134908291475 0.22992428362826067 -0.028206429569238696 99 80 65
0.006047264061363522 0.2295887260382216 -0.031300756228230905 95 76 61
0.0050542893263944705 0.2284850000680603 -0.034388141090072766 93 74 59
-0.006175133914084988 0.2168487641707676 -0.0373534722803253 92 73 59
-0.006100937571023687 0.21684376260735572 -0.040427576762075895 93 74 62
-0.005810835859611091 0.21706084835167616 -0.043506618225253285 91 72 61
-0.009634670475640927 0.21304561496467156 -0.046513878180923826 94 76 66
-0.009828776442235967 0.21276469879125365 -0.049579206630742 92 75 65
-0.01013204595994821 0.21237148243941978 -0.05264245400851033 90 73 63
-0.00985924939133645 0.21257080514581903 -0.05571967933884875 89 71 63
-0.010191264818033119 0.21214799592806538 -0.05878317182264128 78 61 53
-0.019737932720387152 0.20224813401248598 -0.061581571203499816 75 61 54
-0.031792786006937954 0.18976985496083643 -0.06426276525479341 78 66 61
-0.02588677702521834 0.19576320991708346 -0.0674867051340283 75 61 55
-0.020058004875998098 0.20167644005178628 -0.07073443728235758 78 62 57
-0.05990454717995015 0.16062333377000232 -0.07230368205141499 76 61 56
-0.06226094321973009 0.15812183791240148 -0.0751827083364361 89 74 69
-0.06548630752976049 0.15472716161533595 -0.07801660124935565 88 73 68
-0.0668822999408458 0.1532135614567577 -0.08091784600412523 79 63 56
-0.06822700194543158 0.151752817457742 -0.08381659230741188 71 54 43
-0.06660363772381325 0.15334326643577106 -0.08685335879245269 52 35 26
-0.0719705349527511 0.14774814918572984 -0.08954724281075356 46 29 21
-0.07462407871576719 0.14494253815237815 -0.09236126695773661 42 26 18
-0.07818616504465412 0.14120340383287094 -0.09511547931223065 36 22 13
-0.08297328895116293 0.1362056278353936 -0.09778606819655247 69 56 47
-0.08972776914016832 0.12918655322799344 -0.10032144059073944 65 51 42
-0.08249909433445315 0.13653764176892913 -0.10368154854302383 74 58 50
-0.09086968861879241 0.1278585855296075 -0.10608906353085067 81 64 56
-0.10271618543018413 0.11560893146800713 -0.10823465642804152 78 61 53
-0.10865827947211454 0.10942709404172704 -0.11072852347134912 82 65 58
-0.10558635319337331 0.11250686884800364 -0.11382532737716124 85 67 63
-0.10344914504899226 0.11462599121130529 -0.11686943245779577 100 82 77
-0.09985860474520072 0.11823782011014002 -0.12003133632586194 117 101 93
-0.09694512514471391 0.12115371558748561 -0.12315836496101505 97 79 70
-0.09420434300471245 0.12389185871596212 -0.12628560446692022 93 71 60
-0.1118331415220174 0.1057078699232932 -0.12778782396158803 72 46 32
-0.11374816504102 0.1036647365841161 -0.13051250879207207 55 26 11
-0.12155379748814031 0.09557216782401347 -0.13273084273591454 52 24 10
-0.11728111790692615 0.09988413643825789 -0.13596618703552096 50 24 11
-0.11762325608877093 0.0994567205224163 -0.13881009766218066 47 23 11
-0.12131494223963764 0.09558992175850486 -0.14134803108508157 43 18 11
-0.12179011768566353 0.09502611927468263 -0.14417152419150805 40 20 12
-0.12127099178995113 0.09548319906646711 -0.14708910331642103 45 30 21
-0.11936428168623586 0.09736475400217742 -0.1501456802984421 47 34 27
-0.11685953531842094 0.09986000032307737 -0.15327140294145764 46 37 31
-0.11937297917547217 0.09720357728475874 -0.1558968313599233 52 42 38
-0.11320281922644461 0.1034609444465676 -0.15941780146311843 51 42 37
-0.1110486725347687 0.10559545275186494 -0.1625392756619199 51 42 37
-0.10754627279058558 0.10911348079337074 -0.16581766678905627 50 41 36
-0.11381106883461632 0.10260694696467752 -0.16803041884850517 48 39 34
-0.11086605782825905 0.10555265189823934 -0.17125733416924493 50 40 35
-0.10992254212094554 0.10644407218535458 -0.17426776190346815 51 41 37
-0.1373849128822401 0.07796103681951486 -0.18249347814361613 50 39 35
-0.1416341080055638 0.07352635208905671 -0.1848076224915078 50 39 35
-0.10054231847235898 0.1156049274567192 -0.19291726145732424 50 39 35
-0.0996719584201866 0.11642011847740523 -0.19596300255243743 49 38 34
-0.10242739760152353 0.11351609139866296 -0.19853301765123674 49 38 34
-0.09565038623899758 0.12038951201424725 -0.20237667218939331 49 38 34
-0.09881091647690791 0.1170700435311354 -0.20489025611603023 48 37 33
-0.10675360286710686 0.10884654379407037 -0.2067258674640057 48 37 33
-0.10747054256583752 0.10803391888487918 -0.20954896385247979 48 37 33
-0.016402669421676896 0.20117571129461403 -0.23179086012619757 49 38 34
-0.06998471689596958 0.1461571018564694 -0.22687698929797703 49 38 34
-0.0698653568591391 0.1461997824746596 -0.22990583270670087 49 38 34
-0.06967723356136325 0.1463129107371174 -0.23294699668923843 50 38 33
-0.07815803762725107 0.1375395387572125 -0.23463228462333946 49 37 31
-0.0786286425682016 0.13697784544197517 -0.23755381722160684 50 37 32
-0.07790942682730975 0.13763571313507322 -0.2406660475721643 50 38 32
-0.07754797921448617 0.13792678334364902 -0.24372421297187938 50 37 32
-0.07776908579076462 0.1376207442330326 -0.246688776262314 49 37 31
-0.07864976029270063 0.13663877358278778 -0.24954299178436445 51 38 32
-0.08003038499614318 0.1351445536647614 -0.25230961614265973 51 38 32
-0.07908461094737794 0.1360342893885464 -0.25547150385179473 51 38 32
-0.07987263140499806 0.13514739147391253 -0.25833668769599855 50 37 31
-0.07729426882433912 0.13770964468135527 -0.2617934330275299 47 34 28
-0.07652355282590644 0.13841961365715144 -0.2649398447437555 45 32 26
-0.07578456289392126 0.13909695975279632 -0.2680850932292498 44 31 25
-0.07516923659244244 0.1396475081747767 -0.271212145864396 44 31 25
-0.0752489540451886 0.13948599555578456 -0.27421435940706385 45 32 26
-0.06881333215246768 0.14599797405989295 -0.278438507726458 44 31 25
-0.08011798477109314 0.13433924782090026 -0.27932822561532 44 31 24
-0.07680109454711459 0.13765661511846508 -0.28297412082011525 45 32 24
-0.07453393787740864 0.13989852945356313 -0.28643214924042065 45 32 24
-0.07253176645386537 0.1418687910352569 -0.289849370877899 43 30 22
-0.0718157735854929 0.14252175946408197 -0.29302137626944114 42 28 21
-0.07494685828345216 0.13923548766877283 -0.2954257658102671 43 28 21
-0.07509339864151651 0.139005330398438 -0.2984229917910733 44 27 20
-0.07588571545486494 0.1381140067100828 -0.3012883192649628 41 24 18
-0.0636724705713354 0.1505372010568446 -0.3068473537909109 48 33 25
-0.061940669096891096 0.15222915895704592 -0.3102656593298237 59 44 36
-0.06069694146480975 0.15342127321730856 -0.3135894965310663 68 50 45
-0.059446723599610216 0.15461985305673004 -0.3169214344467011 53 31 23
-0.06359205641693179 0.1502958189095449 -0.3190938424096486 50 26 18
-0.056768701130962024 0.1571982295930695 -0.3236443288745056 49 27 18
-0.05403284054268423 0.15991666868166068 -0.3273246233584649 47 29 17
-0.06250800088858466 0.1511620628563235 -0.32852037187939925 47 29 19
-0.06437454317445994 0.14917089876233414 -0.33116683105479294 47 32 24
-0.062343247196985696 0.15116827979962738 -0.33469197823967106 51 37 30
-0.059689176406090144 0.1538025910039429 -0.338370260034913 45 33 30
-0.05440957945804607 0.1591227480632308 -0.342669848158372 17 9 7
-0.06354915858191561 0.14969076321932223 -0.3436213090109827 29 20 17
-0.05839279721181098 0.15488439350192484 -0.3479091115558358 45 33 27
-0.05554191092198742 0.15771904764420464 -0.3516715318355184 39 29 21
-0.06253589756730576 0.15048330916483205 -0.3530793326374726 37 25 18
-0.06091827321172191 0.15205641330600267 -0.356548201621301 37 24 17
-0.05005290014954261 0.1630874488594205 -0.3622915323464201 40 25 19
-0.04598870281348516 0.1671616552795139 -0.3664027963649205 44 30 21
-0.04410966862981762 0.16900072737497968 -0.3699882163417384 39 26 20
-0.04600168051815197 0.16698336732366548 -0.3726339832927576 31 18 17
-0.04886727370342786 0.16397069555668548 -0.37502529667189605 43 30 23
-0.05071989519529997 0.16199404970894501 -0.3776645609908013 50 37 29
-0.06770768925679738 0.14454342131558756 -0.3763855858837381 49 34 26
-0.06638267530022196 0.1458166630261839 -0.37980521634123343 43 27 19
-0.0634493016742883 0.14873390931738018 -0.3836547942895158 43 25 17
-0.06319746654986588 0.14890965269109996 -0.3868077705166182 45 26 18
-0.06854100703121767 0.14336595732947272 -0.3884671367884008 51 32 24
-0.071542515830187 0.14021665797636512 -0.3907352131584856 55 37 29
-0.07493690427958533 0.13666614210249575 -0.39288427696861306 45 27 18
-0.07653923946940108 0.13494744549028265 -0.3955105034396209 44 24 15
-0.07656813303623199 0.13483684513922423 -0.3985655191824673 45 25 17
-0.07910668604741049 0.13216168274936654 -0.4009225563668553 47 26 18
-0.08392693638264337 0.1271553379259276 -0.4026287517189498 48 27 17
-0.09059506288421804 0.12026147225593348 -0.4037915374265436 49 26 16
-0.09509506562503431 0.11558351039441256 -0.4055441270655024 50 29 21
-0.09986565633914996 0.11062961106906519 -0.4071999255322536 86 69 60
-0.10045288245261644 0.10994983946498589 -0.4100476862325861 92 75 67
-0.10048626233536491 0.10983586486775962 -0.4130557316039418 92 71 60
-0.10169796452988729 0.10851826601919412 -0.41571809563478235 69 41 23
-0.10392787283783692 0.10616079424137037 -0.41807430945670426 64 32 13
-0.10215986837532234 0.10788674603584418 -0.42161606663071866 60 31 13
-0.1003685496112098 0.10963626594888806 -0.4251739880009453 56 29 12
-0.10144992530233407 0.10845191278200475 -0.42787002558343945 56 27 11
-0.10306229959140363 0.10672542660910825 -0.43040017367262223 57 29 14
-0.10571557269090373 0.10393624733867751 -0.43260392057872454 62 38 24
-0.1040322492249072 0.10557515882651487 -0.43614127320006074 66 44 32
-0.10854803250836947 0.10088471812666017 -0.437751690850781 66 47 35
-0.08386946512785629 0.1259996821383293 -0.4485249177202232 72 53 43
-0.06745338612616598 0.14267687803789458 -0.456793370232385 74 56 47
-0.0958078350682158 0.11365060504324842 -0.45085426528827693 94 77 66
-0.1036676052627826 0.10554730332491018 -0.4513729378409702 67 48 35
-0.10680659705933952 0.10226328612655966 -0.45338467792944515 72 50 38
-0.042171685174247395 0.16815063916417355 -0.477464014244697 68 44 33
-0.039260912696040054 0.1710373705157605 -0.4815876143025852 68 45 32
-0.03998042901315714 0.17021902930946797 -0.4845264834770174 69 46 31
-0.03952664663967437 0.1705980158419622 -0.48785357539022445 73 50 36
-0.0391520653984285 0.17089609976069686 -0.49115746277817396 74 52 37
-0.03872737532451406 0.1712452321655005 -0.49448120094712117 73 51 36
-0.039781778091230166 0.17008522800081521 -0.49730616687831025 72 50 36
-0.03947206343683243 0.17031698292103079 -0.5005936518306647 70 49 34
-0.03867385951587697 0.17104699233876922 -0.5040517977614766 73 51 35
-0.0384432162006301 0.1711979179037797 -0.5073183574704262 73 51 35
-0.03870895843726199 0.17084246138916198 -0.5104142723020154 68 45 32
-0.038827036944176205 0.1706376136014774 -0.5135620363611032 65 42 30
-0.03849037732565033 0.1708965316060768 -0.5168710446734763 68 45 33
-0.03742730276589326 0.1718961989342545 -0.5204409072403784 69 45 34
-0.022971004662462796 0.18655377801682282 -0.5288051747053053 69 46 34
-0.04183879428673422 0.16722852046378092 -0.5252467638065956 69 46 34
-0.04117109552326037 0.16782494972950623 -0.5286769256731682 69 46 34
-0.040528166348386865 0.1683960100575689 -0.5321023702111098 69 46 34
-0.039816669030408675 0.16903686686112354 -0.5355571496741806 69 47 34
-0.03899828261353257 0.16978657489637666 -0.539055870913544 70 47 34
-0.04197027964655545 0.16667218191832395 -0.5411527350809812 72 50 37
-0.02959823199532491 0.17919911707524064 -0.5489674615307523 74 49 37
-0.029215647110785087 0.17950375003349572 -0.5523351457623603 74 48 37
-0.027259296145319745 0.18141233664733328 -0.556300746062477 74 49 37
-0.028762735551330826 0.1797945303587947 -0.5589608603364603 75 49 37
-0.02132808819806581 0.18728578256863415 -0.5650347903770265 75 49 35
-0.022811396705346737 0.18568824571922826 -0.5677119076006591 75 48 35
-0.022392484346709624 0.18602919998644207 -0.571119952985276 74 48 34
-0.029051309054483415 0.17915834611989623 -0.5717750411334125 71 46 34
-0.027777903101701196 0.18037017654524695 -0.5755080380786205 70 46 34
-0.026401475702941768 0.18168677791894194 -0.57928873780249 67 43 31
-0.024163329068257244 0.18388105412223144 -0.5834185019103437 66 42 30
-0.02317880940466227 0.18479796950604813 -0.5870601578361683 65 41 30
-0.023469697612568285 0.18441556509277268 -0.5901963737221653 68 44 32
-0.023234842031442993 0.184568666993502 -0.5935445050916099 69 45 33
-0.023651729592137266 0.18405790120442897 -0.5966307776368742 70 45 33
-0.028464943951833577 0.1790697297075848 -0.5979239691657615 72 46 34
-0.03618837872003128 0.1711183818636246 -0.5980031666963532 75 48 36
-0.03268035034398628 0.1746052137205527 -0.6026790394437592 79 52 40
-0.030995902313216833 0.1762346991336568 -0.6066162439024702 81 54 41
-0.029270640292852784 0.17790550251041093 -0.6105794920598174 83 56 43
-0.03083669104322939 0.1762250365566829 -0.6131722698777683 82 55 42
-0.03138964294038796 0.17557614395707993 -0.6161861639089556 78 50 36
-0.03121256174052159 0.17567047310676281 -0.6195081952830329 76 48 33
-0.031949990898743036 0.17483381134029652 -0.622442681364081 72 43 28
-0.032563692065082556 0.17412314751904528 -0.625428080232877 71 42 26
-0.03382202850610347 0.17275638958168907 -0.6281343210030274 76 45 31
-0.03474181357627845 0.17173432040556072 -0.630982659664073 86 57 37
-0.03355666754185255 0.1728545516793334 -0.634744320784971 93 65 42
-0.033912126987695024 0.1724067985529542 -0.6378385831649831 96 67 44
-0.03605927977867551 0.1701358372286245 -0.6401443469875921 93 62 39
-0.03332486208474836 0.17283226422677422 -0.6446001644266992 89 58 34
-0.03130702246270747 0.17479922456554126 -0.6487513706475505 87 56 30
-0.031168256649857062 0.1748541130730491 -0.6520735907216468 83 53 26
-0.030400130555253035 0.17554922977056672 -0.6556804215743336 80 50 24
-0.02968842725901502 0.17618681962701455 -0.6592666378111172 74 44 22
-0.029434075465233606 0.17635905705523874 -0.6626499320874183 75 44 24
-0.02871065786646329 0.17700834676179616 -0.6662496342551457 72 43 22
-0.027119107277502053 0.17854049603995106 -0.6702519184343165 75 44 23
-0.022600063856042657 0.18304980560453543 -0.6756115171235568 76 44 23
-0.027728308959109133 0.17774739767080813 -0.6765267084825737 73 43 22
-0.04185713337957678 0.1632926977070287 -0.6732314354413546 70 41 20
-0.05145602337133942 0.15344600623673402 -0.6719903545674635 70 41 21
-0.047650450095031105 0.15723010490314346 -0.6770054092429303 68 40 19
-0.04450458823124748 0.1603429487922014 -0.6817278456892684 68 39 20
-0.046628106445044615 0.1580981172326803 -0.6839654471379604 69 40 22
-0.0437142127664471 0.16097462090106635 -0.6885968239399574 68 39 21
-0.04500700180118583 0.15957441326117588 -0.6912271176767865 68 41 22
-0.04357506136906916 0.16094399627827638 -0.6951647759373324 67 40 21
-0.04309170011781266 0.1613492035711635 -0.6986514131427723 65 38 19
-0.04471578846482277 0.15961236965873038 -0.7011170012473782 62 35 16
-0.04428136186440235 0.15996778565283598 -0.7045819487053692 62 35 16
-0.043846580322515705 0.16032347421191778 -0.7080504004747099 59 32 13
-0.043661652859073086 0.16042517663856457 -0.7113989687500181 60 33 14
-0.047434751160502414 0.15650498007118413 -0.7127885731172863 60 33 15
-0.044351462882529336 0.159551724138269 -0.717575112585831 62 35 18
-0.04322997450269134 0.16060486498875903 -0.7213961479815234 64 37 19
-0.040326064697108505 0.1634686627748356 -0.7261193355257982 64 37 20
-0.0349638726267365 0.16882937870074796 -0.7320983157304642 67 40 23
-0.030986632373945583 0.17278254331492193 -0.737401266468776 63 36 19
-0.028249149824673303 0.17547589406602931 -0.7420924840284218 60 33 17
-0.02548382827290016 0.1781971473062145 -0.7468120546800653 58 31 15
-0.015863993884267874 0.18787966919221255 -0.7550699907121201 57 30 15
-0.009426274926509104 0.194329312766393 -0.7617307356895225 56 28 14
0.0031313550523762446 0.2069929301938675 -0.771597935061597 55 28 14
-0.032560808467351654 0.17065999364241558 -0.756380281752892 55 28 11
-0.03366333440680605 0.16945313877650892 -0.7591040148796618 53 27 10
-0.03419564979703166 0.16882533143504638 -0.7621237504138877 53 26 11
-0.03514340590296533 0.16777577510905756 -0.7649229100687347 54 27 12
-0.054965804425997924 0.1475648331448147 -0.7577060051603765 55 28 12
-0.02381253039948289 0.17910346942915711 -0.7775594636761518 55 28 12
-0.014787213675171995 0.18817672988072837 -0.7857177093821901 56 28 12
0.028336080053515844 0.23185863289334258 -0.8122481703752296 55 27 13
0.0311203177413851 0.23459309350227528 -0.8172043169836314 55 27 14
-0.061524605326393034 0.14047743722920278 -0.7704316338153147 56 28 14
-0.055846902397787765 0.14615341749147473 -0.7767684488988388 56 29 12
-0.057913911446886374 0.14396961869570643 -0.778897567434901 56 28 14
-0.05635738917330242 0.14546283827231868 -0.7830085552228714 55 28 14
-0.05127457106412617 0.1505337415771797 -0.7890733109655175 56 28 14
-0.05370214264857254 0.14798412124771096 -0.7910028313433515 56 29 14
-0.06088894055806686 0.14060647045988767 -0.7902746543470925 55 28 13
-0.061272104038894354 0.140131632281441 -0.7933149286085533 53 25 10
-0.05717921716363866 0.14419726123100307 -0.798865854231445 51 24 8
-0.05262075715462938 0.14873458824239977 -0.8046996599732535 52 25 8
-0.08105591281797732 0.11980707806094153 -0.7918909355715806 53 27 10
-0.08203489389889142 0.11872917419420306 -0.7945468921178106 53 27 10
-0.0878496846122008 0.11274717406023362 -0.7944410040574067 53 26 10
-0.08805352259062386 0.11245580201384806 -0.7975229302019 54 26 10
-0.09119848917158045 0.10918207457492404 -0.7989135859790659 54 27 11
-0.09562768396445012 0.10460656009664622 -0.7995490346144688 54 27 11
-0.09951557153858061 0.10058039049699627 -0.8004787569425249 55 28 10
-0.10107575661955505 0.0989145600564122 -0.8027466840628441 56 29 11
-0.10340025035519966 0.09647406179613323 -0.8045617124490589 58 31 12
-0.09129204801744716 0.10866426938250591 -0.8148385250710468 59 32 14
-0.09048923562007614 0.10939334134052234 -0.8185112904995449 58 31 12
-0.08838150850883301 0.11144490928015294 -0.822961266085432 58 31 12
-0.08787665758543867 0.11187164142711763 -0.826470312121336 58 31 12
-0.0876472090032522 0.11201916893496248 -0.8298187950311106 57 29 11
-0.08875901259974431 0.11080742354265541 -0.83236653134802 56 29 11
-0.08927512535252684 0.11019941193273994 -0.8352684154246364 60 33 15
-0.09024954854874155 0.10912704146502332 -0.837892551195627 56 28 11
-0.08916923218824747 0.11013662146855548 -0.8417583583246788 56 27 11
-0.07377807563350153 0.1256448801035478 -0.8543356239567858 57 28 12
-0.0849048998156966 0.11428647544968205 -0.8507939094576392 57 28 12
-0.1027148170859612 0.09615938190498952 -0.843103746111531 59 30 11
-0.10246388792863989 0.0963292087362046 -0.8464450241889768 61 32 12
-0.10595757474855073 0.09270610030440325 -0.8474754386150335 64 33 12
-0.10659621374626854 0.09197505567482474 -0.8502611234170487 64 33 12
-0.1056290682979562 0.09287033171116116 -0.854044726656818 69 38 17
-0.10630303156791421 0.09210350538659826 -0.8568086731013383 75 47 27
-0.10707109239029078 0.09124144322227949 -0.8595116822439497 73 47 31
-0.10850214056005408 0.08970812162041483 -0.8617948637201691 72 48 35
-0.10866174362270914 0.08946229464220595 -0.8648761544919439 75 52 38
-0.10965095472908627 0.08837652087967621 -0.8674316435550454 77 54 40
-0.11267571400059409 0.08523008534455621 -0.8686874230033775 77 54 40
-0.10680131195353533 0.09109278598761451 -0.8756185196332105 74 52 39
-0.10900341286241766 0.08877922432443795 -0.877397079753015 72 51 40
-0.1067509349406449 0.09097479774286833 -0.8820351097687191 70 49 39
-0.1062023076843367 0.09144553480627608 -0.8855838762038398 64 43 31
-0.1025927382658079 0.09501404366477205 -0.8911223893273534 60 40 28
-0.10158648326836565 0.09594749979975185 -0.8949843091546155 57 37 26
-0.09836193756918071 0.09912556995080513 -0.9003020970764589 55 35 24
-0.09876304134142898 0.09863448862997744 -0.9032584347173604 49 29 18
-0.09640653257932819 0.10093361118403074 -0.9080295788819919 46 26 14
-0.09081193594586558 0.10650853414220568 -0.9149527927877698 51 32 20
-0.09249844245199186 0.1047165218488287 -0.9170759089947911 62 43 32
-0.10085096891815806 0.09618119110772574 -0.9147559581166865 66 46 36
-0.0928771273884613 0.10416197417232025 -0.9233018061146059 66 46 34
-0.09594178927104845 0.10097631020906404 -0.9244880371034699 68 46 34
-0.10903208628965465 0.08765074881154962 -0.9189166020034815 68 46 33
-0.08000550862873446 0.11692250882230315 -0.941716941567232 66 44 30
-0.08159201478145826 0.11523137227954884 -0.9439174476062167 60 37 22
-0.07917568681638547 0.1175882347368199 -0.9488332267652131 60 35 20
-0.07615925928837156 0.12055156193455853 -0.95417141050757 60 35 20
-0.0945100374505175 0.10190977853874214 -0.9448950408540056 60 35 20
-0.09478723263753346 0.10154360667582726 -0.9479504374140058 60 35 19
-0.10076033043853062 0.09541895045958397 -0.9470783748525354 62 36 19
-0.0988481909067499 0.09726639146940916 -0.9516349214196731 62 39 22
-0.11739311539593386 0.07843433118438724 -0.9419979031819004 65 40 24
-0.12103958782806314 0.07466389591409137 -0.942653311014485 77 55 42
-0.1261857671395648 0.06937808902021121 -0.9422439289933517 92 74 63
-0.1289864112344853 0.06646346255492287 -0.9434565916392934 96 82 73
-0.13543333276528274 0.05986421442433687 -0.942090154097534 95 81 71
-0.12947250825447643 0.06580428791594732 -0.9494586151260913 94 80 71
-0.11934957653511073 0.07586459954574291 -0.9630064822620304 95 82 73
-0.10083611581850452 0.09431304187449993 -0.9859133453348509 100 85 77
-0.10126150884754871 0.09379732486685495 -0.9888559407974685 101 85 79
-0.0873518602075939 0.1077613523248105 -1.0021664192048945 101 87 81
-0.0913535082888595 0.10363263414112324 -1.0025468855369843 103 89 82
-0.11740018703916039 0.07723968713005767 -0.9868573038911044 100 87 79
-0.12472466362980143 0.06975761021952767 -0.9847207416025107 97 85 77
-0.12618309093496527 0.06820018914933813 -0.9868497715770905 101 88 80
-0.1293111464069534 0.0649569759775321 -0.9877451721483167 98 86 79
-0.1324257444072539 0.06172771775326362 -0.9886366432351091 99 87 82
-0.1350782058065303 0.05896541829737137 -0.9898564174587358 90 77 73
-0.13766326338299512 0.056271474541814526 -0.9911146851042424 82 69 63
-0.14114988001953002 0.05266769066287968 -0.991689931854182 79 63 55
-0.1431388994886537 0.05057607180494185 -0.9933690792165055 78 59 49
-0.1463691284980252 0.047231813777448645 -0.994108974075242 69 46 32
-0.1444501537198422 0.049085144157282164 -0.9987088068141822 62 34 17
-0.14358558472395733 0.04987402545602638 -1.0025233587059486 60 32 12
-0.142996437605944 0.050384806876308134 -1.006134849250292 62 34 13
-0.14046111216681895 0.052859423307238834 -1.011229056180737 68 38 17
-0.14445039567393747 0.048749925176514754 -1.0113641765448804 66 35 14
-0.14431958439894568 0.048798083776293924 -1.014631342563346 65 33 11
-0.14437036221529082 0.0486629791938204 -1.0177611689396104 66 34 11
-0.1438118155043131 0.04914257656011972 -1.0213609080529067 69 37 14
-0.14943654092874362 0.043384341006281205 -1.0201917909920541 70 38 15
-0.1503899075878573 0.04233899359553162 -1.0226137675662712 73 41 18
-0.15093932058342194 0.04170119382968819 -1.025346178577526 75 42 19
-0.15131138072808387 0.04124231093733582 -1.0282154082233137 76 42 20
-0.15218809107178416 0.04027447763032008 -1.0306896535002443 74 43 20
-0.1533759771158184 0.03899290769831473 -1.0329169196688384 72 43 22
-0.15448115301534432 0.03779486346698324 -1.0352047373067932 76 50 30
-0.15323622864629372 0.03896666071152537 -1.0393426991916732 80 56 38
-0.1562803194064431 0.03581369468044711 -1.0400934952624963 81 59 41
-0.15465837278513186 0.03736550115348316 -1.0445350755034295 82 59 44
-0.15569903880901925 0.03623272452191154 -1.0468655250716514 80 58 42
-0.15323309721946834 0.038635040693508586 -1.0519932726231922 78 57 40
-0.1479166288496273 0.043910418097380825 -1.0594184174845096 78 56 42
-0.1509365985728801 0.040782234056536734 -1.0601708870304305 77 55 41
-0.15164398675472443 0.039985258155358874 -1.0627741673166395 73 54 39
-0.14779390872091278 0.04378151306180855 -1.0690605298326559 72 53 38
-0.1489332533848324 0.04254904252783806 -1.0713203337571333 70 52 38
-0.14900313098942575 0.04239439247964579 -1.074445900000333 66 47 38
-0.14828468421579055 0.043034063706355395 -1.078215702509513 63 44 37
-0.14514483130331668 0.046113354283422794 -1.083972144116516 52 34 27
-0.1456833929266613 0.04548616283678998 -1.0867257245144732 47 31 26
-0.1490575614362787 0.04200228980528117 -1.0871432381124073 33 20 14
-0.14835936768035166 0.04262123523132126 -1.090908530664637 34 21 16
-0.14270530356200767 0.04823217323824071 -1.0987834812163892 38 22 16
-0.1441253826722595 0.04671691517475007 -1.1008107456365548 42 26 19
-0.1491079000007813 0.04161377732335231 -1.0998640503712709 45 27 18
-0.14999475934705475 0.040636067519047414 -1.102316789391504 48 28 15
-0.15073662198621116 0.039804457850723785 -1.10488800715876 54 29 14
-0.15163088178508022 0.03881944793930328 -1.1073287803415996 65 36 16
-0.15259425655061465 0.037764926415446626 -1.1097081929352426 76 45 21
-0.1533638517310757 0.03690560414243676 -1.1122480234308239 82 53 27
-0.15493348577704358 0.035240874948955475 -1.114106919522308 87 60 38
-0.15542439249829115 0.03466229926901573 -1.1168768386566532 86 60 42
-0.15609929841968986 0.03389852801747389 -1.1194887073490918 85 59 42
-0.1566542170922679 0.03325558871142682 -1.122201203780082 85 59 42
-0.16648733766148152 0.02327389981659885 -1.116952296765907 83 57 40
-0.15523547095514728 0.034514752122646444 -1.1297975190201388 83 57 40
-0.1529407885664319 0.036739595001466195 -1.1349708615993677 82 57 39
-0.16297529628160068 0.02655682885577361 -1.1294877893149746 82 58 41
-0.16164559577569426 0.027810778268862073 -1.1338185321545824 81 59 42
-0.14069454701900846 0.04880755587009354 -1.1552339173363635 77 56 43
-0.139569688017386 0.049853698939624005 -1.1594504006034376 66 49 38
-0.15480962406917914 0.03443552076500047 -1.1493500851083296 60 46 36
-0.140397155054847 0.048849771752884574 -1.1652031323527836 74 65 53
-0.13677380407371886 0.05240889708918477 -1.1716320600081402 112 104 95
-0.12806907094661213 0.061078736346421914 -1.1825658362068254 147 144 139
-0.11874660650567442 0.07036871277460488 -1.194091079006267 169 169 165
-0.1614827215449118 0.02729994683578138 -1.1594514592148446 181 180 179
-0.1567478545186758 0.03197718871462261 -1.1668588242738946 188 188 188
-0.14048131396201896 0.04825013567459334 -1.184585211215726 192 193 192
-0.05281809538411125 0.1363133975512061 -1.266306299548627 195 197 196
-0.0470894598663503 0.14198164331707133 -1.274915854419126 198 198 198
0.00912529618333996 0.1984084456314269 -1.3290008327860812 200 200 200
0.008249632116589467 0.19743216419269233 -1.331834938374492 201 201 203
-0.023712586640417865 0.1651114212741528 -1.3100739397173193 202 202 204
-0.2869220881173309 -0.09954691750778513 -1.0740641457117674 202 202 204
-0.2862631339396725 -0.09896113811531364 -1.0775566310166569 203 203 205
-0.3031400020719839 -0.11599925193043711 -1.0650059837802104 203 203 205
-0.3044290875729283 -0.11737023178763557 -1.0666760467939416 204 204 206
-0.3063014157322044 -0.11932716326144346 -1.067804191579882 204 204 206
-0.29529544754992 -0.10834354772850281 -1.0808061542019156 205 205 207
-0.29272465072349774 -0.1058366664051952 -1.086060687047671 206 206 208
-0.3190576704318002 -0.13296717990547907 -1.0871023826856994 209 209 211
-0.3162294166951031 -0.1302022348912914 -1.0926183842875892 210 210 212
-0.31619624707392774 -0.13024401834583516 -1.0954867973304132 211 211 213
-0.011679802255134361 0.21960218313774238 0.1144292454370293 183 183 185
-0.02743696099274097 0.20321869236494677 0.10996924455070436 183 183 185
-0.02342021642649715 0.20729687155713283 0.10735537039437609 183 183 185
-0.016542364212426094 0.21433479642139425 0.10497517636754351 184 184 186
-0.012389326883741877 0.2185528806545992 0.102330946777516 183 183 185
-0.00645538865003481 0.22461287334556967 0.09981728577346355 184 183 184
0.011151059870014635 0.24274710455990095 0.09823074003496966 183 182 180
0.009389484090864458 0.2408446914061929 0.09502801225955435 181 178 176
0.00710251772597896 0.238398996082901 0.09179083141476575 165 159 157
0.005525909345318922 0.23668825249716152 0.08861563357758925 142 130 126
0.003986436544521521 0.2350160598004089 0.08544862537344547 114 100 92
0.0027934964697668013 0.23370239029317652 0.08231158444491576 97 82 73
0.001811703646076579 0.2326071785475381 0.07919297685127222 95 77 66
0.0007319746969926266 0.2314107699055742 0.07607078540295675 97 75 63
-0.0003469401694566193 0.23021529169680263 0.072952031589923 100 76 62
0.0015033204630128527 0.2320486066168208 0.0700203160159258 99 74 61
-0.001443255024623613 0.22892212602447576 0.06678899016739684 98 75 59
0.0014786517965111462 0.23186317619375588 0.06391209775776632 99 76 60
0.0013893774960110905 0.23169087543362535 0.060851970346792676 100 78 62
0.0012892438822045688 0.2315073279135555 0.05779045705233592 99 78 63
0.0011892105036633571 0.23132386433105626 0.0547281976639534 100 77 63
0.0009357916409997863 0.23098183469239317 0.05165751407757515 102 77 64
0.0006714142662350847 0.23062847572630557 0.048586202160904195 100 77 64
0.007413457343876675 0.2375164999813505 0.04583561897741713 99 76 62
0.007350960658146485 0.2373713890941952 0.042758169452737915 95 72 56
0.007469357729403062 0.23741319421956958 0.039687317398416896 90 68 52
0.008678473517865423 0.23858207022785347 0.0366577849941837 94 72 58
0.012332885729791548 0.24227753893352108 0.03371316980950448 103 80 66
0.012993392468885062 0.24287909370301747 0.030646518999537267 103 81 67
0.01367086375108198 0.2434980717092039 0.02757643608518656 101 78 64
0.014335520138274382 0.24410370352922467 0.02450188928408355 101 78 64
0.017482306493849728 0.24727349695074557 0.021494858430383623 101 78 64
0.019926190562971555 0.24971678587268636 0.018454500409489753 102 79 65
0.016050793704256078 0.24563208085874683 0.015247300642907916 102 79 65
0.016819420059259377 0.24634470032050956 0.012159604649840835 102 79 65
0.015827559687922058 0.24523885138177595 0.009031676273790853 102 79 65
0.011900436720844482 0.24110150463894503 0.005853383386951544 99 76 62
0.010299483516460303 0.2393669327111661 0.0027279676073575683 96 73 59
0.012186100750516404 0.2412341267315969 -0.00034324321114071604 96 73 59
0.012577259699131677 0.24155680059231813 -0.0034413332812992248 98 75 61
0.011234449912805686 0.24008892107791566 -0.006559053667584906 99 76 62
0.01588400868215105 0.24480848397709545 -0.009627081193528474 99 76 62
0.015103160420916611 0.24392071991632241 -0.012745487556972255 99 76 62
0.017671150143991496 0.2464904263287418 -0.015850810051917685 102 79 65
0.016842739305867424 0.24555348464853416 -0.018972157924495237 103 81 67
0.015954334004355655 0.24455467113548543 -0.022091113735585532 100 78 64
0.015060126737629617 0.24354993634079664 -0.02520746155052632 96 74 60
0.01719387029273202 0.24567071636975313 -0.028337153504348876 96 76 61
0.011007563833492592 0.2392037485087331 -0.03141553325342385 94 74 60
-0.0042867597085713555 0.2233371802163578 -0.03438170886448032 94 74 60
-0.005015960252131399 0.2225039452632333 -0.03745386252086951 93 73 58
-0.003430518980919714 0.22405941207271862 -0.040556089385658384 92 71 59
-0.003339686994773605 0.22407235509387324 -0.04364243152615639 94 72 62
-0.0023970433230548205 0.22496420903673425 -0.04674578159271016 96 73 65
-0.005104778010158281 0.22208944293224656 -0.04978043965984297 95 74 64
-0.006006389007418275 0.2210784177173709 -0.05284513388649387 94 75 65
0.029546217393475308 0.25767705641030664 -0.05680170869977057 90 73 63
-0.008278371536231968 0.21857298622739196 -0.05895399528581012 85 69 61
-0.011445169509913505 0.2152254723753365 -0.06194435657442392 71 58 53
-0.028614989537442556 0.1974338115983438 -0.06448854756546839 64 53 49
-0.022435250505104476 0.20372839896218164 -0.06773362104636006 73 60 54
-0.02165089138657822 0.20445739613302238 -0.07081611615991006 77 62 57
-0.016867654637166066 0.20931054255562193 -0.07405281193716454 77 62 57
-0.061735727374173106 0.16295771278314505 -0.07534646671489387 86 70 66
-0.020061194864873164 0.2058564397563771 -0.08005909407272203 89 73 68
-0.06469855925390222 0.15974668678261866 -0.08116533179819971 73 56 47
-0.06473665136642831 0.15962963518548484 -0.08413336018404714 73 57 44
-0.06510313567656262 0.15917396080145113 -0.08708655451433686 51 34 25
-0.06945161480235956 0.1546127877960805 -0.08983889063731686 45 28 20
-0.07197359564026268 0.15193512562146289 -0.09266950963154008 40 24 16
-0.07710265911680003 0.14657006235404074 -0.09534793924692031 39 24 16
-0.08429373746842019 0.13907992244557688 -0.09788826663697113 58 45 37
-0.09155161115629296 0.13152171305243626 -0.10039477049828278 66 52 43
-0.08414914388983216 0.1390752349314715 -0.10376709618828704 71 54 46
-0.08630955064491008 0.13677163254305108 -0.10656740980172755 77 60 53
-0.1039982435494949 0.1184644382376138 -0.10834339980062027 79 62 54
-0.09948536921101861 0.12303940211162114 -0.1115448719495988 86 69 62
-0.0936921006474869 0.12893328412681243 -0.11485630172704712 82 64 59
-0.0922775816825972 0.13031438465110873 -0.11787898715511139 95 77 72
-0.08867598347939301 0.13394885361429193 -0.12107096100712295 114 100 91
-0.08573983342768253 0.13689724688757365 -0.12422892145034754 95 77 68
-0.11539280333578135 0.10626926196285662 -0.12484524451474968 84 62 51
-0.11404658610840052 0.10758078733705875 -0.1278322182584936 76 49 36
-0.1154869056919555 0.10602152535217893 -0.13059556494995098 52 24 10
-0.11747102372869832 0.10390222379899725 -0.13330761219311513 50 23 10
-0.11786120218353209 0.10342496517871864 -0.1361509829952115 49 22 11
-0.11853899172069363 0.10265148238575203 -0.13896811089686725 44 21 9
-0.12498321870716578 0.0959389494198062 -0.1412562272816383 41 17 9
-0.12389350993523708 0.09698621068389804 -0.14422262155272306 40 20 12
-0.1228103948246672 0.09802652842278795 -0.14719423370555507 47 32 23
-0.12130479022956482 0.09950176134032027 -0.15021304837924987 47 35 28
-0.11960839513326009 0.10117325334025586 -0.15325862779852045 49 41 34
-0.11696129401325689 0.10382342466035523 -0.15640995086661458 52 42 37
-0.11462004141237848 0.10615836308558163 -0.15954196350000296 52 42 37
-0.11097089206439062 0.10983954222523395 -0.1628247643592964 51 42 37
-0.11470476662496883 0.1059195497827849 -0.16532119223171746 50 41 36
-0.11171188264253601 0.10892467933208075 -0.16854911642068898 49 40 35
-0.11194509876207265 0.10860857823684021 -0.17142610637592304 51 40 36
-0.11198129949192781 0.10849526511873467 -0.1743259389150867 52 41 37
-0.11033381847766018 0.11011487031788689 -0.17742463383390725 52 41 37
-0.15506943791219105 0.06377558916761553 -0.1834222061769417 51 40 36
-0.10049218737982815 0.11986032983879213 -0.19324908120832757 50 39 35
-0.09183313246529143 0.12869285090199764 -0.19731721920128 50 39 35
-0.08421907704734682 0.1364491939800413 -0.20128557296026603 50 39 35
-0.09333027502166283 0.12699767760987474 -0.20303038611527713 50 39 35
-0.10888485274364301 0.1109185888067169 -0.20385250053388498 50 39 35
-0.09146287891612989 0.1287637813451376 -0.20920403228443932 48 37 33
-0.014206616886409562 0.20807218437832375 -0.22623678661027605 48 37 33
-0.02281088451104679 0.19914049497599684 -0.22811508504364503 50 39 35
-0.03608182269305672 0.18541029223927696 -0.22926553200646677 50 39 35
-0.08495980962105391 0.13506331466724658 -0.22500583018631576 50 39 35
-0.06754603753393663 0.15289251805520576 -0.23064459648417604 50 39 35
-0.06693556807564277 0.1534411140631307 -0.23376101938355995 52 40 35
-0.07614889195827022 0.1438885197814725 -0.23533971293200986 52 39 33
-0.0727981889683741 0.14725490276972641 -0.23887831738185 52 39 33
-0.072417637539993 0.14756722116135276 -0.24195368505638837 51 38 32
-0.07230004322953126 0.14760913060086828 -0.24498890928264516 51 38 32
-0.07389326201921112 0.14589228528608775 -0.24774232376483524 51 38 32
-0.07549405687604707 0.14416780484019823 -0.2504886389075563 51 38 32
-0.08275897917236334 0.13662142638231622 -0.25226552508263783 51 38 32
-0.08214864924290047 0.13717022643854093 -0.25536865622330357 49 36 30
-0.07112819643705938 0.14841809682278995 -0.26029244297888615 48 35 29
-0.06992160618417724 0.14957887540716747 -0.26353161916303003 47 34 28
-0.07952848865991093 0.13962701098136343 -0.26484245399506795 45 32 26
-0.08078872930957554 0.13825317514537672 -0.26762397348177475 45 32 26
-0.07717401371198357 0.1418886428955495 -0.2712948926077541 44 31 25
-0.0774316192780298 0.14154493955501465 -0.27426444776530856 45 32 26
-0.06477495132940829 0.15446961187750774 -0.27965877787068266 44 31 25
-0.052653630878065225 0.1668427934521189 -0.2850085065557235 44 31 24
-0.05391332945063061 0.16546816878340265 -0.2878415160971695 45 32 24
-0.05490925754644106 0.16436461545764747 -0.2907214381009792 46 33 25
-0.07234472415219367 0.14637464865347638 -0.2903662218829282 43 30 22
-0.07145781566637437 0.14720613331376073 -0.29357770458130467 43 30 22
-0.07787428130195448 0.14053639181611186 -0.29532617565976366 41 26 19
-0.07818628928882759 0.1401367275182454 -0.29828806901912097 43 26 19
-0.07732772374169765 0.14093919594662407 -0.3014902643970661 43 26 21
-0.06912629428956873 0.1492819068119592 -0.3062223129015247 70 54 46
-0.0632251017084183 0.1552616588827395 -0.3105091331762787 61 45 37
-0.061637677596009105 0.15681139426807428 -0.31390837716749564 69 51 47
-0.060688205525906994 0.15770591301365955 -0.3171791453879932 57 36 28
-0.06393239324145161 0.15429480265260248 -0.31954725442219833 50 26 19
-0.05749226065563609 0.1608260353410241 -0.32402067854329053 52 30 22
-0.053942356206002115 0.16438952500103998 -0.3278852401437805 48 30 19
-0.0776948408998764 0.1399269042259758 -0.32567291280138305 47 29 20
-0.05728140413728196 0.16080038106745156 -0.3333121885335883 48 32 24
-0.05840829221555416 0.1595630007538559 -0.3361398816412846 51 36 30
-0.05709561479969945 0.16082948652420992 -0.33952456036828477 41 29 27
-0.05184125377128099 0.16614097319690058 -0.34383114321802066 18 9 8
-0.061050169028527584 0.15660960041198346 -0.3447732818814111 37 28 25
-0.06349327273921175 0.15402195135513086 -0.3472760687554208 47 35 28
-0.062375931144837984 0.1550878693291074 -0.3506193355181068 44 32 23
-0.06287723155674736 0.15449285787736683 -0.3535786959235117 42 29 21
-0.05228426446983851 0.16528022132508313 -0.359235549834389 40 26 18
-0.05063736624975278 0.16688846984187852 -0.3627449254329731 42 27 20
-0.04739361208606645 0.17013462807328192 -0.36665841342708316 50 35 26
-0.046577620266234215 0.17088999734818378 -0.3699808432216438 39 25 20
-0.047887709174174356 0.169464448115708 -0.372772031817517 33 19 19
-0.050010888726216646 0.16720505368618502 -0.3753517526700426 51 38 32
-0.05152538344267091 0.16557015228672864 -0.37807942371567616 55 41 34
-0.05640943814486364 0.1604797193510629 -0.37992928512339147 48 33 26
-0.05880805325374887 0.15793864133037883 -0.3824074875092735 45 28 21
-0.0620417828621275 0.154541452411362 -0.3846562626487273 44 27 19
-0.06631731770938201 0.15007636276409364 -0.3866151036948795 47 28 21
-0.07097469369404018 0.14522023212380347 -0.38845375508433067 57 38 31
-0.07194501835728545 0.1441448174399958 -0.3912684845902835 49 32 24
-0.07651101782521935 0.13938317942830997 -0.39310097632094293 48 30 21
-0.07920090310699869 0.1365453380208565 -0.39542928537179595 41 22 12
-0.0813349070462453 0.13427760809911515 -0.39790060229534785 49 29 21
-0.08100369681289755 0.13453701376995356 -0.40105142349446776 51 31 23
-0.08993243030153525 0.12530518028075666 -0.4016003558767478 46 26 16
-0.09133404232089552 0.12378899948423636 -0.40424449088425457 49 27 16
-0.09820704943625916 0.11666557752279791 -0.4053199909527655 56 35 27
-0.1019631183938445 0.1127371523573765 -0.40726352514514624 87 70 63
-0.10567327048935893 0.1088561907102226 -0.4092046970794543 89 71 64
-0.10141482614033011 0.11314086554827057 -0.4134612825714994 86 65 53
-0.1040584566726715 0.11035302242780316 -0.41570375878996696 70 43 25
-0.10487658043320032 0.10943579767533607 -0.41847773054571114 62 30 11
-0.10765104036878709 0.10651437301806876 -0.4206637527292833 59 30 12
-0.10180367147949537 0.11242579338547609 -0.4254381007556914 58 31 14
-0.10192188309393356 0.11222546318007455 -0.42842783035514165 57 28 12
-0.10496601839878328 0.10902802674438691 -0.4305228211614192 57 29 15
-0.10752599088833584 0.10632682859681625 -0.43275453998701147 61 37 23
-0.10597810191201583 0.1078331901031426 -0.4362515493926532 63 41 30
-0.10357031636776019 0.11021999599158547 -0.44002571535452834 71 53 41
-0.08051713602533828 0.1337491422754561 -0.45031633656518166 73 56 46
-0.09051924882411133 0.12342602711635353 -0.450223493989377 78 64 55
-0.09418950073734453 0.11958768358815537 -0.4521101491785365 95 79 69
-0.09632351064804695 0.11732271375061262 -0.4544758370537559 77 58 46
-0.09508135943319959 0.11851464434361028 -0.45792727844052533 75 55 41
-0.042179462868253526 0.17259511697683264 -0.47824504301329746 73 50 38
-0.037168490749323324 0.17764188434013897 -0.48306559686011274 72 50 37
-0.03933813666596256 0.17533743220350953 -0.4855341529800316 77 55 41
-0.03888396383202347 0.17571897641239198 -0.4888682713707889 81 58 44
-0.03842943177496452 0.17610080122561528 -0.4922058353726542 80 57 44
-0.03797454088346219 0.17648290612939732 -0.49554684928285225 79 56 43
-0.03751896611617693 0.17686562366603195 -0.4988914280288552 78 55 41
-0.0378697765254679 0.17642301987457482 -0.501963383181868 77 55 41
-0.0380214748759259 0.17618417883924414 -0.5051036091317309 76 53 40
-0.037359484671585674 0.17677793380217904 -0.508526572874981 76 53 40
-0.03786100603776767 0.1761810763239009 -0.5115477137432096 69 45 34
-0.03800531016751921 0.17594972716326196 -0.5146933409360268 73 49 39
-0.03803037828125373 0.17584034943750215 -0.5178817452577987 75 52 41
-0.03805554809866486 0.17573083727210143 -0.5210712740199219 77 54 43
-0.026244933272404125 0.18772880266346462 -0.528500684949126 77 55 44
-0.02685560422539507 0.18701961612121717 -0.531508459439203 76 55 44
-0.026934475891541576 0.1868544134941906 -0.53470761388973 76 54 43
-0.02380440873069234 0.18997122141076878 -0.5390788273547745 72 51 39
-0.023720945212516026 0.1899718019368744 -0.5423467677740131 74 53 39
-0.022796620889296543 0.19083225294423778 -0.545927093688168 76 55 42
-0.017985478650450637 0.19566721877294183 -0.5509580407222961 76 55 41
-0.01499074137273576 0.19864422899116407 -0.5553327563043563 77 54 41
-0.017554012846854927 0.1959378930191369 -0.5576306176406743 76 52 40
-0.018074562812601086 0.19532034970649964 -0.5606915439981511 76 52 40
-0.018520924332927874 0.19477868193049566 -0.563779654470087 75 52 39
-0.020156221925256346 0.19302158322032886 -0.5664114082793751 75 51 38
-0.021297323106829136 0.19176983399990738 -0.5692275008358899 74 50 37
-0.02276036919449073 0.19018910141527595 -0.5719148289088716 75 51 38
-0.026573113393526665 0.18620683409251035 -0.5736802011158498 74 50 38
-0.026640994957669945 0.18605246837969963 -0.5768987752707484 76 52 40
-0.02745484758239547 0.18513569351043935 -0.5798239352017861 77 53 41
-0.031098915903386593 0.18132666829190225 -0.5816232220766355 76 52 40
-0.023737197766126705 0.18876465239225798 -0.5878010322527443 75 51 40
-0.02254514687227227 0.1898974222047741 -0.5915365844356001 75 51 39
-0.02179299587748179 0.19058054208360975 -0.5951012663541533 76 52 39
-0.021151267404820456 0.19115071857820937 -0.5986258609357721 76 51 39
-0.022407967746731816 0.18978127122370936 -0.6013793644199572 74 48 37
-0.028552961931518295 0.18341815393027217 -0.6021207341849172 76 50 39
-0.028264359714182924 0.18362779282752328 -0.6054923010688433 80 54 42
-0.02772204065314607 0.18409652455965145 -0.6089718677419557 79 54 39
-0.029669227715560825 0.18202237481562075 -0.611415604106861 84 59 43
-0.030989620266144158 0.1805885957184696 -0.6141148829923136 86 61 45
-0.02980849584079906 0.18170969007311233 -0.6178655436257428 87 62 47
-0.02847112603302135 0.18299016869285145 -0.6216892731656793 86 59 44
-0.028146589311834086 0.18323618807348263 -0.6250881811595991 84 57 42
-0.030389703353608022 0.18086030896717 -0.6273880797112436 84 55 41
-0.0325384080985375 0.1785810618494807 -0.6297196785818868 83 56 40
-0.03241581025630261 0.17862099003791138 -0.6330277945431135 89 62 42
-0.032193496811912525 0.178762670612677 -0.636381261755697 94 70 47
-0.03647727816890567 0.17430421062834867 -0.6377618744748708 95 70 47
-0.03580704801075385 0.1749032732713387 -0.6413069813614538 94 68 44
-0.03429027633046172 0.17636631632782956 -0.6452314684451703 93 65 41
-0.0313367447615277 0.1792956076926747 -0.6498040085433759 88 60 36
-0.030316408115519028 0.18025145898017997 -0.6535262583132023 84 55 28
-0.03004035039398434 0.18044757495432182 -0.6569196968323324 86 57 30
-0.02943066081117715 0.1809840924332388 -0.6604665951959462 81 52 28
-0.03249849702572996 0.17776783079653313 -0.6623461421991974 76 47 26
-0.0313450377708564 0.17885920233133754 -0.6661412139588314 70 43 22
-0.024059300749269708 0.18620723800336791 -0.6727585460311574 73 43 22
-0.024824272645287998 0.18534060621048393 -0.6756958596995093 76 45 25
-0.021760476242164817 0.18838010734301566 -0.6804066541112259 75 44 25
-0.03644208085650727 0.17331658178214998 -0.6768618926533281 73 42 24
-0.04817130762611557 0.16126643557123282 -0.6746332969779075 71 41 23
-0.04111240316492201 0.16838173806368023 -0.6811958580317959 69 41 22
-0.04540265858849207 0.1639205960491829 -0.6824236780834505 69 41 23
-0.045864003469376524 0.1633649980122141 -0.6854530750188501 69 40 23
-0.04408235104232322 0.16509688941388703 -0.6895531261292704 69 41 23
-0.04457341835496523 0.1645108886754602 -0.6925717987855674 71 43 25
-0.04445757240300596 0.16454378558222593 -0.6958822462658099 68 41 23
-0.04351296732366067 0.16542167295727364 -0.6995962270374259 67 40 22
-0.04575904764007424 0.16304624329508793 -0.7017620339017399 69 42 23
-0.04546092124620199 0.16326492701802076 -0.7051636649285252 69 42 23
-0.048738442716962954 0.1598383074441239 -0.7068099853558466 68 41 22
-0.04732122570829303 0.16119786840396888 -0.7107615139113643 65 38 20
-0.05183771796359393 0.1565087626923003 -0.7117759239866949 66 39 21
-0.04634688679337268 0.16202041480652862 -0.7177607857209021 67 40 23
-0.03898146795051355 0.16944197249593423 -0.7247117181934067 68 41 24
-0.03688188277608151 0.17149589261140663 -0.7290479385732049 69 42 25
-0.032309994570202394 0.17606903119075412 -0.7346454190977151 66 39 22
-0.035040508026689315 0.17320018665096967 -0.7365560300510159 65 38 21
-0.030461128237817492 0.17778021739068034 -0.7421856498685784 64 37 20
-0.030625287801841095 0.17752640956861598 -0.7454061642641697 62 35 18
-0.03407180640975624 0.17392835703239318 -0.7469368241035635 59 31 17
-0.020143643324983862 0.18803181296775462 -0.75744134117121 59 31 17
0.0006327632742677558 0.20911001703913928 -0.7715712855901378 58 30 16
-0.02101560252394527 0.18696898041324111 -0.7636531609843167 58 31 15
-0.02194139115312374 0.1859386697932755 -0.7665011920217633 57 29 15
-0.022866281335358146 0.18490935256463858 -0.7693467069878446 57 29 15
-0.0234972053349079 0.18417951269546715 -0.7723447583258372 57 29 15
-0.024367870349565973 0.18320555790976348 -0.7752138020558239 57 29 14
-0.022543995755777146 0.18497568269028003 -0.7795182994247192 57 29 14
-0.012387281810874923 0.19523085550285424 -0.788299849085806 56 28 14
-0.0045758454956433825 0.20309669839826605 -0.7958676566106827 55 27 15
0.006898110350431114 0.21469062788569931 -0.8054541553885416 56 28 16
0.014653802159187601 0.2224974974472576 -0.813076423909703 57 29 15
0.025681036620149422 0.2336339738681915 -0.8225211135886128 57 30 13
-0.05385589968267815 0.15257567113270104 -0.7824046570586196 58 30 15
-0.05201506879335063 0.15436383954081523 -0.7866885718244062 57 29 15
