ply
format ascii 1.0
element vertex 693
property float x
property float y
property float z
property uchar diffuse_red
property uchar diffuse_green
property uchar diffuse_blue
end_header
0.033912752938489533 0.22863238964326466 -0.6536782977411266 92 54 23
0.03382933201351921 0.22838944516373247 -0.6570105816581204 89 50 21
0.033741381795245017 0.22908854541230167 -0.6600103421410994 85 46 19
0.033638772471507136 0.23291590533531892 -0.6618912507096167 84 44 18
0.03352877266353504 0.23839497253044045 -0.663167998178036 77 38 13
0.033444211175346315 0.2384400558479865 -0.6663892393083669 73 36 10
0.03335780503962685 0.23887980582397964 -0.6694691410474317 74 37 11
0.03327391744697536 0.23875937056624552 -0.6727534858301821 73 35 10
0.03318496089335105 0.23975907218139472 -0.6756302934425626 72 33 10
0.03309778813300766 0.24036450285265532 -0.6786505633348344 70 32 10
0.03299937885992561 0.24353345183365888 -0.6807241758519108 69 32 11
0.03291307781782759 0.24396546456816837 -0.6838042029331391 67 31 10
0.03282670342930388 0.24441184152328121 -0.6868793241496157 65 29 10
0.03273954116723812 0.24504101068264633 -0.6898864314563902 64 28 9
0.03264967988159376 0.2463126579921266 -0.6926517893515953 64 28 8
0.03256177655695018 0.24712916448404626 -0.6955866430923834 63 28 8
0.03247267465330936 0.2482417911820212 -0.6984083309486869 63 28 9
0.032391563961146945 0.2474067306695707 -0.7019702159723532 63 27 10
0.032315494468907455 0.2452916795084747 -0.706026626548027 62 26 10
0.03221547510524196 0.249119391566462 -0.7078079430529831 60 26 8
0.03214429044307954 0.24571346319940007 -0.7123707322897764 59 26 8
0.032058212778778974 0.24603424779202618 -0.7155019722954784 60 26 8
0.03197350459264337 0.24599453663256807 -0.7187744215304772 60 28 9
0.03188633774133184 0.2465853803069922 -0.7218023052821292 60 28 9
0.03176213954251782 0.25699770207628964 -0.7209723168150352 61 29 9
0.031669089598530833 0.25928445703071223 -0.7233144256377441 61 29 10
0.0316197806636569 0.24973455124137225 -0.7303400692243102 61 28 9
0.031521396237013666 0.25342752812683095 -0.7321310581957764 60 28 9
0.03143902247701014 0.2527428601467277 -0.7356605824180251 60 28 8
0.03130390946510574 0.2668824780106718 -0.7332460481991503 58 26 6
0.03122547874254226 0.265196974577697 -0.7371621969513823 59 26 7
0.0311561847681317 0.2608147985707665 -0.74217716381312 61 28 9
0.031062031200618224 0.2635786929901577 -0.7443051627980181 64 31 12
0.030980366519501295 0.2626980783399928 -0.7479127957218666 62 30 10
0.03089366574030428 0.2632918429941544 -0.7509212215500056 62 29 10
0.030804297547332313 0.2646984953269836 -0.753595088052967 61 28 9
0.030715709884361397 0.26588735437459626 -0.7563560637220134 62 30 10
0.030645502368967518 0.2613427080677743 -0.7614934216466973 67 35 15
0.030559174902739523 0.26176894094073266 -0.7645775696173246 65 32 13
0.030475179607092062 0.2614406765012621 -0.7679777581902383 66 33 14
0.03038994126226147 0.26149236551726485 -0.7712214264846893 67 35 16
0.03030702088471316 0.26076099330109226 -0.7747970338807795 61 30 12
0.030223694141340508 0.26012749056350815 -0.7783356318487948 56 25 9
0.03014770363289938 0.25695318650568 -0.7829583694391439 55 23 8
0.030034760389367584 0.2664727515370928 -0.7821762804280825 54 22 7
0.029328520849238378 0.27595681469068656 -0.8041840133902344 55 23 8
0.028693708789977963 0.2931915030332567 -0.819284322227455 57 25 10
0.028604765258413368 0.29516455172403544 -0.8216374468246517 57 25 10
0.02851704157936166 0.29662311328821706 -0.8242202951059353 57 23 8
0.02843442374164622 0.29566427088578134 -0.8279065583784612 59 23 7
0.02834431018132143 0.29832430212172534 -0.8299353291402082 63 28 9
0.028254891248553578 0.30073028637008425 -0.8320739927145805 63 28 8
0.028164988638044838 0.30347094691534804 -0.8340513281988323 62 27 8
0.02807597062777952 0.3058494151811545 -0.836189394448951 65 30 9
0.027994473857333727 0.304257914677762 -0.8401726908003798 68 30 9
0.027907622409215883 0.3055209014633721 -0.8428271861049416 74 32 10
0.02782135717420486 0.3064875618253459 -0.8456184607691555 76 34 10
0.027734899959601877 0.3075876200982121 -0.8483454009844978 83 38 11
0.027647612105655354 0.3092138524994016 -0.8508213976226738 84 40 12
0.027554192758057452 0.3146684262230355 -0.851474951724765 85 45 16
0.027469243189122708 0.3150485561507522 -0.8545309967010072 87 48 21
0.027385131636131634 0.31487292597197447 -0.8578536048823064 86 50 25
0.027303330837797474 0.31310297811776366 -0.8619444869713017 85 51 27
0.027220511727813698 0.31189150580231406 -0.8657742660423574 84 53 30
0.027141321306331137 0.30797365856073167 -0.870919477913554 82 53 31
0.02705923809684193 0.3058910995769516 -0.8751892303845963 81 52 34
0.02698148795184464 0.3003153791490325 -0.8811702868422734 77 50 31
0.026896488254701756 0.30003486694716797 -0.8845833571133374 75 48 29
0.02681456735362337 0.2971640865865132 -0.889270556599896 78 51 32
0.02672984979863525 0.2964117767345783 -0.892926393926056 76 49 32
0.026638064896615323 0.30182420030577706 -0.8935398740353038 73 46 29
0.026552154872461455 0.30221311072673834 -0.8966280617295159 72 44 30
0.026463119357613255 0.3056045820644101 -0.8982223011066354 70 42 28
0.026378448263961338 0.3048491044622571 -0.9018780579401584 68 40 26
0.026297235343419125 0.30030460231001804 -0.9074377263403961 67 40 24
0.026212831079043184 0.2987919660070279 -0.9114902221926164 68 41 24
0.02612763179553394 0.29798900304105486 -0.915191774808011 70 43 26
0.02603566372421794 0.30541737454532736 -0.9147286939469683 73 45 27
0.025950051741718824 0.3053233622813977 -0.9180650182838107 81 51 30
0.025864272102011043 0.3053798937519925 -0.921326858635764 88 58 32
0.02577836882892671 0.30555207471736284 -0.9245312813488883 92 63 36
0.02569251539054066 0.30558726321713847 -0.9278074261455307 89 60 33
0.025606621341501365 0.3056092693863969 -0.9310922152078377 89 57 29
0.025520297718568244 0.3063458468123597 -0.9340094025500794 80 45 19
0.0254343804952477 0.3062793896441899 -0.9373426309200994 67 34 13
0.02534872704936883 0.30548224557005466 -0.9410584865990913 56 28 10
0.025262841725116843 0.30495641921062433 -0.944637405951701 53 23 10
0.025176540473243837 0.3053383950374715 -0.9477443363936199 53 25 10
0.025089141115290536 0.30930403552558616 -0.9489671586627451 55 26 9
0.025002905005889916 0.3099479029221447 -0.9519308197462409 65 37 21
0.02491587582709733 0.3144128415757296 -0.9528710570516811 72 46 31
0.024829091205466673 0.3195870861086162 -0.9534206496458562 79 55 43
0.024743225920766363 0.32055500330530934 -0.9561958986380875 81 59 47
0.02465710185952178 0.32570158654890435 -0.9567350070977397 79 59 48
0.02457156542097717 0.3242534045157993 -0.9607963110694521 83 65 53
0.02448593714852677 0.32715848799164826 -0.9625212183857482 85 67 57
0.024400631905598737 0.3316207031419143 -0.9633967548614599 87 68 61
0.024315654684660227 0.33578617668516453 -0.9644192032488603 91 73 62
0.024230316059289398 0.3356146681661084 -0.9677866910940522 92 74 62
0.024145630145636886 0.3389234085915497 -0.9692584612207016 91 73 62
0.024060555577070424 0.3396884557042935 -0.9721124070734221 87 69 59
0.023976347704907672 0.34327943799674043 -0.973414122281594 89 71 61
0.02389224106510078 0.34634744621684754 -0.9749930556806937 91 73 63
0.02380809912489934 0.348729917184164 -0.9769418266458281 93 75 65
0.02372318717097592 0.34897148085990387 -0.9800709086227557 89 71 61
0.023639895154543063 0.35260709700703785 -0.9813134821279252 96 78 68
0.02355633170587019 0.3551931233968153 -0.9831306376030764 95 77 67
0.023472494232493264 0.3569781149990763 -0.9853888739079282 101 83 73
0.02338850999438672 0.35834435669202036 -0.987877825073307 96 76 67
0.023306054467789467 0.3618711503920585 -0.9891467871508671 88 66 57
0.023222233495873285 0.36311200625611845 -0.9916968682172015 84 58 46
0.02313797055932168 0.3636911308269593 -0.9946195987143294 83 48 27
0.02305469779765252 0.3654854558424069 -0.9968511445600826 83 43 16
0.02297052664003983 0.3660984813571528 -0.9997521305003797 82 40 14
0.02288731696946974 0.3677659778356831 -1.002049426440904 82 38 12
0.022803366849608948 0.36854630741346583 -1.0048520014311402 82 38 10
0.022720534803943666 0.37042318435678484 -1.0070222601368588 82 38 9
0.02263764993613926 0.3721304510069243 -1.0092857132900586 81 37 8
0.022552287039216964 0.3714720537913323 -1.0129158399423264 83 39 10
0.02247639322580238 0.3792156041158532 -1.011666416730775 86 42 13
0.022392237777244247 0.37943229931481076 -1.0147798310373788 88 44 15
0.022302397944447487 0.3750692111609623 -1.0205730889958993 88 44 15
0.022219085614616028 0.3761600613928747 -1.0231842777966653 89 46 14
0.022138755895990722 0.37945733807671217 -1.0244950188253086 90 47 13
0.022055168821859053 0.38019838437788045 -1.0273047752350886 90 50 15
0.021968610933282878 0.3788384046667205 -1.0313578729269437 94 55 22
0.021878832014274964 0.37540933553882483 -1.0366467489809024 97 61 29
0.021798395316514268 0.378385475815476 -1.0381342097196207 100 65 36
0.021712157755457682 0.377506712289688 -1.0419163549908323 101 67 38
0.021626191779210678 0.3768800112418349 -1.0455525908666239 103 70 41
0.021544162240165924 0.3786932550340938 -1.0477262527495295 106 72 44
0.021460630745812694 0.3795559495373846 -1.0504684889495375 110 76 49
0.021376637949993324 0.3801384976481228 -1.0533790112478694 107 75 47
0.02128167252185412 0.37462578626373694 -1.059986923116119 104 73 45
0.021199161662537144 0.37616276119851233 -1.0623275552084046 101 70 42
0.021115993628740306 0.37730359312564327 -1.064906340288362 100 70 43
0.021033966839360627 0.37900285522058674 -1.067141162875694 99 70 44
0.02094398505892223 0.3766505974252311 -1.07185902851949 93 65 42
0.020870072026363325 0.38231834596607384 -1.0716493458720855 84 55 38
0.020787103581931893 0.38341059717089987 -1.074246583299103 72 46 33
0.020702497076593114 0.38371057323680724 -1.0773325449348754 61 41 33
0.020621390062586686 0.3856261609392923 -1.079415789447584 35 19 17
0.020539895171860813 0.38730917916850705 -1.0816389289708581 28 14 9
0.020450550894055012 0.3854955919633911 -1.0860427867142826 35 15 10
0.020356116583140595 0.38158814631909976 -1.0917674688122638 46 19 11
0.02025943850831602 0.3769136359935187 -1.0979905711697293 52 21 10
0.020163526903163573 0.37276207840745745 -1.1039031643587824 59 25 9
0.020089029537356914 0.37747397197286814 -1.1042296895077177 70 31 13
0.0200056556824138 0.37849754937674956 -1.1068793994243038 75 34 14
0.019925988032125492 0.3809498999323747 -1.1086188859976622 80 39 17
0.01984492744953073 0.38279883539964354 -1.110736174675331 85 49 23
0.01976386076003319 0.38459865403793414 -1.1128800984947629 91 55 30
0.01967892454211595 0.3849241400019896 -1.115965002703877 91 57 32
0.01959401772413047 0.3852680613695918 -1.1190388693390678 93 58 36
0.019507326566017766 0.3849821259128655 -1.1225197730112075 95 64 37
0.019416700827952257 0.38334362910980885 -1.12687870051732 96 66 38
0.019319843882887256 0.37962729141825347 -1.1325936411003767 97 67 39
0.01924729993648554 0.38430344731979293 -1.1328644032531492 103 73 45
0.01915363997459115 0.38179413206822643 -1.1378078575349515 105 74 46
0.01906686205453872 0.38164388617202194 -1.1412191567165704 98 69 44
0.018976557700304812 0.380374288115187 -1.1453674629429844 92 67 49
0.018885347278244428 0.3788718530630955 -1.1496756961742742 67 49 34
0.01882613138710192 0.38747211803183434 -1.1473256813357673 69 57 42
0.018747645902232227 0.3898753399784033 -1.1490462034359876 102 93 80
0.01865640551631454 0.38833893266925756 -1.1533738470898995 145 139 132
0.018564441543710324 0.38664576348864804 -1.157813523017949 170 166 163
0.056356566045596614 0.22428336545393238 0.0941349001644861 137 106 85
0.0562437180756657 0.22673376317092603 0.09123034272160786 131 100 79
0.05621079772786336 0.22426931395929717 0.08847142444086123 124 93 72
0.05616656542398747 0.22248947165337618 0.08568529289310577 114 85 63
0.05599141551012074 0.22880106702055483 0.08268535596017665 104 74 54
0.055869571342743105 0.23183291032601752 0.07978139699958875 88 52 33
0.055793037886226506 0.23205918580756918 0.07694836174975261 82 44 24
0.05573099699086663 0.23138085047774248 0.07413364961120571 71 33 14
0.05560039615895717 0.2349796062453976 0.07123084346965425 67 28 10
0.055445165491011 0.24013497146889254 0.06830846607568788 63 25 9
0.055436109366427774 0.23613797297635705 0.06555388391459885 55 20 6
0.0552925287622802 0.2405825443288074 0.0626560912576054 54 21 6
0.055231246704421325 0.23985598644017428 0.05984182342281841 57 22 6
0.05522712149376798 0.23551060457645817 0.057069063667000944 69 32 12
0.0551696711555808 0.23452066415386716 0.05424508339373971 99 67 46
0.054988206024484225 0.2413998698587624 0.05134143391739664 109 76 56
0.054821914382376796 0.24734354066942593 0.048463930338936714 105 66 47
0.05477668067997651 0.24558765620259507 0.045653354909706546 114 75 56
0.05462744621643425 0.2504738508714949 0.042801755317120674 132 101 86
0.054482599064597 0.2550998105373011 0.03996388976852344 148 120 107
0.05438360484548306 0.25679815216148993 0.03714459876338207 133 106 90
0.05364783904516919 0.2763601841138712 0.020362796221784073 91 52 27
0.05352060945823025 0.2799689659594587 0.017596804585366187 78 36 11
0.053430886201837634 0.28113423278105043 0.0148166581487581 69 30 7
0.053326093462564284 0.2832931296756637 0.012049331259500737 65 28 10
0.05324478907377039 0.283912653230294 0.009267655584021248 65 28 9
0.053159303772171144 0.28480884284394664 0.0064901324425069365 65 28 9
0.05317219884620315 0.2791922921426038 0.0036133595610375463 65 28 9
0.05308321590514472 0.2803080393544417 0.00083215899703281 64 29 9
0.05296952202678454 0.28307142495656945 -0.001917026647661163 63 29 9
0.05290679857167328 0.28244528673620806 -0.004726834167232012 60 27 10
0.0527687977079585 0.2868488862929608 -0.007432797778200093 59 29 13
0.05278686607945682 0.28080561331314635 -0.010365447478506581 54 26 12
0.052744002995219086 0.2788255057028842 -0.013218873079174617 52 26 12
0.052680156508133465 0.2782470142478725 -0.01604359989426892 56 30 17
0.05264819418743873 0.2755079927321798 -0.018930442446927022 57 32 20
0.05253099869759634 0.27852738046142705 -0.021661546806566824 55 31 21
0.05247920239762423 0.27711685989832524 -0.02451906069275909 52 31 20
0.05237096543961814 0.2795405449085292 -0.027260797064058144 46 28 19
0.05231534786672093 0.27838079957490475 -0.03011577355852508 37 20 13
0.05178722883665645 0.2539318839964109 -0.06530421716487664 9 5 4
0.051649068329080686 0.25846038885901745 -0.06794127297580069 10 5 6
0.05131911458220808 0.27139593299065917 -0.07296402128485333 37 24 17
0.05133218587632335 0.26522050689404053 -0.07616998969755417 67 50 41
0.05129267847448946 0.2627665067686248 -0.07917816759751217 65 47 36
0.051236658240871695 0.261479624551905 -0.08212520805489323 46 22 11
0.05091851204022033 0.2790241882819253 -0.0839186472842652 47 19 8
0.05086220913673629 0.2777899558909894 -0.08684499734274544 48 20 9
0.05090708926691182 0.26923216104914355 -0.09024938762582604 50 20 9
0.05085057178179924 0.26797315488389717 -0.0931989578883668 53 24 11
0.05066745675583782 0.2759063651151592 -0.09553287893354959 79 52 36
0.05066955913203432 0.2703800586659076 -0.09877408980494959 65 36 25
0.0505403063986841 0.2744216837034807 -0.10135831540933524 69 36 22
0.050324466563796036 0.28483099455082767 -0.10347299176251885 69 33 19
0.05010321813462132 0.29569439974393835 -0.10552446169674293 76 36 21
0.04996158480447972 0.30074706210763064 -0.10798108706634824 87 45 28
0.049815957981658734 0.306121076809152 -0.11039942073657379 89 51 32
0.04966585530171886 0.3118550178589363 -0.11277498267215136 103 68 52
0.049552438499339366 0.3148908323617426 -0.1153496174374985 140 112 100
0.04947548736593763 0.3152214472934195 -0.11813612069992802 144 115 104
0.049398523543725106 0.31555192666008264 -0.12092319773042691 139 107 89
0.049344882287335974 0.31413159561824683 -0.12385818469925941 110 71 44
0.0491238613617094 0.32529403022868847 -0.1257210329522388 89 45 12
0.0490572069014171 0.32486998656432653 -0.12856183006143218 84 40 11
0.048890600703030904 0.3320055257522356 -0.13073490861414158 76 34 10
0.04881197827145856 0.3325012973741904 -0.13348694640923026 75 35 10
0.04886246029469443 0.32316714328576845 -0.13714081059557218 72 34 13
0.04878055051246904 0.32388437620982297 -0.13988722310847185 68 33 11
0.048694373791664414 0.32492964630880844 -0.14260193279773092 65 33 16
0.04882630133069439 0.3092220957490034 -0.1469282457382878 65 39 28
0.04852399085686292 0.3268779448337664 -0.148040431971147 64 44 31
0.048462282927058516 0.32604119285255345 -0.15093747714148625 65 47 35
0.04833821172697028 0.3300310238236531 -0.1533518290442563 66 48 36
0.048427369714029 0.3174606752054241 -0.15745108257742785 66 48 36
0.04836798438308042 0.31639674119331646 -0.16039461988407638 66 48 36
0.04831945553575002 0.314473648154442 -0.16343356579634533 66 48 36
0.048258718298684986 0.31349363232849337 -0.16637909276785615 64 46 34
0.0482169686399317 0.31100950724967025 -0.16949237124602848 64 46 34
0.04815003399691642 0.3104955845398955 -0.17239807901594256 64 46 34
0.048104249903218356 0.30829971239704845 -0.17549455562911417 63 45 33
0.04804780291586784 0.3069341538108204 -0.178505457143325 63 45 33
0.04799226169715081 0.30548452505456675 -0.18153176811102079 63 45 33
0.0479236308649174 0.30506918962206175 -0.184444001875816 64 46 34
0.047853651816849904 0.3047560667671925 -0.1873470823746068 63 44 33
0.047819944579511775 0.3015186390879619 -0.1906012922341308 64 44 33
0.047759017889145654 0.3004546965154007 -0.19360463114673201 63 43 33
0.04770775055395565 0.29859825996981637 -0.19670973748381843 61 41 32
0.04766351658302389 0.2961550411625526 -0.19989479843050106 60 40 31
0.047619727797926906 0.293656371134857 -0.2030959294093047 59 39 30
0.04664621142643862 0.26776651798456114 -0.2564297799277804 57 34 24
0.04657054766308693 0.2677085459934232 -0.25939998366682754 58 34 24
0.0465124536263091 0.26612013816262725 -0.26260877317888826 59 35 24
0.046458045369126705 0.26419558709209234 -0.2658766852476049 62 36 23
0.0463648998336472 0.26564250929503175 -0.26862024833819703 62 36 21
0.04619828790502853 0.2735452772857575 -0.27033224176711196 63 35 21
0.046169141774623175 0.26938963941181304 -0.2739615923726031 63 35 21
0.04596223378488893 0.28091673555504343 -0.27505767655956165 62 35 18
0.045950663268943266 0.27519071563751313 -0.2789494027532222 61 34 17
0.04593417085884439 0.26985816218079595 -0.28279549457293396 61 34 17
0.0458913563529019 0.2668356622812827 -0.28627378905308726 59 31 16
0.04585910898590495 0.2628397593691335 -0.2899274080071898 55 27 13
0.04581225667001329 0.26012559734863155 -0.2933769551915694 54 26 13
0.04566826819899397 0.26616281339575076 -0.2953329702086831 60 33 16
0.04559178873412962 0.26611930482911295 -0.298326122437717 61 34 16
0.04549724690585905 0.26771520243632047 -0.3010342805632 55 28 15
0.04541049981886265 0.26860694860184353 -0.30386342588212756 67 48 40
0.04526782085808973 0.2746287799521726 -0.30577788921346716 63 48 41
0.04510952251296932 0.28212856584880197 -0.307409659116179 57 34 23
0.04523545800515119 0.26342915860682375 -0.3137673284081588 53 21 10
0.04510932622444656 0.26795315444065626 -0.31594044540328303 57 24 8
0.04495605908355462 0.275032157792105 -0.3176300332279097 64 31 8
0.04486289013504471 0.276547162931368 -0.32033356876700747 69 34 12
0.04467978320642825 0.28650210356039946 -0.3214515810054772 69 37 13
0.044578735040264196 0.2888057687415494 -0.3239865945610889 75 43 21
0.044621196050270796 0.27025990201355615 -0.3334903065349657 58 31 14
0.044601220737800956 0.26479636211368357 -0.337550273737578 29 12 3
0.04456203590593445 0.2611222006523515 -0.3412795773262921 31 13 5
0.04451518522794172 0.25815069824310144 -0.3448837906036334 61 37 25
0.04448602208569681 0.2534479091459358 -0.34884278377192657 51 24 13
0.044414619447590876 0.2527885794543416 -0.35200925378394 48 24 14
0.04437380788334036 0.24914974771386378 -0.3557804233374485 41 19 11
0.04427906455225589 0.2507345252907617 -0.35850308476803094 38 18 11
0.044150897667492923 0.2555984326381249 -0.3605507761407241 34 17 11
0.04407129724941159 0.25572514585615047 -0.363562656263353 21 9 7
0.04397271997224226 0.2577205217778209 -0.36618717599060735 21 8 6
0.043877930134611685 0.25935248812159983 -0.3688832686958443 35 20 16
0.04379485040504928 0.25982872212052455 -0.3718199729686684 40 21 15
0.04370566526558276 0.2609140540949126 -0.37462730534574634 39 15 9
0.04360183502063187 0.2634722046286813 -0.37711723559865246 38 15 11
0.043547476438398736 0.26106625477427226 -0.38067266853512777 38 18 12
0.04344795881734338 0.26320120797558566 -0.3832497456894985 41 19 11
0.04335061970527677 0.26512823450169903 -0.3858673273309752 43 19 9
0.04323136693555663 0.2693006654577015 -0.38798495915526293 62 38 28
0.04310023193575327 0.27471990437996846 -0.38981389628478647 57 30 19
0.04297289957593989 0.27978937367206114 -0.3917056154804532 54 24 12
0.04285071636705411 0.28436565546941034 -0.39369411142444405 50 22 11
0.042740027372121535 0.2877846647814882 -0.3959325204987335 50 20 10
0.04265940982022211 0.28809735962640987 -0.3988720357993589 58 25 12
0.04254427283768757 0.2920176454166548 -0.4009816031394333 62 25 9
0.042446033788092856 0.29419258834606 -0.40348503419188814 65 30 13
0.04234149996900484 0.2970456822434472 -0.4058249203711003 89 61 49
0.04226262427228908 0.2972009394415968 -0.4087915227196155 96 77 66
0.04217677194192028 0.2980951541979403 -0.41158447201574505 91 64 50
0.04207886675751478 0.3002805745260451 -0.4140686512060948 71 35 14
0.04197927793970658 0.30266132625104925 -0.4165007004905526 70 32 11
0.041873469253548484 0.30572911915740486 -0.4187609537705766 67 29 8
0.04178176386314579 0.3072921793513935 -0.4213788173259708 68 30 9
0.04165677387677106 0.3124854404643814 -0.42310523340048345 74 37 15
0.041551002764746846 0.31562059261413067 -0.42532352828576603 78 43 21
0.04143700979422472 0.3196819490715506 -0.4273038933289839 86 51 29
0.04140978923575809 0.31420653297912876 -0.43165207785762694 87 55 34
0.04137863327358776 0.30911195336712094 -0.43592395144495655 83 55 33
0.04153282004743572 0.28333785253853916 -0.4454393848405978 84 56 34
0.04145222384386095 0.2835709198426117 -0.44842594915281986 76 44 23
0.04170629272208951 0.23716272136083794 -0.4664730438419398 77 47 28
0.04165375957534207 0.23398414302063686 -0.47042221375891946 69 42 25
0.04157950453159012 0.23324490021985342 -0.4737473906890245 59 32 18
0.04149631451007752 0.23351609665753148 -0.47681165549890653 48 23 12
0.04141512497325176 0.23355446396382057 -0.4799383041440616 38 14 4
0.04134546441087022 0.23225542000856475 -0.4834218284467122 49 25 13
0.041261717244307716 0.2325742907335807 -0.48647904263373465 54 28 15
0.0411949311249456 0.23091155893991328 -0.49006972657909875 54 28 14
0.041097851146982556 0.23277954640385373 -0.4927127533014231 57 31 15
0.04104260201460348 0.2297309383628969 -0.4966891423352318 53 27 13
0.04093274075728201 0.2331141435690101 -0.498916967377334 48 22 9
0.04085201477325969 0.23305790460789078 -0.5020825160538692 50 24 11
0.04077636686843224 0.2323881261761619 -0.5054199620478721 51 25 12
0.04069955356043091 0.23184608586933447 -0.5087258150226134 50 24 9
0.04062183588819717 0.23140217250536152 -0.5120077522224742 50 24 9
0.040541188944287564 0.23130376704778613 -0.5151955877840672 50 24 9
0.04046097253230592 0.23114608029028222 -0.5184023647613352 53 27 12
0.040336469499228186 0.23641424613665574 -0.5200648521103922 51 25 10
0.04027421890314538 0.2340542725099078 -0.5238988088832175 51 25 10
0.04021141632225854 0.23173234426900352 -0.5277313043598202 53 27 12
0.04014055342723575 0.2303846369786119 -0.5312907322398802 53 25 11
0.04007063044092661 0.22889909984674933 -0.5348965689026717 53 25 11
0.039988915992829936 0.22887676611463872 -0.5380800786613452 52 24 10
0.039912998567064824 0.22811431335690638 -0.5414837023990445 50 22 9
0.039780154612856194 0.23458314317662954 -0.5427478560483499 51 22 10
0.03970008226585523 0.23436280409146948 -0.5459867146979941 52 23 9
0.03961994416893619 0.23414245640364056 -0.5492281292634583 57 28 14
0.039541208217929974 0.2337322059914534 -0.552529329868145 63 32 13
0.03941094977410009 0.24001281533894292 -0.5538063498988658 69 38 18
0.039361007597548736 0.23585218420410825 -0.5582454775630378 69 36 17
0.039271996053693775 0.23677730086719334 -0.5611424071392557 69 36 17
0.03918658770169901 0.23722996860971862 -0.5641836189963494 70 38 17
0.03910799865507357 0.2367744934901542 -0.5675063125109344 69 37 16
0.03903264575301918 0.23587468920793597 -0.5709706203563485 66 34 13
0.03895656656639658 0.23505593432528935 -0.5744143720134455 67 35 12
0.03886098142483305 0.2368601185146369 -0.5770377697625236 70 38 15
0.0387958422142768 0.2345361565765267 -0.580962136698171 69 37 14
0.03868750915881138 0.23808977329667463 -0.5830282133339513 68 36 13
0.03860049082212086 0.2387443809951218 -0.5860104646194741 68 36 13
0.03853855624382504 0.2359270096211144 -0.5901071786190841 68 33 11
0.038458005625133226 0.23566245807196287 -0.5933911750231878 71 36 14
0.03837405312941641 0.23586468484025486 -0.59652648874533 73 38 16
0.038279726380614935 0.23752482474938835 -0.5991876763295425 76 41 17
0.038206672241946966 0.23618177102747928 -0.602829314657204 84 48 22
0.038137376838018155 0.234279334979012 -0.6066614710072767 85 48 21
0.038063900231170025 0.23294687916224313 -0.6103131266851788 85 48 21
0.03798964708661099 0.23170321410987083 -0.6139415211188487 86 49 22
0.03790478190622664 0.23197919740847694 -0.6170678949176482 86 49 22
0.03781329483052919 0.23321983003153 -0.6198711532814554 86 49 22
0.0377289545615904 0.23341738184801564 -0.6230243214023523 88 51 24
0.03763906363144215 0.23443217614101464 -0.6259014464656749 89 52 24
0.037549041564923204 0.2354722476868898 -0.6287684606009067 89 52 23
0.03746239546843139 0.23601212566817115 -0.6318052538714892 88 52 20
0.03738610916052465 0.2349879815303923 -0.6353805339842749 88 52 20
0.03732365273157072 0.23184209182744991 -0.6396950193856054 90 54 22
0.03725205253129062 0.2300457988769482 -0.6435527693687865 91 53 21
0.03717546577240384 0.22898588131353687 -0.6471612146544418 92 52 22
0.037086437463395745 0.22983216346492236 -0.6501061950200339 90 49 19
0.037006600014702844 0.22924850875008018 -0.6535543896607761 85 45 15
0.036915581704101336 0.23040518693836387 -0.6563899412784395 84 45 16
0.036827488780964084 0.23110734445336556 -0.6593852907253295 83 43 16
0.03669243909302614 0.23928649484640707 -0.6597066599774608 80 40 15
0.03661393294565097 0.2385072919562165 -0.6632207834559907 77 38 13
0.036534240421469286 0.2379008872414845 -0.6666770345716497 72 34 11
0.03645149508631672 0.2377742563094143 -0.6699632474074533 71 33 10
0.03636984468921775 0.23745862994131248 -0.6733206187755864 69 31 8
0.036290337950190654 0.23677708934802066 -0.6768148389608897 68 30 8
0.036174908328573875 0.24204186326787053 -0.6781273661700081 67 30 9
0.03611460165689076 0.23815645540644903 -0.682803098546491 67 30 11
0.03598157668934266 0.24645524804308366 -0.6829739829014516 63 27 8
0.035895399442880616 0.2469183675469232 -0.6860387394573855 62 26 9
0.0358077502650795 0.2476315964035709 -0.6890102171664032 63 27 10
0.03571986839254737 0.2483871186163756 -0.6919652926872548 62 26 9
0.03563587160826254 0.24847143615955064 -0.6951732191964842 60 26 9
0.03554940230891568 0.24898072422228734 -0.6982215463197474 59 26 9
0.03546305659531191 0.24946740104390996 -0.7012786743166874 59 26 9
0.03540320061561867 0.24525063995516877 -0.7061361531923612 59 26 9
0.03528439600539116 0.251504963712181 -0.706984630648427 58 26 9
0.03520536280262957 0.25067794021294937 -0.7105479538759891 58 27 9
0.035131384306425734 0.24891041515365664 -0.7144806718438843 59 27 9
0.035050491276086934 0.2483722239891485 -0.717942481759664 57 25 8
0.03495044723674668 0.25135226482198214 -0.7200318599393529 56 25 7
0.034860440180958324 0.25250323946720327 -0.7228316096447462 58 27 9
0.03483351611610335 0.24182598102237074 -0.7302959748444514 60 29 11
0.03474326704260512 0.24294450956304714 -0.733124622225998 59 28 11
0.0346661469572405 0.2415674882486245 -0.7369444209332414 59 27 11
0.03455378921398672 0.24693680820885944 -0.738074915956234 58 27 10
0.03439032232397573 0.2623031679738051 -0.7351773061795139 58 26 10
0.034276057738324234 0.2682952823454681 -0.736007312279117 58 25 9
0.034245566903256544 0.2578477354168664 -0.7434719316126552 59 26 10
0.03414763272718145 0.2606347980116426 -0.7455954894002146 61 28 12
0.034068874320652046 0.25960993723743864 -0.7492671045372696 61 29 13
0.03396217033804509 0.26421891637745387 -0.7506354299692453 60 28 12
0.03387464630101037 0.2649795262929889 -0.7535735643416378 59 27 11
0.03383988431448266 0.2548602620103031 -0.7610064966956774 58 26 9
0.03374477016760931 0.25710865745772876 -0.7633445339324765 59 26 9
0.03364322901924487 0.2607382686113928 -0.7651014283334586 59 26 9
0.03355886142670412 0.26078356294561483 -0.768347203478886 61 28 11
0.03346575116302349 0.2626902872137729 -0.7708129355643554 61 30 12
0.03338431149629023 0.26210091355209447 -0.774326726250922 58 26 10
0.03330642928895379 0.26071336465902134 -0.7781824210524945 57 25 10
0.033236351130298616 0.25756905974992533 -0.7827916357105995 55 23 10
0.03313452440849154 0.26141337011489596 -0.7844305178165588 54 22 7
0.03301943773674981 0.26830101666653844 -0.784753964747657 55 23 8
0.032854523605032465 0.2675051398498408 -0.7916302789180739 56 24 9
0.032383468442920296 0.2793427598082493 -0.8027871463647038 55 23 8
0.03229682867972034 0.27997985852422014 -0.8057652385632694 55 23 8
0.03189427474428526 0.2968265563681658 -0.8112528460835768 55 23 8
0.03179639819172418 0.3005349426786732 -0.8128202091651247 54 22 7
0.03173324076057446 0.2952561389592323 -0.8184443351167674 55 23 8
0.03164613686965633 0.2961627446725392 -0.8212783879913863 58 25 10
0.03155505570805793 0.29814023365661113 -0.8236228535147666 60 25 10
0.03146986098770845 0.2985603273499285 -0.8266753632312435 64 28 11
0.031372151666232063 0.3024020700977062 -0.8281560561570521 65 30 10
0.03127844757433666 0.30521527259705744 -0.8300997924238183 65 30 10
0.031208668322511332 0.3013733614012466 -0.8351168569840591 66 31 9
0.031108500045645086 0.3060530225318039 -0.8361891335998989 68 32 10
0.03100357957864829 0.3122060495712851 -0.8365598870595723 71 33 10
0.030940335965553865 0.3063566650909833 -0.84253042635096 75 34 11
0.030858292181562167 0.3058905073979637 -0.845993568154206 77 36 9
0.030742668849228688 0.31544707818276874 -0.8447331052939288 82 37 8
0.03067637911975477 0.3102824154387107 -0.8504101186668787 85 41 10
0.030576806540924442 0.3151959058404866 -0.8513186921666583 84 44 14
0.03049170174784939 0.3157196551187353 -0.8543053887671314 86 48 21
0.03040825109199919 0.31571940612154914 -0.857542975285941 84 48 25
0.030328401224554567 0.3145480081710428 -0.8613450408375627 79 45 23
0.030248559323018256 0.3133235659409812 -0.8651786909958507 82 50 28
0.030175827916952242 0.30969744716183645 -0.8701805349546042 82 52 31
0.030097720007272177 0.30774807549953354 -0.8743827898680492 82 53 34
0.030023009749061608 0.3045651976081831 -0.879194897650206 79 51 32
0.029950557785034002 0.30048508102418703 -0.8844588735135546 77 50 31
0.029868546312188375 0.29961570868383036 -0.8881632004626923 79 52 33
0.029789843733253947 0.29751951340411864 -0.8924768051719403 78 51 33
0.029704830099467377 0.29762549042231073 -0.8957111569021742 74 47 31
0.029611274164190272 0.3008662489460569 -0.8973920712386264 69 41 27
0.029530416930841984 0.2994358939646586 -0.9013889188357131 69 41 27
0.029431654219856284 0.3047669675297494 -0.9020149958941576 69 41 27
0.02935287548845062 0.30250880078709624 -0.9064289425970795 66 39 23
0.029270936094986506 0.3013986399327452 -0.9102752508340155 67 40 23
0.02918897855560459 0.30023495036704534 -0.9141544479477206 71 44 27
0.02910339836577749 0.30049159476427595 -0.9173201880633672 75 47 29
0.02902094835942566 0.2994298959946313 -0.9211571668051394 83 53 31
0.0289356317820752 0.299525412617325 -0.924409560581233 91 61 35
0.028848946698044352 0.30019638975087215 -0.927369041095311 95 67 41
0.028755840935735386 0.30371379444746816 -0.9288661536239419 97 68 43
0.02866980133502378 0.3041605354881584 -0.9319354180528634 93 62 36
0.028583232722018244 0.3048464567256505 -0.9348813947584571 79 47 24
0.02849667514539498 0.3055325242733389 -0.9378268553406275 62 30 13
0.02841184794058162 0.3053910811475754 -0.9412027395727904 50 22 8
0.02833030645977404 0.3036009885933112 -0.9454424297168386 49 21 10
0.028242006493866115 0.3051057038419995 -0.9479632618529392 50 23 10
0.028149387837484306 0.30888010578055414 -0.9492869539776805 53 26 10
0.02806394843836851 0.3090206905095403 -0.9525170147265376 62 34 18
0.02796994627677244 0.3137706019635479 -0.9533078401956214 72 47 31
0.02787548549122911 0.3189869072981553 -0.9538360317348491 78 54 42
0.027791530255030495 0.318469500924538 -0.9574041416187261 82 60 48
0.027697932847524063 0.3235257941616074 -0.9579950483221299 81 63 51
0.02761318587129043 0.32351838225893687 -0.9612872319032644 84 67 55
0.027523997200766415 0.32621957168108284 -0.9631231435807502 85 68 58
0.027434683547327046 0.3291248207026081 -0.964841210134826 86 68 60
0.02734286655838298 0.33380796639172416 -0.9655874065355868 86 68 57
0.027254317769886564 0.33654294011050834 -0.9673781809329898 90 72 60
0.02716617062223691 0.3391376961079722 -0.9692376817598954 92 74 63
0.027080819380467365 0.3398577898704695 -0.9721158842808489 88 70 60
0.026992393499787867 0.3428743728450866 -0.9737325688733772 96 78 68
0.026905342846277353 0.345006983036209 -0.9758274034798118 97 79 69
0.026817365777809736 0.34799458744927003 -0.9774441003510922 98 80 70
0.02673152591061735 0.3493979287366653 -0.9799304464448026 98 80 70
0.026643516299925975 0.3527369562380001 -0.9813371075595135 99 81 71
0.026557122141812644 0.35485799191444245 -0.9834134330184733 100 82 72
0.02647018596398828 0.3576214059474423 -0.9851245466407055 96 78 68
0.026384128012102184 0.3597260804455571 -0.9871976665008906 96 76 67
0.026299294267377062 0.360724672393774 -0.9898883418522538 88 66 58
0.026216299599761326 0.35979201813801176 -0.9936688606405559 83 57 45
0.026130635252640505 0.3617227253830954 -0.9958313110815852 84 49 30
0.02604479823255139 0.3640118730685611 -0.9977849428010169 79 39 14
0.025960017584672757 0.3651706237181891 -1.0003772605421124 76 34 9
0.02587534523641732 0.3662599761765828 -1.0030071035073207 76 32 7
0.02579076856100912 0.3672842650343455 -1.0056723553123081 78 34 8
0.02570456274658399 0.3708710735585419 -1.0068600569018362 80 36 8
0.025620180827720475 0.37191601262345586 -1.009505336963892 82 38 9
0.025536084113272812 0.3725343939949295 -1.012396026617 85 41 12
0.025448664448255172 0.3796339050026525 -1.0115187558568561 87 43 14
0.025364644437380002 0.3807613222857319 -1.0141004046117954 89 45 16
0.025282743250842454 0.376981880218628 -1.019550174601714 91 47 18
0.025198687514421253 0.377884475330057 -1.022268386901564 92 49 16
0.025114660355357747 0.3788012776318626 -1.0249769482746593 92 49 15
0.025030208567108504 0.38135183192523114 -1.026719665938112 94 54 19
0.024947116484219795 0.3789004752932471 -1.0314171057075083 98 59 27
0.02486295809249187 0.38063820593957126 -1.033637163149515 100 64 34
0.024779094470132414 0.381075813079772 -1.0366275032066237 102 68 40
0.024695635649337883 0.37712058994830533 -1.0422433919416654 104 70 42
0.024611536066256472 0.377778897890534 -1.0451101864535977 107 73 46
0.024527447550203876 0.3777639331037701 -1.048381366600589 111 77 49
0.02444333251216522 0.3783172288886364 -1.0513119007618061 110 76 49
0.024359145444354267 0.3780866825477766 -1.0547165257178903 107 75 48
0.02427474146226644 0.3768233210636377 -1.0587505608402576 103 72 44
0.024190266978876204 0.376092414547574 -1.062467184775436 101 70 42
0.02410658736054829 0.3792832347112498 -1.06379497727262 101 70 44
0.024023204765870696 0.3826488740686813 -1.0650061342776453 99 70 46
0.023938883807199565 0.38233720178020336 -1.0684647316298763 92 64 42
0.02385580902902975 0.38557184752813 -1.0697427088135651 85 56 41
0.023771211500752284 0.3845907355986388 -1.0736145458562822 71 45 33
0.02368606620345714 0.38274655140590047 -1.07802656808627 59 39 32
0.023602746696988187 0.3848824858328014 -1.0799746555017216 36 21 18
0.023518056895832803 0.3843156641878743 -1.0836009742041401 28 14 9
0.023432565034372216 0.38260512440406524 -1.0879460856247356 35 15 9
0.02334584780531132 0.3793527953268088 -1.0932657578559566 45 19 10
0.023258917283542683 0.3763069537439949 -1.098469551101889 54 23 11
0.02317339258816181 0.3755848390849531 -1.1022216313849034 61 28 11
0.02308924506624604 0.3767383823508127 -1.104792518257291 71 32 14
0.02300437089553962 0.3769651389233183 -1.1079488391140502 78 36 17
0.022921447367887267 0.37941078333664485 -1.1096953470667787 83 42 20
0.02283670457755161 0.3797306763643358 -1.1127905714293145 88 51 25
0.022754498266017928 0.3826409566222224 -1.1142298862237172 92 57 31
0.022670200832000158 0.38331461702719644 -1.1170951253978025 92 58 33
0.02258730979418578 0.38527668460708586 -1.1191311304920533 93 59 36
0.022501647911565267 0.3846676621574696 -1.1228205345741087 94 63 36
0.022415698718261677 0.38390796379542436 -1.1266116808399556 98 68 40
0.02232962378926199 0.3831471203655468 -1.1304083934634535 101 71 43
0.022243422849161414 0.38238513365870097 -1.1342106820520441 105 76 47
0.022160135954801458 0.383925399367793 -1.136515658733959 104 74 45
0.02207282895615819 0.3824570601517676 -1.1407855611207565 98 68 43
0.021984309668403267 0.380267902922524 -1.1455358960744686 90 65 47
0.021894938617978105 0.37767495567286513 -1.150562059436646 66 49 35
0.02180566272984552 0.37534351702620405 -1.155427295179674 67 56 40
0.021746187043940195 0.39231342425955984 -1.147531229621269 100 93 79
0.02165323461490611 0.38746170868422625 -1.1540544483788913 144 139 131
0.02156104019631507 0.38338032437880576 -1.160085087577215 170 166 163
0.05943099871202438 0.21835230605396247 0.09708170538098228 139 109 84
0.059282546895406636 0.22262838805932578 0.09410931855513395 144 110 87
0.059228696837417986 0.22159191382328958 0.09130669340769265 133 100 77
0.059159136163813186 0.22143559162912685 0.08847446970767525 123 93 69
0.05910583205033054 0.22035695356724597 0.08566515704677935 112 84 61
0.058997878479853716 0.222368893782139 0.08277218823506707 94 65 45
0.058881650470923454 0.2248570180260732 0.07987204540593276 84 50 30
0.05874316201182075 0.22862037081103628 0.07694871488694792 82 44 25
0.058633496377657475 0.23075346077914183 0.07406933764481842 67 29 10
0.05853037214242282 0.23251946473633722 0.07120187192499264 65 27 8
0.05837501292984196 0.23728268752167078 0.06828322582759674 62 24 6
0.058347623941807064 0.2347183508512734 0.06550017094606483 53 17 2
0.0581716710169471 0.2406867490303236 0.0625770194154344 52 18 4
0.058109355631891776 0.24012759224768238 0.05976048925956562 53 19 2
0.058050386682648385 0.23937043215468123 0.056943248582423875 68 32 11
0.057996583940002094 0.238308626817767 0.05412559809413217 102 67 47
0.05785953742422475 0.24206982972670407 0.05125738537936744 107 72 53
0.05769119231883169 0.24766496234071503 0.04838385039631509 116 76 56
0.05762678316275952 0.2472254466197782 0.04556493650143056 118 79 60
0.05745667906436707 0.25295433014585533 0.04271155017371232 139 105 90
0.057332521291385566 0.25601681439778606 0.039883176572707284 149 120 106
0.057200682786698424 0.259540943905463 0.037061224277561276 134 105 90
0.05645203071801264 0.2784471003770564 0.0202996944860011 85 46 23
0.05635598496878757 0.2799277349054581 0.017519660874173455 77 37 14
0.05626054119826992 0.28137673505534644 0.014742154269778422 69 30 9
0.05615632250897236 0.2833550048194963 0.01197322258614348 64 27 8
0.0561112879304051 0.28179029153219504 0.009164300015967429 65 27 9
0.05608829837325155 0.27889102561400086 0.006330582070071346 64 28 9
0.056038673724683685 0.277580939384836 0.003511331633977939 62 26 7
0.05589768799870696 0.28177924198426463 0.0007799187144149483 57 23 4
0.055826320552950975 0.2817809262231261 -0.0020178659592917578 60 26 8
0.055690954663464534 0.28566235785234007 -0.004740045493489234 59 27 10
0.055569361024776526 0.28872186657626864 -0.00746984113759383 57 27 12
0.055695133626575834 0.2767189703342127 -0.010536140477941956 54 26 12
0.055612777265201335 0.27298100095764466 -0.016257043811956154 56 29 16
0.055516819881294845 0.27445674649267027 -0.01903686997678028 57 30 19
0.05543919812456333 0.2748091967215275 -0.02184618295120535 56 31 21
0.055398612836434734 0.27287762710629765 -0.02472508979097733 52 31 21
0.055338403476877795 0.2721471926904396 -0.027573166873256665 45 26 18
0.05528141543175255 0.25769829018625245 -0.03943707039048522 21 10 8
0.05523457874900073 0.25607464733911256 -0.04235593975645128 14 7 6
0.05517387435979297 0.25530989679540267 -0.045246299742458446 9 5 4
0.05502835679058203 0.25986717948746296 -0.04791621479235774 9 5 4
0.054650490673563125 0.2560560545947278 -0.06527524843621171 10 5 3
0.05444256177104498 0.2646623504560226 -0.06769451377911574 10 4 4
0.05435550353770531 0.2655664925968314 -0.07050625447695627 20 10 8
0.05433898208293213 0.26194360204222006 -0.07356853731678689 44 28 23
0.05427047381644118 0.26164636692900795 -0.07645339359350377 65 48 39
0.05417765751406776 0.26291347208827415 -0.07924907259221074 60 42 31
0.0540959829403115 0.26346355744385985 -0.08208562344994122 49 25 13
0.053764234338253475 0.28022920137182 -0.08392338917906843 48 21 10
0.053710554890428516 0.279000059081084 -0.08684771972313723 47 19 8
0.0537937137874494 0.268844916688727 -0.09035388787972522 52 23 10
0.0537531878651588 0.26671654872131745 -0.09336161540758028 57 27 14
0.053703608173543506 0.2651678004549477 -0.09633815011279111 76 49 36
0.053544843039382714 0.27077754165220275 -0.09882623994463349 64 35 22
0.05333228808526998 0.2799536485551429 -0.10104720169275071 67 35 20
0.05311423671979885 0.28953631803383484 -0.1032127846860202 70 34 20
0.05295011662798132 0.2955970030098308 -0.1056103719994568 76 38 23
0.05278726204433128 0.30160200059489645 -0.10799543906625098 87 48 30
0.05263169429657512 0.3071505029253566 -0.11039894332147128 88 50 30
0.05249353256991338 0.3115643894686331 -0.11287593603147376 105 70 54
0.05236371894393286 0.31544034873435606 -0.11538401230198209 165 140 127
0.05228468164757608 0.3159310038090875 -0.11815673881934352 144 115 103
0.052185262358996884 0.31779091414725164 -0.12081632257551467 138 106 88
0.05213726620930848 0.3161939020682784 -0.12376291713672563 114 76 48
0.0519309913450034 0.3252754575993906 -0.12580059491844797 92 48 16
0.051796292346327356 0.32955519251907506 -0.12823118580067053 83 40 12
0.05169540385854479 0.33155926533192237 -0.13085231729583469 76 34 10
0.05164474222502702 0.33015226919687046 -0.13377681846569933 73 32 10
0.05165991784749282 0.32424178889528044 -0.13712047584024528 70 32 12
0.05159102886413324 0.32404981964558266 -0.13995011266634771 65 28 9
0.05151971931039403 0.32402017172950087 -0.14276650706052377 61 30 13
0.051604640511265384 0.31323974073692623 -0.14662026096391986 62 38 26
0.051378172175666044 0.32387818778862765 -0.14841235934472097 62 42 31
0.05127309329281322 0.3261751674942264 -0.15100263398397282 65 47 35
0.051172615429715664 0.32816265626662566 -0.15361871330778984 66 48 36
0.051119902728645694 0.326836625492522 -0.156569697437616 66 48 36
0.05122176895860483 0.31472244751290573 -0.1606477226525526 66 48 36
0.05117891552632716 0.3126577513701825 -0.16370429936323397 66 47 36
0.05112242493916549 0.3115350102519633 -0.16666797081363674 65 46 36
0.05105564072890191 0.3111269019229015 -0.16955909991876425 64 45 36
0.050981402316182194 0.31123915145876324 -0.17239579680899408 65 45 37
0.05092511703253495 0.3100801288137122 -0.1753755950814413 63 43 35
0.05086383722024812 0.3092658374129929 -0.17832153681380558 62 43 33
0.050924417007739024 0.299782687667528 -0.18226539396155203 63 44 34
0.05088659764396623 0.2972572698243717 -0.18543157403574212 63 43 33
0.05080705000693228 0.2976973136757462 -0.18825804318655895 62 42 32
0.05069016800700407 0.30081279546198425 -0.19076575539763385 62 42 32
0.05062138414815594 0.3004857495721202 -0.19368128620608624 62 42 32
0.050586831182670995 0.29768659214424853 -0.19690178734591518 60 40 31
0.050536954491890475 0.29597626002194655 -0.19999765136865685 60 40 31
0.050497788220705005 0.29347685819577835 -0.20319931740545993 59 39 30
0.049568633553471235 0.2682715887780901 -0.25643625768731176 57 34 24
0.049515967054972285 0.2665275173661572 -0.25966401740530703 58 34 24
0.04907465651052271 0.2714058794172186 -0.2737204470337852 64 36 22
0.04892065725154636 0.2775059151497473 -0.27569488904712497 60 33 16
0.048895067831255544 0.2736154995173816 -0.279291083818095 59 32 15
0.048891826117202414 0.2679474172677721 -0.2831954999620037 60 32 17
0.048843377222342776 0.265791940063028 -0.28653201863013006 58 30 16
0.04882160089806673 0.26151766457946934 -0.29023447947241304 56 28 14
0.04880348500157733 0.2569237277151177 -0.2940064110950316 54 27 14
0.04863992176197914 0.26383158812823715 -0.2958175911982341 60 33 18
0.04856386556035395 0.2638183528690901 -0.29880920326290017 61 33 15
0.04853718142401792 0.2598613877030387 -0.30249268034443233 54 27 15
0.0484532052343045 0.2604625726501805 -0.30538544316147964 65 47 39
0.048351439701639576 0.2624929497705921 -0.30802344130770093 63 52 43
0.04824271964831038 0.2650932866944866 -0.31055435522867486 56 34 23
0.048167070027619954 0.26503361658316216 -0.31356096666963335 51 19 8
0.048002677888840384 0.27216700847308717 -0.3152543577258448 57 24 7
0.047831148068147894 0.27992407882310505 -0.3168120490296142 65 31 9
0.04778307374549379 0.2776507561392935 -0.32021241134639045 70 36 15
0.04760266429580606 0.28619685573757314 -0.3215925271737424 69 37 16
0.047515867904829666 0.2871038253090978 -0.32439211463397677 72 41 20
0.04746160702253244 0.28533107646239797 -0.32770151431648115 69 38 18
0.04759103419384455 0.26834977759500184 -0.33394215832443563 55 27 12
0.047568559338896636 0.26385774580138077 -0.3378171298859024 29 10 3
0.047552311669803136 0.2588135348265774 -0.3418158612468195 35 15 9
0.04752392754977483 0.25474574273974404 -0.3456398651943347 54 30 18
0.04748093000669329 0.25187185030840553 -0.3492413523296319 45 22 9
0.04741085133146041 0.25125261948886 -0.35240237931986473 46 24 12
0.04735965528957593 0.24903184630489877 -0.3558901503824417 43 20 12
0.047272342534907606 0.24985070868082157 -0.3587687044788229 39 17 10
0.04713218874459782 0.2551615661512927 -0.360726069679921 36 18 11
0.04701901880614215 0.2582043728438633 -0.363136632899887 22 10 7
0.04694699476644703 0.25774394181656984 -0.36626812750852206 23 11 9
0.046876019186997145 0.25718652238914674 -0.3694231376277699 35 19 14
0.04679674950562706 0.25733601866241185 -0.37243233042479973 44 25 18
0.046702772108057775 0.25875434300613254 -0.3751727711785873 36 15 8
0.04658375215692076 0.26235151421303127 -0.3774433261897152 35 15 9
0.04654503149694326 0.25897878782421546 -0.3812095106732641 36 17 10
0.04639191780370218 0.265573425668271 -0.3828196132311747 40 18 11
0.04637432495785777 0.2603278514375081 -0.3870052911068324 43 19 11
0.04624954958446315 0.2644728397917363 -0.38913649148549634 59 34 26
0.04611242357414667 0.2697343472475706 -0.3910079998968099 53 27 16
0.04596490627400813 0.2759507865986173 -0.39265065791571735 48 20 8
0.04581085193622231 0.2827896951134905 -0.39413486584930446 47 20 10
0.04565925865647911 0.28945458590049256 -0.39563852298429325 49 21 10
0.04557853729431719 0.2898140329426017 -0.3985647343267112 55 22 11
0.045457447515824534 0.2938023878248706 -0.4006557746131664 59 22 9
0.04532019461068379 0.29927493877871336 -0.4023916175602688 67 31 18
0.045263687372129116 0.29746912328581987 -0.4058111514590129 93 66 53
0.045172140794581137 0.2988319485012304 -0.40849324500183426 96 75 64
0.045085637193540765 0.29974068138516324 -0.4112801746564063 83 56 41
