ply
format ascii 1.0
element vertex 685
property float x
property float y
property float z
property uchar diffuse_red
property uchar diffuse_green
property uchar diffuse_blue
end_header
-0.11950727680397058 0.15758612513023199 -0.1627242463145535 49 40 35
-0.10409716283864784 0.15960570256581033 -0.21747405115621732 47 36 32
-0.09963249037358063 0.16053749747299748 -0.22093974955863385 46 35 31
-0.10025089967392686 0.16031315559923368 -0.22386668657029055 44 33 29
-0.10018056559859354 0.16024540099661214 -0.2268689854542671 42 31 27
-0.10072030781516571 0.1600389516842108 -0.22980426439169285 43 32 28
-0.09634557298994567 0.16052885555383314 -0.24833031056513102 43 32 28
-0.09010823882566386 0.16186035461736675 -0.2521084851470552 42 31 27
-0.0906022397684424 0.16166376972469054 -0.2550678982961283 41 30 26
-0.08780182149363819 0.16221463250166462 -0.25844305113551835 41 30 26
-0.08983235919000604 0.16166938235094103 -0.26121039204771135 41 30 26
-0.08446381216029615 0.16263256329887846 -0.27100096752876235 40 29 24
-0.08223052000855101 0.16305382683190456 -0.2743377348261046 38 27 21
-0.08154956656428909 0.1631230771458026 -0.27747195264582475 34 23 17
-0.06999114399849887 0.16565674469861577 -0.28210384577545705 37 26 20
-0.0684776904834087 0.16591390920409527 -0.2853776605666834 43 30 24
-0.07084867181587226 0.1652911529845295 -0.288111522304164 42 29 23
-0.07333877040118657 0.16464160085529286 -0.29082213585140687 34 21 15
-0.07642314192476146 0.16385769684527074 -0.29344064324032393 35 22 16
-0.07175546620619648 0.16482869836357172 -0.29717695450346937 39 26 20
-0.07859328768701489 0.1631955091280626 -0.29923923877728636 35 22 16
-0.08094380112619602 0.16257819121774605 -0.3019472736024494 35 22 16
-0.08156452856425578 0.16235235302736983 -0.30490861707472267 51 40 34
-0.08459463274865658 0.161581605328672 -0.307503793444128 57 45 41
-0.08653944771833402 0.16105650633765806 -0.3102568449777685 47 31 27
-0.0870872876985153 0.16084737803961444 -0.3132212014079944 38 20 13
-0.0880819509729389 0.16053726623250164 -0.3161151144511947 39 19 12
-0.0889625731963361 0.16025298208943103 -0.31902507490242044 42 22 15
-0.08943328741240018 0.16006136116455802 -0.32199884778429094 40 20 13
-0.08728256157790631 0.1604619430117452 -0.32539488153843066 38 21 13
-0.0843681771690671 0.1610347795219967 -0.3289232753177739 50 33 25
-0.07166754539102221 0.16381720483255627 -0.33407084335241877 45 29 21
-0.0696275312145632 0.1641916116125743 -0.337490683817176 29 16 9
-0.0670607813896998 0.16468470057216125 -0.34100650286146605 19 10 5
-0.0645176836274621 0.16517218889181887 -0.3445277185416279 30 21 15
-0.0581945704891155 0.16651232629407664 -0.34870374839915197 32 21 15
-0.054195851423770494 0.1673275004729752 -0.3525005503484808 29 17 12
-0.05886046851248923 0.16618829116264072 -0.35480429822792625 24 15 10
-0.05742888599619855 0.166424173644106 -0.35816457553050274 21 13 8
-0.05925075492016725 0.1659263776285351 -0.3609542894966989 29 16 13
-0.06406182999937439 0.16475490387011102 -0.3632050703731563 29 18 14
-0.06269906847823119 0.16497521461472667 -0.36655514034540426 17 8 5
-0.06582401440124225 0.16418418238617846 -0.36909424193205137 26 15 12
-0.06735464406644515 0.1637525617808254 -0.37191719819630353 38 25 18
-0.07221159401670718 0.1625718432664198 -0.3741205858811846 44 30 22
-0.07381512196821371 0.1621241619575035 -0.3769172259527328 39 23 18
-0.07824753003239114 0.1610396835296986 -0.3791770939324954 35 17 13
-0.07809908538525268 0.16098671717079707 -0.3822941552797154 34 19 13
-0.0632649186927273 0.16423879627945615 -0.38822620837200167 35 18 10
-0.06527104352982058 0.16370027679365312 -0.3909540129971108 57 38 29
-0.06898087000464312 0.162778629875021 -0.393344757750291 54 34 24
-0.07402499754912194 0.16155717079076717 -0.39546277526322476 47 27 16
-0.08442858122101565 0.1591309219451595 -0.39650468798063265 41 21 10
-0.08530240089571764 0.1588481536579994 -0.39941649119220435 41 21 12
-0.09060309603399255 0.15757033347371 -0.4014359878434951 45 24 15
-0.1033737413428288 0.15461415722696678 -0.40192463801562645 54 28 17
-0.11048870202772706 0.15284463255424247 -0.4065786704290524 75 51 35
-0.11349801041197011 0.15208342267418012 -0.40900412926270024 87 68 57
-0.1159888239210398 0.15143888371030745 -0.41152958913789656 107 88 75
-0.11794557325188859 0.15091444123936207 -0.41416083502115736 66 39 17
-0.11927939540714626 0.15052997021449405 -0.41691932755526834 62 30 9
-0.12151996691744515 0.1499420888507966 -0.41948058810824784 57 29 11
-0.11917506103677891 0.15038326481194753 -0.4230249236138206 54 27 11
-0.11954731552825185 0.15021464229305137 -0.4259875364123454 54 25 12
-0.1224583938215198 0.14947658829534263 -0.4283943120483265 54 27 11
-0.12269725386624143 0.1493379936108753 -0.43138223677453924 54 29 13
-0.12135179359387198 0.14955459026903642 -0.4347225686242746 61 38 26
-0.043318376320115363 0.1664281424705648 -0.4742818354482002 51 28 15
-0.04209321356883287 0.16661345707086705 -0.4777496125873921 48 25 14
-0.04047249961234884 0.16688714645659783 -0.4813162616552143 46 24 13
-0.04048846449661005 0.1667944529333899 -0.48449930537733527 46 24 11
-0.03889200109583307 0.16706242718148492 -0.4880705142487929 50 28 14
-0.03465481467121058 0.16792083319395643 -0.49228618866560026 48 26 14
-0.03425443495741763 0.16792087070576273 -0.49558365208865673 48 26 14
-0.04321859442507055 0.16582725766129497 -0.49659069758731333 49 27 15
-0.04298710165277894 0.16578982791538885 -0.49983644227757 49 26 15
-0.044350010351905444 0.16539603524764954 -0.5026886132081878 50 28 17
-0.04062342502620858 0.16613946722219528 -0.5068086470876142 50 28 17
-0.04120673858718718 0.1659197683973321 -0.5098587161174662 49 27 16
-0.046947744210931015 0.16454818370895713 -0.5116032888575048 48 24 14
-0.049845274369883855 0.1638120105310026 -0.5140544348597205 48 24 14
-0.044212835980133106 0.16498034668789788 -0.5186832188084215 47 23 13
-0.04086682176885052 0.1656378034250135 -0.5227420003433477 48 24 14
-0.03668941198213645 0.16648044940245754 -0.5270287188738958 49 25 14
-0.03578493818191478 0.16659245698457548 -0.5304756276969825 49 25 14
-0.030766376572682122 0.16762204899341557 -0.535007846587567 49 25 14
-0.03277729544988972 0.16708344800982386 -0.5376990664410141 48 25 11
-0.03669476758990475 0.16611988686766843 -0.5398777687796874 47 24 10
-0.04074966844063049 0.16512601159007453 -0.5420081578157865 48 25 11
-0.04472373862214496 0.16415048701520074 -0.5441483325223119 50 27 13
-0.04988387827621866 0.16291099263346728 -0.5459554193520008 50 27 13
-0.05156288185385445 0.1624474943737788 -0.5486957918022531 51 28 14
-0.05120211120267956 0.16243846062621511 -0.5519912832451735 50 27 13
-0.051041965109907994 0.16238467976660467 -0.555233880358145 50 27 13
-0.04503561514885096 0.1636325166807232 -0.560100565113406 50 27 13
-0.04386517427801659 0.16380326524050035 -0.56363833802301 50 27 13
-0.042335248226623434 0.16405387791929518 -0.5672821566824979 49 26 12
-0.0355586675356481 0.16547177020845344 -0.5724139939487605 48 21 11
-0.039194822160094234 0.16457250028686882 -0.5746115672493144 47 20 10
-0.03254363834673431 0.16596166391281675 -0.5797375296692486 46 19 9
-0.036213882291468824 0.1650549369599004 -0.5819208868239812 46 19 9
-0.03735328496974749 0.16471119482099528 -0.5848248345809096 49 22 9
-0.040521048464597004 0.16391664788322174 -0.5871368347641063 57 31 16
-0.04235559173929834 0.16341864944126702 -0.5898293608024784 53 26 14
-0.04351707747194712 0.16307033234703755 -0.5927149556093819 52 26 14
-0.041784484578453504 0.16336499636659693 -0.5964533751016595 56 29 16
-0.04049892075961123 0.16356017953880075 -0.600065922812427 56 28 14
-0.048467699692721036 0.16170023840591302 -0.6009183409954818 55 27 13
-0.04773043925245676 0.16177381105631145 -0.6043619226151574 54 26 14
-0.04674401168584273 0.1619025856661111 -0.6078845003659737 53 24 12
-0.04575609890419452 0.16203156303038585 -0.6114120648904833 51 23 11
-0.04360696120583357 0.16241805466760198 -0.6152988584763248 50 23 10
-0.03858715043858245 0.16344109669081594 -0.6200755870858516 52 24 9
-0.03926634907688681 0.16319972432735302 -0.6231106539371957 52 24 9
-0.03976624999936103 0.16299813455238718 -0.6262004231174161 59 29 11
-0.040266107683508426 0.16279656439071633 -0.6292898472044219 70 38 17
-0.04007361243973255 0.16274845697297988 -0.6325961013622413 73 41 20
-0.040172066483429913 0.1626358231921059 -0.635812534899009 73 41 18
-0.042514504497413466 0.16202601447926795 -0.638318587045919 73 41 17
-0.03864939214000995 0.16279136302884928 -0.6427962676764727 74 42 19
-0.03634169964905279 0.16321142008860576 -0.6467891752277011 72 40 18
-0.03702106127036109 0.16296986913847958 -0.6498292852223899 69 37 16
-0.04186925350468282 0.16180552495116818 -0.6515193080058392 63 30 10
-0.04346123715479294 0.16136224299267665 -0.654253749600574 58 27 7
-0.043953208201379906 0.16116247112719928 -0.6573438488216005 57 28 10
-0.044192490466415546 0.16101860909881716 -0.6605166471170671 60 30 11
-0.04592851133504433 0.16054368982377595 -0.6631956416267315 61 30 10
-0.04679943567663647 0.1602601940918319 -0.6661573123748249 62 31 12
-0.04702654777219445 0.1601190791753851 -0.6693321504116722 58 27 11
-0.04717520127982594 0.15999529129224238 -0.6725338349729252 55 26 11
-0.046729402742796036 0.1600028491791399 -0.6759365953985235 54 26 12
-0.04666493161849666 0.15992607723081703 -0.6792130350769761 53 25 11
-0.04699527609514306 0.15976204909456013 -0.6823566642408112 53 24 10
-0.047087788086783725 0.15965054084055966 -0.6855818083233592 53 24 10
-0.04802444023957615 0.15935261482764912 -0.6885179403219412 54 25 11
-0.04807567252462058 0.1592502030594791 -0.691757919078437 54 25 11
-0.04856517187898221 0.15905102909537766 -0.6948470029859248 52 23 9
-0.04807925527599448 0.15906710420938264 -0.6982757405304556 52 23 9
-0.04776213423093717 0.15904585817418976 -0.7016482876473764 54 25 11
-0.047746415339035106 0.1589580653203648 -0.7049171394501166 53 24 10
-0.04957043554298149 0.15846452626991678 -0.7075369059186447 52 23 8
-0.0520822945024252 0.15781946748876283 -0.7099075562029722 52 23 8
-0.05581590582461249 0.1569052940387114 -0.7118350930303535 52 23 8
-0.05672114175196097 0.15661476373432703 -0.7147656098483501 52 24 8
-0.06189279532160891 0.15538422743852215 -0.7161575036075561 54 27 10
-0.056469430591808395 0.1564881284951662 -0.7213677924148558 54 27 10
-0.05820502027957343 0.15601476533698672 -0.7239946950994184 53 25 10
-0.059188816088231955 0.15570707136391093 -0.7268916891438418 52 24 10
-0.058164050427410144 0.15584161965168009 -0.7305236836917458 51 23 9
-0.05885823788773939 0.15559768679549688 -0.7335268141626363 50 22 8
-0.06049041482108569 0.1551473710041484 -0.7361816149540776 50 22 8
-0.05889256435491497 0.15540781126162162 -0.7400336563333072 50 22 8
-0.060950595185164186 0.15486390458290863 -0.7425264355289476 50 22 8
-0.06334517794983373 0.1542461409561824 -0.7448873129308837 51 23 9
-0.06345052043846423 0.1541319000280383 -0.7481044604340037 51 23 10
-0.06620834619496364 0.15343455617115354 -0.7503181793225494 50 22 9
-0.07367609092757119 0.15170230838948132 -0.750732590965436 50 22 9
-0.07415452687807758 0.15150647838752207 -0.7537932532926023 50 22 8
-0.07644529340772158 0.15091252075863332 -0.756158225647411 50 22 8
-0.07257555911085435 0.15167180268565011 -0.7608909206476686 50 22 8
-0.0711741103741713 0.15188867875164574 -0.7646825609229966 50 22 8
-0.07251510796163795 0.1515033076483107 -0.7674141191600454 49 21 7
-0.07233828611236477 0.1514511779924754 -0.770735066437916 48 20 8
-0.07221443029628676 0.15138737188631726 -0.7740371488321626 47 19 7
-0.07542243914200562 0.14949912318495387 -0.815126695559999 51 22 8
-0.10441585789111546 0.14306443255850426 -0.8063392828033912 51 22 8
-0.10503662150704907 0.14283863028556937 -0.809299043845401 52 23 9
-0.10351777645477486 0.14308076287182855 -0.8131547994385493 54 25 9
-0.10276803110459973 0.14315455667264773 -0.8166933386035082 54 25 9
-0.09961557369773141 0.14375346567802005 -0.8212509478548965 53 24 8
-0.10211406912700347 0.14311703278920468 -0.823423253831634 55 24 8
-0.10567759924300962 0.14224808959717025 -0.825134755911634 57 26 8
-0.10770264134085979 0.14171553626950034 -0.8274933567471672 59 28 10
-0.1008471669679228 0.1431226958068633 -0.8336590012154989 59 28 10
-0.10278703914848134 0.1426086300221895 -0.8360582464104597 59 27 10
-0.11400618670976345 0.1400689461470969 -0.834436839387801 61 28 11
-0.11288145265325875 0.14022450845704457 -0.8381410626712328 63 30 11
-0.11393765054056595 0.13990401389164656 -0.8408992521811791 68 35 15
-0.11386807412972227 0.13982919145099182 -0.8441480438167235 70 35 14
-0.11524793767831895 0.1394381735208487 -0.8467613000530922 70 35 13
-0.11688422113718869 0.1389913324337094 -0.8492580161837758 71 37 12
-0.11731055017217384 0.13880841134813576 -0.852286393821274 73 37 14
-0.11870688793541534 0.1384140544816789 -0.8548833112202757 75 40 17
-0.12023203697460459 0.13799172258438505 -0.8574192731301665 74 42 19
-0.12092116844551866 0.13775165301214404 -0.8603259156187976 75 45 27
-0.1211760589789144 0.1376062053778266 -0.8634268133072401 74 50 36
-0.1223707299981705 0.13725607413522337 -0.8661038594379833 76 52 38
-0.11798640682237765 0.13812078380602177 -0.8713064122244462 75 52 38
-0.12766474270727685 0.13592372430469962 -0.8701283123092853 74 51 37
-0.12124943541865131 0.1372302247552184 -0.8762667543206555 73 50 36
-0.11646560956955951 0.13818107237307042 -0.8816807219220762 71 49 35
-0.11405974990224058 0.13861410513460068 -0.8860184559081058 69 47 34
-0.11405656311113732 0.13852429057039978 -0.8892563466758886 58 36 24
-0.1150504273708936 0.13821762855857145 -0.89203348344495 55 35 24
-0.11568803505279832 0.13798847656557886 -0.8949742439845273 54 34 23
-0.10452691364304809 0.1403238715526094 -0.9034226269012532 52 34 22
-0.09984778657430354 0.14124957093718263 -0.9088732244180866 48 30 18
-0.09816428534954078 0.14152395499893872 -0.912932349185434 46 28 16
-0.09557981795134149 0.1419938409630062 -0.9174238510337246 48 30 18
-0.09022507179864354 0.14306504617258833 -0.9232379327845764 55 37 23
-0.100569169943718 0.14063574419709374 -0.9248791334458444 63 42 28
-0.09764743553849772 0.14117829395906978 -0.9295510939665875 63 41 27
-0.09698480191508135 0.14123036463229668 -0.9331486894889238 65 42 28
-0.10084603302171247 0.14030100138669577 -0.934567906903371 65 42 28
-0.10224278141421957 0.1399064582551001 -0.9371681016117345 66 43 29
-0.10266805835769613 0.1397226538783921 -0.9402367327986946 64 41 27
-0.10511657761940577 0.13910025650151875 -0.9423189130787437 64 38 23
-0.1061526616744966 0.13878417622723102 -0.9450849758534511 63 36 19
-0.10829566337135924 0.13822830864700952 -0.947305367789654 61 33 16
-0.10948070743456159 0.13788013718815115 -0.9499916533174753 63 36 17
-0.11138690995155386 0.13737584982119483 -0.9523186477290068 66 37 19
-0.11372048365709941 0.13677916711954036 -0.9544283681183007 70 44 28
-0.11587406988117228 0.1362216379853776 -0.9566209667953756 81 59 47
-0.11882564320320094 0.13549156225115885 -0.9584088054261648 92 74 64
-0.12129638206272307 0.13486578385485426 -0.9604288143908511 97 80 71
-0.12219266394802789 0.1345808326981942 -0.9632336033084519 101 85 78
-0.12347990851989166 0.13421136730329383 -0.9658392785965744 101 87 79
-0.12429280077530425 0.13394456708766833 -0.9686820801279264 107 94 86
-0.1251052975072893 0.13367789395698593 -0.9715235960851257 100 87 81
-0.13961589907554403 0.13045040090762183 -0.9673782971079697 110 97 90
-0.14137660573660848 0.12997956372542877 -0.9697079311463356 105 92 84
-0.14243406284785162 0.1296608003989503 -0.9723938391614959 110 97 89
-0.14245791070908112 0.12956536833510393 -0.9756098596418871 110 97 89
-0.1463078900457111 0.12864362074032856 -0.9768494582763255 107 94 86
-0.1474742301977566 0.1283016311100279 -0.9794687959708427 109 97 91
-0.150351511514566 0.12759039373294556 -0.98119510918196 100 87 81
-0.1547118108486429 0.1265593463838439 -0.9821384794516338 103 90 84
-0.15537368618241282 0.12632666927639682 -0.9850053469901136 99 86 80
-0.1577749147338325 0.12571881608951493 -0.9869570860144953 100 87 80
-0.15771157176570133 0.12564268361650557 -0.990201363920537 101 88 81
-0.16087043291442532 0.12487174555440493 -0.9917424942250161 93 80 72
-0.16188757790657804 0.1245627648604385 -0.9944107291993717 85 71 62
-0.1638907393215856 0.12404134035305214 -0.9965516592203034 77 59 48
-0.1694532190414115 0.12275314371538414 -0.9967853092174802 65 40 27
-0.16878032172895557 0.12280869270938617 -1.0003430896933547 63 35 18
-0.1751838333690877 0.12134006694337739 -1.0000991925429326 58 29 13
-0.17510865614363008 0.12126705249003417 -1.0033294794416225 57 28 11
-0.17589071038890203 0.12100945265728226 -1.0060973693167263 57 28 12
-0.17794939960912792 0.12047712579457219 -1.0081706470491254 57 28 12
-0.17825142900130816 0.12032295893711413 -1.011194945043482 58 29 12
-0.17655771797403422 0.120598128145616 -1.0153101146493488 59 30 12
-0.18371778124629792 0.11896881781381216 -1.0145786835901047 63 32 13
-0.17434254538453642 0.12089578912874563 -1.0229174333294482 65 34 13
-0.1775811921987261 0.12011003557804847 -1.0243309739906232 66 35 14
-0.18156069679118728 0.11916532654594893 -1.0253244559306844 65 37 16
-0.18185102639729908 0.11901371959429444 -1.0283536122984995 66 38 17
-0.18220505450341587 0.11884841972735703 -1.031347582707034 69 40 23
-0.18171902581080793 0.11886355145325098 -1.0348109779240753 72 45 28
-0.18270940517823286 0.11856155757504253 -1.0374499019244505 73 47 31
-0.1836178373652523 0.11827721731392404 -1.0401327374810654 73 51 36
-0.1799399594105902 0.11897733616083576 -1.045400274565139 72 50 37
-0.17958818871434612 0.11896330421163746 -1.0488003418620662 70 47 34
-0.1793701263546804 0.11892051490213736 -1.0521270807827756 69 47 35
-0.18114538888702617 0.1184501131683288 -1.0543212152412569 69 47 35
-0.18191165169110562 0.11819622282436022 -1.0570865680522183 70 48 35
-0.18156672388673412 0.11818060439117097 -1.0604869857479584 71 49 35
-0.18600100896419802 0.1171405121335192 -1.0611442057453568 68 48 36
-0.18010479274295918 0.11831460829053643 -1.0677403365630191 66 48 35
-0.18578560792716173 0.11700774108511285 -1.0676666296268187 66 46 34
-0.18398467012226977 0.11730397244413288 -1.0719121101634064 60 43 33
-0.17707737081483496 0.1186935103909658 -1.0791348718102867 49 34 27
-0.1766479404367776 0.1186954226870528 -1.0826046497186725 45 30 24
-0.17940897626747335 0.11801433575690734 -1.0842105968620628 46 31 25
-0.1808264773690362 0.11762100160369628 -1.086596574789452 35 20 15
-0.18033412108543564 0.11763638717937752 -1.0901030269470664 34 19 13
-0.18469024254325742 0.11661458704383179 -1.0907501530400054 39 23 16
-0.185937751859572 0.11625796544219247 -1.0932239398787738 43 26 18
-0.18312029786569292 0.11677053325392406 -1.0981088238101238 43 24 17
-0.18404231359945844 0.11648345886083304 -1.1007775103965867 42 24 13
-0.17129874950900736 0.11911683616648598 -1.1116085391777104 49 27 14
-0.17701163216829782 0.11780560067107808 -1.1114268257030155 55 29 14
-0.17751770849796578 0.11760709658147231 -1.1143553750429158 63 34 14
-0.1856721921977643 0.11577524025334937 -1.1126734657303756 73 41 19
-0.18326642325540748 0.11619883897601793 -1.1173477993046956 77 49 27
-0.18235678374093187 0.11630280265454274 -1.1211249073673855 77 53 32
-0.1838300903735984 0.11589810003470803 -1.1234576122111353 79 56 35
-0.184934634540758 0.1155721846608492 -1.1260113074898452 80 56 36
-0.18675465785500373 0.11509372379661538 -1.1281248317569839 80 55 35
-0.1934435191682661 0.11357708329272982 -1.1272468193063345 78 54 35
-0.19417483993611184 0.11333127225596802 -1.1300111622998161 77 55 37
-0.18624754391140627 0.11493116405113042 -1.1381159330425894 78 55 37
-0.18626179617937427 0.11483780836471164 -1.1413367653007094 78 56 38
-0.1815132440073149 0.11575918105128907 -1.147514085713557 75 56 39
-0.17659847111856386 0.11671545104262289 -1.153813054990199 62 46 32
-0.1763852247697921 0.11666995386662758 -1.1571969431259599 58 46 33
-0.18062438392156724 0.11567643155585336 -1.157796571328919 73 65 49
0.0351473390423272 0.20430710760812643 0.11899884795227493 180 175 174
0.02081750613671437 0.20087154292116166 0.11499870234708998 136 119 111
0.0063535966685937285 0.1974058030669365 0.11103206241317216 134 102 85
-0.0010857577039243282 0.19558298383047462 0.10754215181732785 102 77 66
-0.004472951236958532 0.1947076357183163 0.10431793785818118 91 74 65
-0.017708061830293734 0.19153175965455532 0.10052361919880287 105 79 62
-0.0183563525437396 0.19129710572822128 0.09748934293081586 102 72 49
-0.019604015214353246 0.1909224927232246 0.09442244036477385 77 45 21
-0.02014202465148409 0.19071366046734034 0.0913966859668395 68 36 15
-0.021617298422530448 0.1902860246518038 0.08832195143029695 67 35 14
-0.018504546161422226 0.19092942487910397 0.085485730275809 69 37 16
-0.018950678714051823 0.19074196121386497 0.08246189645418821 70 38 17
-0.018605713482882785 0.19073909606576234 0.07947643002229501 74 42 21
-0.018260788298101613 0.19073616081467917 0.0764887734710905 76 44 22
-0.01895274352341233 0.19049130872379008 0.07345204531442903 76 44 21
-0.019389837168861786 0.19030591962284737 0.07042740314931105 76 44 21
-0.019875915230801344 0.19010911376491388 0.06740087147254634 78 46 23
-0.019989760809362156 0.18999909454615868 0.0643898047533083 77 45 22
-0.020614313246568858 0.18977001475827265 0.06135793797432232 77 45 22
-0.02143209627161917 0.18949592458412035 0.05831954333091859 76 44 21
-0.021527885116380298 0.18939009686920283 0.05530856217833054 73 41 18
-0.0195780556625435 0.18976079057792178 0.052367516145409104 74 42 20
-0.021324416321702535 0.18927038295732737 0.049297097503820046 76 44 23
-0.022977783943743765 0.1888017463491175 0.0462337666592766 76 44 23
-0.02287382051773478 0.18874238112491304 0.043227119603250784 74 42 21
-0.02185556572235424 0.1888958134105344 0.04024509376991661 72 40 19
-0.02212158170554371 0.18875021612372306 0.037224129450892096 73 39 19
-0.023499498597825824 0.1883458633603045 0.03417447683786802 73 38 18
-0.02213752977815926 0.1885790669386845 0.031193541956953647 73 38 18
-0.021351097470067547 0.1886782412792118 0.028194388803233637 74 40 20
-0.021081361854150295 0.18865714419784588 0.025180874147647612 74 42 21
-0.02183736574272019 0.1883974699518826 0.022145478997052652 74 42 21
-0.021867415305602433 0.1883066080209616 0.019124211964677857 74 42 21
-0.022192329133094463 0.18814717465999392 0.016097057265500085 74 42 21
-0.02213500917338573 0.18807657161609848 0.013075405734814654 71 39 18
-0.023450704838274553 0.18768688725487256 0.010034151526844299 68 36 15
-0.02372158137128684 0.18754002005521855 0.007008063274070681 68 36 15
-0.02358699777905262 0.1874873250913024 0.003985801803830964 68 36 16
-0.02376137145014768 0.1873628341782434 0.0009592743899596353 67 34 14
-0.024164769294723422 0.18718514691016383 -0.0020695284819935195 68 36 16
-0.022979683089461755 0.18737623712122461 -0.005089248613957787 67 35 15
-0.02365114948648948 0.18713626425354662 -0.008121444213187615 66 35 14
-0.02216096192307627 0.1873979726537362 -0.011147097588427687 65 34 13
-0.02205841029882434 0.18733755152289785 -0.014179976512170083 65 34 13
-0.022008303966346322 0.187264922814489 -0.01721430932037623 69 38 17
-0.0219581283708895 0.1871922735868143 -0.020249959829289628 69 38 17
-0.02190788364729272 0.1871196037787097 -0.02328692911508431 65 34 13
-0.020578751405197864 0.1873434177725558 -0.026331665728930538 63 32 12
-0.020293272481233207 0.1873251511787723 -0.029374781713059534 62 31 11
-0.020704105764464586 0.18714544150567175 -0.03241429517809021 58 30 10
-0.023451992327802425 0.1864241681605909 -0.03543118261715754 62 33 15
-0.02407064594996693 0.1861964137513942 -0.038464602884990436 62 33 15
-0.024689208061493863 0.18596870085224818 -0.04149729278922198 61 32 14
-0.025306041039197483 0.185741408740757 -0.04452927566228561 59 31 12
-0.02649654283579106 0.18538129815670631 -0.04755147689080302 63 35 17
-0.0192709474105761 0.1869697275757492 -0.05071696376930498 62 35 18
-0.01473850873059164 0.18793411057228943 -0.05385504994320034 60 33 16
-0.012350194468038173 0.1884018553554355 -0.05696451985044024 62 34 19
-0.01613062072855479 0.18744198453410213 -0.05994720180860473 59 34 20
-0.02863849198079566 0.18446334222164826 -0.06271454756322677 69 49 40
-0.041737926411354286 0.18134890621398778 -0.06542975026521147 61 43 36
-0.054349876996792924 0.17834829423998005 -0.06811870898474902 64 43 36
-0.061404199489791186 0.17663375271272547 -0.07092610876474269 65 41 31
-0.07293009828742261 0.17388606573582374 -0.07358038395932666 102 85 77
-0.07684537851844403 0.17289839383078312 -0.0764375635536076 108 93 88
-0.08079045412473654 0.17190414014139296 -0.07928283368060815 94 80 76
-0.07977731386461781 0.17205577180346338 -0.08228697456571872 77 60 54
-0.08025093536682695 0.17186383728971721 -0.08524214562102363 48 29 21
-0.08221489187537247 0.17132770255841864 -0.08814132604900912 37 19 12
-0.08372938900068894 0.1708954927891271 -0.09105306690205114 36 20 13
-0.08949120656451375 0.16948278104289244 -0.09378947892058108 43 24 19
-0.09510033904228778 0.16810577695369391 -0.09651562657326422 61 43 39
-0.09796605384845483 0.16736237401423226 -0.09934501092693092 72 57 51
-0.09732647405251853 0.16742801896765314 -0.10232471209184307 72 53 47
-0.10285776611299678 0.1660699376880861 -0.10501974398375763 78 58 52
-0.1093541885522732 0.16448968341718406 -0.10765227562820912 81 64 56
-0.12059942588418125 0.16181479852487457 -0.1100296302929431 91 77 70
-0.11734982090184079 0.16248298520011922 -0.11311662427391875 80 65 59
-0.1259839404278719 0.16041129346441527 -0.11558693984862055 95 81 78
-0.12121514277376538 0.16142952516245287 -0.11876054097208767 132 122 117
-0.12656067544783475 0.1601165191137117 -0.12138428570888046 114 98 92
-0.1318782228621032 0.15881039042253728 -0.12399417100122617 115 96 88
-0.13599737455844083 0.15778074987625876 -0.12665942431680363 82 57 44
-0.13687359172631486 0.15749833160005627 -0.12950951729240648 54 25 9
-0.13770577357283326 0.15722609790941644 -0.13236074563454725 51 24 10
-0.13841803168960654 0.1569815148517679 -0.135218148449668 47 24 12
-0.14700820680550702 0.15492357612512997 -0.13756032511195482 42 21 12
-0.13770819447795146 0.156983645841115 -0.14107228809007497 43 20 9
-0.14037680635403404 0.1562889055388779 -0.1437959653809502 44 23 11
-0.14140974885441213 0.15597066085347083 -0.14662684213732627 45 29 20
-0.140689622504301 0.15605570304974362 -0.1495809516269617 45 34 28
-0.13025910579901345 0.1583737480234625 -0.15324776255783712 47 37 30
-0.11881146396913078 0.1609247226925012 -0.15702410778132875 47 38 33
-0.12575036259314687 0.15924791804521593 -0.15943683415433896 47 40 34
-0.1094661213895079 0.1616738828759669 -0.20812645952895018 45 35 33
-0.09877991425846462 0.1640399510126632 -0.21220010839864603 45 35 33
-0.09649075961422665 0.16448128378255908 -0.21543228555214552 45 35 32
-0.09210664903419993 0.1654022491320013 -0.21889471070805647 46 35 31
-0.08889924895805126 0.1660533168466355 -0.22224560041843386 46 35 31
-0.08665401022444778 0.16648376610187127 -0.22550281143862566 44 33 29
-0.09795284639722338 0.16381339364753722 -0.22726982016154632 42 31 27
-0.09864574691431596 0.16357148870632435 -0.23019251026811888 42 31 27
-0.08738285094463911 0.16564603886757515 -0.2495834034865834 42 31 27
-0.08755430652270903 0.1655228456590451 -0.2525875763022373 41 30 26
-0.08668409734057571 0.1656376887868768 -0.25572240614672304 41 30 26
-0.08300836176661452 0.1663934532026929 -0.25921577769743404 41 30 26
-0.08583665284444682 0.16566305277927237 -0.261889569609536 41 30 26
-0.08363578264524255 0.1659128370142026 -0.2712826145703448 40 28 23
-0.07962394693762186 0.16674421783601073 -0.2748609148321224 38 26 20
-0.07284565716169199 0.1682065870240824 -0.2788290251249912 37 25 19
-0.07250429546209454 0.1681995423402437 -0.28193490659629317 40 28 22
-0.07078249326119657 0.16850736407842684 -0.2852350192815522 42 29 23
-0.07123375173856168 0.16831934112513544 -0.288236167019002 42 29 23
-0.07419090718692109 0.16755985736109633 -0.2908806810640719 33 20 14
-0.07744645090271476 0.16673256680733098 -0.29347410068390223 38 25 19
-0.07350849710452023 0.16754536618220608 -0.2971042971547161 38 25 19
-0.07839191206879154 0.16634724675314977 -0.29945158842567443 34 21 15
-0.08113059428959823 0.16563825084299796 -0.3021032160330938 34 21 16
-0.08264709320543141 0.16520791170388233 -0.30493086171901623 50 38 32
-0.08416165140317797 0.1647781152977409 -0.3077551764292093 58 44 41
-0.08522403558924921 0.16445139773044518 -0.3106452056669769 36 18 14
-0.08722610142988099 0.16391077887528072 -0.3133874652034833 38 19 12
-0.0887617278454136 0.1634764896493455 -0.3161975554181298 39 19 12
-0.08868994610900305 0.1634081617476434 -0.31925810116915837 41 21 14
-0.0892175691467822 0.16320339163646985 -0.3222243410308752 41 21 14
-0.08737234189473682 0.16353850457944846 -0.3255728272933588 38 21 11
-0.08477372644146479 0.16404479820078405 -0.32905110782267194 51 35 25
-0.07161541537521188 0.1669524298318127 -0.33427577464403163 45 29 23
-0.06759580775394908 0.1677808438665314 -0.33802585849720845 28 14 9
-0.0656307111536712 0.1681417909281235 -0.34144548556562204 18 9 4
-0.06241439979253187 0.16878692886707855 -0.3450843889351047 31 21 16
-0.0594840168687186 0.16936676968417888 -0.3486859189774404 33 22 16
-0.054963078645287045 0.17030770588009309 -0.35257233850514036 30 18 14
-0.06337180118865882 0.1683110409580879 -0.35422386120773547 24 16 10
-0.05872054347477823 0.1692812790807316 -0.35814384428010054 22 14 9
-0.06583794322898358 0.16757868838706588 -0.3599938138199155 31 18 14
-0.06398672451658187 0.16791285751127313 -0.36342635147106817 33 19 16
-0.06398885781802058 0.16782614088559752 -0.366531575829059 18 8 6
-0.06864238980679617 0.1666837887501687 -0.36879117631602315 32 20 18
-0.07189792991844385 0.1658590188037984 -0.37129384784475 41 28 21
-0.07135176433514419 0.1658969366246877 -0.3744916239610352 40 25 18
-0.07234256586102183 0.16558617344801158 -0.37740515802774954 42 26 21
-0.07393551358719984 0.16513891909054088 -0.3802032445063786 35 17 13
-0.07331074136507018 0.1651945751275168 -0.38341896929985736 35 19 13
-0.05861743639900869 0.1684391377367884 -0.38933456155206886 34 17 9
-0.05759829350557022 0.16858336441981192 -0.3926555420967445 56 37 28
-0.06073246750869388 0.1677863800066798 -0.3951715812178846 52 32 21
-0.07583695664866044 0.16427786161872138 -0.39532664498333775 47 27 16
-0.08220871783235431 0.1627485974969944 -0.3971643753793402 41 21 10
-0.08723622050360598 0.16152427951799725 -0.39925129954893496 41 21 12
-0.09701821028081462 0.1592239225134059 -0.40036608835332055 43 21 13
-0.10513001025979703 0.1573024758183484 -0.40178954053986354 51 24 14
-0.11244825717297194 0.15547670758742702 -0.4063975437264099 66 42 27
-0.1149902487901114 0.15481699231197313 -0.40891776235148164 87 68 57
-0.11747840402116265 0.15416964818881862 -0.41144225902091336 96 77 64
-0.1194310964781027 0.153643582971609 -0.4140729060364057 67 40 18
-0.11873143178318614 0.15371734397977396 -0.4172623381528016 61 29 8
-0.11967561638440398 0.15341941664817219 -0.4201030940302691 56 28 10
-0.12155208623296598 0.15291083923057608 -0.4227407890931743 53 26 10
-0.12279245657668605 0.15254613016321322 -0.4255119365290927 52 24 11
-0.12374541652269928 0.15224642960311255 -0.4283432337666584 52 25 10
-0.12231049163048818 0.15248613467425526 -0.4316995893173099 55 30 15
-0.038670108973462125 0.17075953543575056 -0.47243222280879926 55 33 20
-0.03887115547335779 0.17062569817857637 -0.4755724945007176 53 29 17
-0.04004412937511344 0.17027270740448422 -0.47848473033049704 50 27 15
-0.04154295665616967 0.16984633314723818 -0.4813172344990251 49 27 14
-0.035463925864701984 0.17112792620054676 -0.4859533898472022 50 28 15
-0.036545192588593955 0.17079549991054954 -0.48889124658310745 56 34 19
-0.03581913307395114 0.17087030098690692 -0.4922637572600903 53 29 16
-0.03900460991308295 0.17006396441544444 -0.4946879595411891 52 28 15
-0.03902652459859346 0.16997030034105573 -0.49787811328320425 51 28 15
-0.04253710214953717 0.16909112945351257 -0.500209094716086 51 28 16
-0.04332323436465495 0.16882552742595283 -0.5032062449719267 51 29 18
-0.042650496647581346 0.16888829464716018 -0.5065666295737202 50 28 17
-0.041694400380181906 0.16901472582809826 -0.5100017327679697 46 24 13
-0.04232327189705039 0.16878446593038543 -0.5130400134102446 48 24 14
-0.040329104774611435 0.16914421293400794 -0.5167457521089602 49 25 15
-0.03940537744126095 0.16926302478506539 -0.5201848096384277 49 25 15
-0.037216735450589386 0.16966611327591807 -0.5239545212041802 49 25 14
-0.03747027857016455 0.16951999322079458 -0.5270985269397873 49 26 12
-0.02597865102603039 0.1720135072469079 -0.5333117964866224 49 26 12
-0.024528645155317802 0.17224961373279968 -0.5369237587266993 49 25 12
-0.023200957768254704 0.1724580739928613 -0.5405093789420968 48 25 11
-0.02515891894594914 0.17192839830331513 -0.5432260333950796 47 24 10
-0.038426787297956275 0.16885909308156954 -0.5429085652334785 48 25 11
-0.03741091365024177 0.16899788954933295 -0.5463977963615344 49 26 12
-0.04068930999006448 0.16817261995147215 -0.5487274924473061 50 27 13
-0.04419522033300764 0.16729655296555462 -0.5509856844860899 50 27 13
-0.04485819109237299 0.1670586679181081 -0.5540136718571578 50 27 13
-0.04908459701923196 0.1660214065718541 -0.5560572451153095 50 27 13
-0.04706053006888221 0.16638640639467472 -0.5598236279165344 50 27 13
-0.04338893625747209 0.16712063369645194 -0.5640580404938235 49 26 12
-0.04137933656829382 0.1674818756683078 -0.5678388821417939 50 26 13
-0.03997074388591304 0.1677081819593732 -0.5714577740529471 50 23 12
-0.03510854128809214 0.16870830167309248 -0.5760640918301496 49 22 11
-0.032276396564768384 0.16925308533305872 -0.5801073776323572 48 21 10
-0.036130876411381435 0.16829966700955845 -0.5822389384783108 48 21 10
-0.0379109018179308 0.1678111800941287 -0.5849589057804832 49 23 10
-0.039425356089810376 0.16738228779973116 -0.587751527763029 54 28 13
-0.04112316718842965 0.16691244844554481 -0.5904868372789732 51 24 12
-0.040978042164155334 0.1668552383438664 -0.593759785377969 52 25 12
-0.039845098856265 0.16701904043589827 -0.5973266028853679 58 30 16
-0.03871027611116164 0.16718312374424737 -0.6008989957682365 62 33 18
-0.04728617963143944 0.16517481886924384 -0.6015728813453033 63 34 18
-0.04640201637214496 0.165283007297901 -0.6050639664671723 64 34 18
-0.0455167793408181 0.16539131923619324 -0.6085595751235265 59 30 14
-0.04333841097577455 0.16578860489108033 -0.6124524334610822 55 26 10
-0.04258559045406797 0.16586702723887592 -0.615918121766059 52 25 9
-0.04149290575056078 0.16602129317788616 -0.6194920065008002 50 23 6
-0.03696377326486845 0.16694319770601163 -0.6241323057649535 52 23 7
-0.03747912841694524 0.1667378378154851 -0.6272222877597208 60 29 11
-0.039425042318044196 0.1662130036283377 -0.6298652366521991 72 40 19
-0.04147203567605605 0.16566574273535675 -0.6324713234876799 77 45 24
-0.04202948860613609 0.1654511550527758 -0.6355419004658382 78 46 23
-0.04212524302914433 0.16533962981832112 -0.6387583620637198 77 45 20
-0.0422806107185259 0.1652147749890499 -0.6419567959348065 74 42 19
-0.042436072525429636 0.16508987746722167 -0.6451559809755302 70 38 16
-0.04259162844985552 0.1649649372528365 -0.6483559171858911 68 35 15
-0.04274705326521348 0.1648400045731293 -0.6515566774916961 63 30 11
-0.04289671756525018 0.16471633453811063 -0.6547600950824192 57 26 7
-0.043058410654870996 0.16458996082725685 -0.6579603801213089 54 25 9
-0.04321051657950885 0.16446570262507293 -0.6611645797613525 56 25 7
-0.045629839661754185 0.16383623342800654 -0.6636204330129206 58 27 7
-0.04634306372598382 0.16358703123286825 -0.6666361206119842 60 29 10
-0.046046777488614896 0.16356270810501886 -0.6699876572256901 58 27 10
-0.0465719195507312 0.16335540178755192 -0.6730659663143418 55 26 10
-0.046463557732292896 0.16328915038802871 -0.6763573647405781 52 24 10
-0.0485143620260772 0.1627422383233169 -0.678919047308403 51 23 9
-0.04798271274067478 0.16277019547798563 -0.682354263328589 51 23 9
-0.04811034721848835 0.1626513765488405 -0.685567036421419 52 23 9
-0.048382111657634744 0.16250047095651096 -0.688731146329275 54 25 11
-0.04896617670031693 0.16228009622651854 -0.6917877888918987 52 23 9
-0.04907244606878358 0.1621659826962238 -0.6950096111805739 50 21 7
-0.048527852115808234 0.16219653960146693 -0.6984593549738064 51 22 8
-0.0494555036733869 0.1618997754231025 -0.7013963587125006 51 22 8
-0.04844268669051813 0.1620342768557651 -0.705014733744753 51 22 9
-0.04998475270748759 0.16160101382444256 -0.7077340615103501 51 21 9
-0.052794960675190905 0.1608861652301437 -0.7099988527501536 51 21 9
-0.05742820783911584 0.15976667405719333 -0.7116046143259984 51 21 9
-0.057102209846406043 0.15974871300141663 -0.7149752745488328 50 22 8
-0.06174000195712041 0.15862877026451733 -0.7165593246509874 52 24 10
-0.0649937183612824 0.15781640964815563 -0.7186303189792038 52 24 10
-0.05905129200058633 0.15904491902527143 -0.7240368842022379 52 24 10
-0.06040102494477932 0.15865506469499624 -0.7267998688758058 52 24 10
-0.05966865021593373 0.15872712115108095 -0.7303239908097073 52 24 10
-0.0599550890400255 0.15857314281824117 -0.733476155134661 51 23 9
-0.05984962531991267 0.15850604425337614 -0.7367738493143844 51 23 9
-0.06123255377163715 0.15810897471569932 -0.739519327838096 51 23 9
-0.06225217716510954 0.15779251281594794 -0.7423972834264845 51 23 9
-0.06440705388391114 0.1572245690996952 -0.7448468547956295 51 24 9
-0.06654510904155193 0.15666051628971864 -0.7472968462353443 52 25 9
-0.07005758857477702 0.15579222053843275 -0.7492202743934446 52 25 9
-0.0714805885817545 0.15538689425919572 -0.7519283057343119 51 24 8
-0.07418694384317091 0.1546975481568837 -0.7541423576518677 50 22 8
-0.07898556684828698 0.15354531819895842 -0.7555454266336888 50 22 8
-0.07671892549418768 0.15395698811449862 -0.7596577894228113 50 22 8
-0.07608257846716988 0.15400771482213524 -0.7631477518286317 50 22 8
-0.0756008400805593 0.15402414658455077 -0.7665810287805117 49 21 8
-0.07883641196050103 0.15321840642313092 -0.7685651937983954 48 20 8
-0.07699511610284904 0.15254131644340063 -0.8083347298884165 51 20 9
-0.0761893784340179 0.15262842090101045 -0.8119298744551077 52 21 9
-0.08316071600764618 0.15100060309271304 -0.8123073320178009 53 22 8
-0.08683196227635233 0.15010090450392882 -0.8140351751167486 53 22 8
-0.08849526996084603 0.14964406739314978 -0.8165905019779933 53 22 8
-0.09016808238034002 0.14918525603984004 -0.8191375153457738 54 23 8
-0.09672598763528967 0.14765034459382126 -0.8196233456982694 55 24 8
-0.09899283042955309 0.1470611645375391 -0.8219022239753356 54 23 8
-0.0984356775365228 0.1470940423487197 -0.825373315108571 55 23 7
-0.09793897607271626 0.1471135219923211 -0.828821845040916 57 26 8
-0.10411315918217649 0.1456645323032533 -0.829419357965374 59 28 10
-0.10102002822135017 0.14625556037916382 -0.833977790213013 59 28 10
-0.10943914131472465 0.14431328717345662 -0.8335836110713889 60 27 9
-0.11217155451856434 0.14362271621927997 -0.8356240540074239 63 30 11
-0.11132262922096955 0.14372001027327969 -0.8392130707728725 67 34 14
-0.11156572302569501 0.1435770719942934 -0.8423297936091731 69 36 14
-0.11387194624520888 0.14298057195018748 -0.8445432626461817 69 34 12
-0.11471380768761769 0.14270610291701774 -0.8473941198479591 69 34 12
-0.11649199606806834 0.14222592830439576 -0.8498300732746319 70 36 11
-0.11731353502538666 0.14195605528935343 -0.852685207541514 76 40 18
-0.11748113418822831 0.14182985909719037 -0.8558297524751588 77 43 20
-0.11821167400351013 0.14158002164449418 -0.8587236406214513 76 44 21
-0.11843880220639635 0.14144074181364819 -0.8618420035958918 76 47 28
-0.12284553115225558 0.1403840094127589 -0.863080166893223 76 52 38
-0.12576782501285838 0.13965342744898163 -0.864975077659352 76 52 38
-0.12565134214963916 0.13958982107706872 -0.8682390705317702 74 51 38
-0.12682702780886568 0.13924271567348193 -0.8709166906937637 74 51 37
-0.11932112221512484 0.1407996789508971 -0.8775574811915828 73 50 36
-0.11731619051546058 0.14114971440449348 -0.8817029167146645 71 49 35
-0.11529893189223109 0.1415022252071436 -0.8858621988371621 68 46 33
-0.1141194072318775 0.14167090055898163 -0.8896427088026241 60 38 26
-0.11102679081666954 0.14225863091526986 -0.8943156073277045 56 36 25
-0.1106990734771371 0.14224030714400973 -0.8977136961546871 53 33 22
-0.11148155420073859 0.1419787505945163 -0.9005956600984693 52 34 22
-0.0993675905983047 0.14454130617591585 -0.9095222279845958 49 29 18
-0.09867928554649918 0.14460121480322324 -0.9131156325596949 47 27 16
-0.0961825241776238 0.145056865830237 -0.9175667575673685 50 30 18
-0.09079550571546176 0.14614473940387396 -0.9233976527917658 58 39 25
-0.09238844411054768 0.1457049163526921 -0.9259281830738882 60 41 26
-0.09287123028394777 0.14550804559776037 -0.9289845566162336 62 41 27
-0.10079437147938476 0.1436840179963831 -0.9284758132298021 63 41 27
-0.09800783681479529 0.1442023474511649 -0.9330907471582163 66 43 29
-0.1009626683109204 0.1434653161348634 -0.9349460666602583 66 43 29
-0.10142251742282704 0.14327381189287727 -0.9380008138544216 65 42 28
-0.10301782333737879 0.14283421335295457 -0.9405034772154247 65 42 28
-0.10476260618684216 0.14236207634235695 -0.942929073533409 65 39 24
-0.10636661449949664 0.14192081556957975 -0.9454188903009011 64 37 20
-0.10862296455047368 0.14133722611754282 -0.9475840959963107 63 35 18
-0.11012983039825547 0.14091743719674188 -0.950112268669392 65 38 19
-0.11298971323534301 0.14020244072963453 -0.9519673382069531 68 39 21
-0.11393341512925856 0.1399058230475524 -0.9547649609739051 72 46 30
-0.11597171302432728 0.13937045294439585 -0.9570154609460778 83 61 49
-0.12187561691450642 0.13799207483180648 -0.9573281966755357 93 76 66
-0.11949568129640264 0.13842070143336907 -0.9617764791810842 92 75 66
-0.1208391574998893 0.13803726890998125 -0.9643604630231378 102 86 79
-0.12318029228461168 0.13743646280725413 -0.9664373164783351 100 86 78
-0.12384447650626684 0.13720129938976688 -0.9693571471216741 109 96 88
-0.12424106877663899 0.13702446587568928 -0.9724120649936946 110 97 89
-0.13645493066097447 0.13427345556818326 -0.9694379063787592 114 101 93
-0.13832953796195643 0.13377530550206881 -0.9717156285611803 111 98 90
-0.1433688044124671 0.13258824018046106 -0.9723626303839836 112 99 91
-0.14392506348253084 0.1323775180485297 -0.97530396684098 112 99 91
-0.14449291599245595 0.13216428971932442 -0.9782386961381655 110 97 89
-0.145136831721552 0.13193452882970974 -0.9811333067461666 124 110 105
-0.15419216974606437 0.12987494838787791 -0.9796480442320638 109 96 90
-0.15623534670753259 0.12934131235210325 -0.981795326831693 111 99 93
-0.1575197688484807 0.1289728255164281 -0.9843344634552534 104 91 85
-0.1573917639620374 0.12891148519624715 -0.9876131154833364 101 88 80
-0.15904659182511724 0.12846259767759471 -0.9899529936724129 102 89 81
-0.1615712582464439 0.1278248163508135 -0.9918280307295967 91 78 70
-0.1637916910082582 0.12725333833010988 -0.9938571491639114 83 69 60
-0.16538446081165034 0.12681837001079596 -0.9962142477403669 77 59 48
-0.1738474866472451 0.12489159901715777 -0.9948948623844411 66 42 28
-0.1757377303797582 0.12439261460277908 -0.9970719864281924 59 31 14
-0.17729295872447573 0.12396649525925092 -0.9994240635615974 56 27 11
-0.18020235170061058 0.12324662141655798 -1.001041118047577 57 28 11
-0.17514327098422264 0.1242558552006524 -1.0069641689609934 57 28 12
-0.17495399821852423 0.12420823145957156 -1.010260736450347 57 28 12
-0.17580790598203874 0.12393432286551001 -1.0129907594242804 58 29 12
-0.17408976235445692 0.12421812591460556 -1.0171253227932031 60 31 13
-0.1754758109532361 0.12382883400134602 -1.0195646250207064 64 33 13
-0.17596756805879277 0.12363345127149039 -1.022492453591925 64 33 12
-0.17668856441354547 0.1233884102567736 -1.0252933390716312 64 36 14
-0.17903163257209465 0.12279202479117195 -1.0271948319875086 64 36 15
-0.1808966633418658 0.12229936135270751 -1.0293549710397147 64 36 15
-0.18213794094748365 0.12194190153588538 -1.0318574605230595 67 38 20
-0.18398566871245 0.1214532435157212 -1.0340179181567306 70 43 26
-0.18597129584339764 0.12093488361721395 -1.036095884315928 70 45 29
-0.18218209301334476 0.1216662370027622 -1.0414164551468403 71 48 33
-0.18215752287901937 0.1215827779394084 -1.0446274748803412 71 47 35
-0.18308760553827788 0.12129280550321427 -1.0472995654611978 70 46 34
-0.18140565297090744 0.12156769694093673 -1.0514526890094786 69 46 35
-0.1838535330054968 0.1209495808390958 -1.053261065935228 70 48 35
-0.18467981518847432 0.12068215272974259 -1.0559885173895622 70 48 35
-0.18517004295058687 0.12048738581750146 -1.0589069457355984 70 48 35
-0.18741169294679894 0.11991425588608004 -1.0608182809165096 68 48 36
-0.18506316538062226 0.12033273858062682 -1.0653694673654384 66 48 35
-0.1861231800218947 0.12001491246568012 -1.0679590743357041 66 46 33
-0.18660917185196327 0.11982108019644523 -1.0708792344414664 58 41 32
-0.1742474773869524 0.12240033971342686 -1.081274079619545 47 32 26
-0.17704860267144323 0.12170630903741388 -1.082865014005151 43 28 23
-0.17898865011875797 0.12119828891656206 -1.0849514299516274 41 26 21
-0.17951955074097414 0.12099436925452325 -1.0878596562606093 34 19 14
-0.18379845589694432 0.1199822189826536 -1.0885602232644742 35 20 13
-0.18561690722865695 0.11950092013282541 -1.0907002573587703 39 23 16
-0.18418359423628777 0.1197206771278849 -1.0947615633628627 45 28 21
-0.1832157416598793 0.11983995008917926 -1.0985526928704352 45 26 19
-0.1832781078435315 0.11973712980162005 -1.1017346188470871 44 26 15
-0.17538090156826114 0.12134878419513127 -1.1096751659884216 49 27 14
-0.17721328539550724 0.12086433363189983 -1.111812297353446 57 31 15
-0.18051805235393215 0.12006301691860269 -1.1130590104737883 67 37 16
-0.18384667019033135 0.11925685405336141 -1.114280974255324 74 41 18
-0.18747917651382207 0.1183855832069216 -1.1153086917425181 77 48 26
-0.18572399534967876 0.11867382567317628 -1.1195928309412135 76 50 29
-0.18468984382013653 0.11880676016306352 -1.1234458945339239 78 53 33
-0.1850728729456994 0.11863478057436885 -1.1264393249365623 79 53 34
-0.1849047443602906 0.1185813051479843 -1.1297699719912107 79 53 33
-0.18994561272737612 0.11740805570434464 -1.1299060185740943 78 53 34
-0.18716865745819913 0.11791539184900493 -1.1348368316579833 76 53 35
-0.19024844055680376 0.1171640364534079 -1.1361640193652576 78 55 37
-0.18925417051698507 0.11728809925987355 -1.1400033705974844 78 55 38
-0.1844885633419745 0.11822196538490283 -1.1461886912774544 75 54 38
-0.17756700129078987 0.11961823372307416 -1.1537344645495828 61 43 30
-0.17840922217563096 0.11934718533644115 -1.1564591259212336 59 44 33
-0.18772505545225662 0.11725763190559772 -1.1538768133324797 77 67 52
0.033917763387049674 0.2072272789055908 0.11888571965176706 183 180 181
0.023016038012121993 0.20457667419332523 0.11510876275061108 153 140 135
0.0117239382211086 0.20183507578884205 0.11133877109628618 126 98 82
0.00015950720158508513 0.199030307141755 0.10758482416623467 105 80 66
-0.006283287184471159 0.1974313209428662 0.10417343757327695 88 72 63
-0.014683433743115874 0.19537245774975295 0.10066525753773356 102 78 60
-0.013580001148165158 0.1955491658188333 0.09772568563920951 95 65 42
-0.020236819804075337 0.19390113818180071 0.09434881309161584 76 43 21
-0.01934698466910479 0.1940277097399387 0.09140041592710992 72 39 20
-0.02126269644555938 0.19349476117095674 0.0883001847958913 69 36 18
-0.015554850729487871 0.1947534607118123 0.08559525061273461 68 36 16
-0.015938713016692616 0.19458036825792316 0.08256897014626143 68 36 16
-0.01609087675591333 0.19446170555184378 0.07955387601790637 69 36 17
-0.016190339497878393 0.19435540194213086 0.07654055643556472 69 37 17
-0.017337683602919294 0.19400299986683156 0.07347903470540947 71 39 18
