ply
format ascii 1.0
element vertex 676
property float x
property float y
property float z
property uchar diffuse_red
property uchar diffuse_green
property uchar diffuse_blue
end_header
-0.11616745257913687 0.3180899386979713 -1.1012337482678944 83 51 30
-0.11614306827587531 0.31663094123413515 -1.105421051013825 87 53 27
-0.11637100135227232 0.3184153047458 -1.107658752373893 92 52 26
-0.11682225544317076 0.3230757661551723 -1.1081518250548033 94 53 25
-0.11687366161915053 0.3225916102263502 -1.1117513865374429 95 59 25
-0.11694576452688656 0.322373028853617 -1.1151926599673136 105 69 36
-0.11695181554815762 0.3213018715104423 -1.1191566097977046 104 70 39
-0.11711005778393255 0.3221925811209591 -1.1219252135884648 103 70 40
-0.11728483818916138 0.3232973566535845 -1.124560865986551 95 64 36
-0.11749013987001428 0.3247972430980416 -1.1269509773029986 92 61 36
-0.1174764451123163 0.3234674517474694 -1.1310843101858028 92 62 39
-0.11729799476003945 0.3200043405637791 -1.1365447931211126 92 63 41
-0.11733067585172803 0.3192690613146487 -1.1403254329743704 93 65 42
-0.11743700393312505 0.31948611451594455 -1.1435172864582068 92 67 43
-0.11736254046948555 0.3173599821208679 -1.1481732343633302 95 68 46
-0.11757166219177774 0.3189079310570646 -1.150537464472431 89 65 48
-0.11767481502431534 0.31908227344954615 -1.153760468285213 86 67 53
-0.11780929979989954 0.3196630588155651 -1.1567284852865527 105 91 81
-0.11828659533040238 0.3246975799264388 -1.1568830994059298 133 125 116
-0.11846491534732684 0.3258512947647868 -1.1594793933021532 163 159 151
-0.11878796629314722 0.32888848458491576 -1.1608768798932383 178 176 172
-0.11903789305099119 0.3309771426337445 -1.1628693048724124 187 185 185
-0.11982287088701109 0.3400362812157135 -1.160403636976571 192 190 190
-0.11457282205364035 0.2704575964301459 -1.208275949399975 194 192 192
-0.1137045732465772 0.2579305950307465 -1.219754111059224 196 195 193
-0.11677931117251678 0.29683689640011124 -1.1981510558171633 198 197 195
-0.11584768617036316 0.2834820816665333 -1.2101648408647327 200 199 197
-0.11660126835638109 0.2909301929831653 -1.2121567444298746 201 200 198
-0.11804608096891159 0.3086315182491525 -1.2040324800184508 203 202 200
-0.12686845562336116 0.4218056777406892 -1.136671019944165 205 204 204
-0.12767660821709248 0.4312775416998118 -1.1336254372554455 205 204 204
-0.12814095400782408 0.43625203614209696 -1.13350857573519 206 205 206
-0.05784686997227155 0.06446602531869507 0.06058359533629514 182 182 184
-0.05826969772362468 0.06799673755970628 0.05737418718327404 183 183 185
-0.05745273303451837 0.05860152234264018 0.05437056265251481 183 183 184
-0.057988799504212075 0.06331328281043425 0.05114391452227226 183 182 183
-0.05949943221203881 0.07819964247191502 0.04780518283353048 182 182 185
-0.05981504952306195 0.08062094917069776 0.04464346423451066 182 181 183
-0.06012867820120952 0.08302310177832758 0.04148772419711967 179 176 175
-0.06044315353856894 0.08543570495250565 0.0383376503623644 153 144 140
-0.060804630261214763 0.08834126671584981 0.0351902474886964 113 100 92
-0.06105180217129447 0.09005343346051271 0.0320558554459289 91 75 65
-0.06126437517492091 0.09140464385828494 0.028926375320948997 83 66 54
-0.06141345570903406 0.09209202317266738 0.025800758606490594 76 58 46
-0.06140290939750973 0.09110809834587137 0.02267640650232906 76 58 45
-0.06151841330429814 0.09144341625107698 0.01954922515974961 79 59 46
-0.06163347468393797 0.09177398771844104 0.01642164260442746 81 60 47
-0.06176273189987496 0.09225328012141808 0.013294267880150873 79 59 45
-0.06143370815550073 0.08792580999304643 0.010140016057531325 76 55 42
-0.06167247278381276 0.0895521869062905 0.007013684957094995 77 55 42
-0.0617574113314468 0.08956474796068106 0.003876961438673285 79 57 44
-0.06178318252914763 0.08895556081235387 0.0007326159081613281 80 58 45
-0.061976889500166166 0.09010985111758414 -0.002394537937017849 81 60 46
-0.06174121870993241 0.08675166585232673 -0.0055785989206238815 80 61 47
-0.061808834045327936 0.08657935082148241 -0.008727707390873876 80 60 46
-0.061876481968904946 0.08640684085752905 -0.011878733814710548 78 59 45
-0.06187278550071962 0.08548296885932073 -0.015044866513118945 78 59 47
-0.06201629145467162 0.08610772562615739 -0.018185663440136418 78 61 48
-0.06207971313047064 0.0858891028720024 -0.021343322586605186 78 63 50
-0.06247311578808816 0.08914698847858898 -0.024426390011931746 83 68 56
-0.06239544615635363 0.08744133375743533 -0.027617971383934976 89 76 68
-0.06231529541146419 0.08570767719337402 -0.030816774230344943 117 108 104
-0.062176812963403806 0.08335672529965019 -0.03403857351772142 156 152 151
-0.06193533397122761 0.0799162535786658 -0.037299399438284114 181 181 184
-0.06203035043612865 0.08002570272304724 -0.04046706571439762 178 182 184
-0.06164304133670363 0.07503955950982234 -0.043794054117798034 179 181 184
-0.06047177507491319 0.061763552716736655 -0.04740734242188886 181 181 182
-0.06007561345283283 0.05667102866421562 -0.05078324385778774 180 181 183
-0.060246834958297794 0.05757524500177454 -0.05396261963853183 180 181 183
-0.06274373147766615 0.08309001616418837 -0.056228365608081685 180 181 183
-0.06392860900772589 0.09473646527743299 -0.05895369413968766 180 181 184
-0.06560662155276481 0.11161521436596779 -0.06143561489757095 180 181 184
-0.07035955013350048 0.16108818501735273 -0.0625124334603882 180 181 183
-0.07009985668521079 0.15746915649627585 -0.06572965641755894 182 181 184
-0.0691999183191396 0.1470571504661405 -0.06926218575556246 143 139 138
-0.06963015641480735 0.15074778600519936 -0.07217714341046878 118 112 109
-0.06994558573755444 0.1532226539800865 -0.07514023705691256 112 98 91
-0.0703359436661985 0.15649485460273943 -0.07805805077241543 106 85 74
-0.0707478473585266 0.1599983442039577 -0.08095563491680438 95 70 57
-0.07253006305133364 0.1780671109150817 -0.0830842559727055 93 65 50
-0.07295613210608204 0.18173269352790575 -0.08593266023197606 93 64 46
-0.07369714528953646 0.18875090884159934 -0.0885863085233983 91 63 44
-0.07416966062700256 0.19291769843207612 -0.09138174498011246 90 63 41
-0.07525186762454643 0.2035781912108893 -0.0937878759117921 89 63 44
-0.07579518568198546 0.20850824603374696 -0.09650533946451453 90 66 51
-0.0756235997714443 0.20582506310029997 -0.09967549611517361 98 73 59
-0.07617752890091586 0.2108726818700795 -0.10236991805825854 109 80 66
-0.07523124749821643 0.19992613717925137 -0.10607850665848725 111 83 66
-0.07762718578937727 0.22462635182232563 -0.10747611533617438 113 82 64
-0.07787416040084862 0.22641132978473522 -0.11034267859548474 113 82 64
-0.08034010031935457 0.2518910990236048 -0.11157404141084609 109 78 60
-0.08029844347467055 0.2506054009848873 -0.11461245806210804 109 77 58
-0.07322150074991965 0.17413178752201902 -0.12306058409367786 117 82 62
-0.07450921114812556 0.18702362622837754 -0.12518322468369072 125 90 68
-0.07335747391222282 0.17383313126289712 -0.12922216988800966 126 90 68
-0.07248856420826946 0.16365730191785094 -0.1330722000284153 128 92 67
-0.071546097768811 0.1526847438929359 -0.13701673769322337 130 96 71
-0.08583781253988051 0.30321837931043905 -0.13391650808158218 98 57 25
-0.08419544763326242 0.28478009710026375 -0.13834817828560075 92 54 25
-0.08369197914938337 0.2785445793444419 -0.1417929198167857 88 53 28
-0.08362709682200688 0.2770108953444974 -0.1448483700371891 84 52 30
-0.08363785023467252 0.27628770064188046 -0.14783796836950372 83 54 36
-0.0835768017986094 0.2747921164812307 -0.15090075037299433 83 58 43
-0.08315462267932408 0.26941345810421347 -0.15432555408830073 81 59 47
-0.08307377898322603 0.2676999336929038 -0.157426389503221 79 59 48
-0.08270285712362073 0.26286406045980576 -0.16082971553954212 80 60 49
-0.08273013003834408 0.2623089412821232 -0.16383691720137206 80 62 50
-0.08264424156376252 0.26053456608990366 -0.1669664408672172 81 61 50
-0.08242100434061642 0.25727878658784903 -0.17024994707781713 81 61 50
-0.08223914202676921 0.25446561816045976 -0.1735001120670735 81 61 50
-0.08152078235142368 0.2458655757019836 -0.17735306022897473 81 61 50
-0.08250143022145853 0.2555827254673965 -0.1793292013852623 81 61 50
-0.08230364903039651 0.25259214460047297 -0.1826176586203242 80 60 49
-0.08222214692799712 0.25085380409119756 -0.18578259591438712 79 59 48
-0.08191206336088788 0.24664482083036934 -0.18922249901093868 79 59 48
-0.08180079344934668 0.24457988515177237 -0.19244058261866584 80 60 49
-0.08154220838220057 0.24092028761838186 -0.19584443487046002 83 63 52
-0.08105394757261052 0.23477320813445512 -0.19954249524774118 82 62 51
-0.08115874631467436 0.2350367910357944 -0.20252526818402541 82 63 52
-0.08107247192665708 0.23323200693116436 -0.2057491057749705 82 64 52
-0.08068115574193892 0.2281219239757136 -0.2093693154389194 84 66 54
-0.08038899311037467 0.22408110070465714 -0.21287901505114454 84 66 54
-0.08089308263236605 0.2286665839145018 -0.21535954215459982 84 66 54
-0.08077747552175957 0.22653608290509658 -0.21864968219654826 83 65 53
-0.0806249408849862 0.2240026767323804 -0.22199773084387328 81 63 51
-0.0801514943644649 0.2179836796788026 -0.22579257140859788 82 62 51
-0.07993117999742277 0.21470741908979182 -0.2292588215870856 81 62 50
-0.07982504602451967 0.2126681555547748 -0.2325774620525347 83 65 53
-0.0796881369902957 0.21029220237973315 -0.23594762577703512 85 68 55
-0.07966893688698425 0.20919352693009788 -0.23915827289681588 86 69 58
-0.07943051299959054 0.20570883314933985 -0.2426917156382742 83 66 57
-0.07915672966662407 0.2018358002394675 -0.2462897033882214 85 68 60
-0.07844996099846338 0.19324479174224635 -0.2505445173509566 87 72 65
-0.078263975448744 0.19031815691891596 -0.25404609070463685 86 73 67
-0.07858741210007025 0.19293975693650517 -0.25678427964292755 87 75 69
-0.07789486265787186 0.1844868935357286 -0.2610775906117236 88 78 71
-0.07772247724748221 0.18169944261608004 -0.2645907553343199 91 79 73
-0.07739574016241807 0.17722477132706918 -0.2683571850820918 94 83 78
-0.07726309094490477 0.17486448120795162 -0.2718308891188155 96 84 82
-0.07676195580419125 0.16847707207379425 -0.2759063337040185 97 87 85
-0.07660805465373763 0.16587762614738463 -0.2794394125559393 103 95 93
-0.07612374040117802 0.15966338748973946 -0.2835255257566518 106 99 99
-0.07590451929292845 0.1563423481942996 -0.2871928964196115 121 116 117
-0.07579409467405004 0.15420829270162897 -0.290689877787746 138 135 135
-0.07562110273050068 0.15138696454046766 -0.29430149825699026 148 146 145
-0.07550750851248689 0.14921315105959532 -0.2978219621239216 154 152 151
-0.07550712508252796 0.14827735173739376 -0.3011548584076746 169 166 166
-0.07569479573935894 0.1494016733527515 -0.30416309717136564 118 116 114
-0.07618457458534447 0.15383974216615962 -0.3066348570486035 98 93 90
-0.07618555546726424 0.1529184726400746 -0.30996688652684123 94 86 81
-0.07655569251757821 0.15604808386819735 -0.3126372883762755 93 80 73
-0.07666020795028768 0.1562631314122714 -0.31578305505962323 92 78 69
-0.07732151476090418 0.16259533805848525 -0.3179048217355922 93 76 66
-0.07748171031157274 0.16342477032584554 -0.32093867906095036 95 77 66
-0.07766949984050418 0.1645579907236076 -0.3239195405319767 99 81 69
-0.07780336892247176 0.16509859617951567 -0.3270003573432139 102 85 73
-0.07769579032618476 0.1629816420749082 -0.33054277593944836 112 99 91
-0.0773422222207941 0.15815343891275824 -0.3345687089487408 127 120 117
-0.07735177076652242 0.15732089471608443 -0.33790430702952867 168 166 167
-0.07721241538615453 0.15484588853150197 -0.34153713733178453 181 180 184
-0.07696871406518652 0.15121750159293906 -0.34538687221049524 180 179 181
-0.07642122953650257 0.1442338380924944 -0.34985888894405553 179 179 181
-0.07592588094728177 0.13781873443666243 -0.35425014836406205 179 179 181
-0.07805137401871466 0.16033850438536934 -0.35331656907014825 179 179 181
-0.0730032904389027 0.10362610629312649 -0.36707844265037426 178 179 181
-0.07402664363383873 0.11396810559643156 -0.36841922925270254 178 179 181
-0.07430698619949698 0.11610297435901923 -0.3712841753914735 178 179 181
-0.07498682304869897 0.12265909827922383 -0.3732991164143315 178 179 181
-0.07868835999168279 0.16266630785832797 -0.3688506611706827 177 180 181
-0.07196437790336618 0.08726265039303474 -0.3866929669798151 179 180 182
-0.07389954171262583 0.10772060219852334 -0.3860048917483009 180 180 182
-0.07462491823383882 0.11478803753286888 -0.38789676233701836 180 179 182
-0.07564755817653174 0.12515801243640706 -0.3891107658525085 121 119 121
-0.07661969827378924 0.1349769847418096 -0.3904040114900527 88 84 82
-0.0774619939919216 0.14336350511975615 -0.39195724286414435 88 80 76
-0.078669717511435 0.15581539798334687 -0.39265735289169856 97 85 81
-0.07993548070727073 0.16892334505946552 -0.3931848910720294 91 75 71
-0.08130842665063152 0.18323450756866178 -0.3934235330509049 93 74 70
-0.08238609832968069 0.1942751423966046 -0.394300049273499 99 80 73
-0.08275985316328616 0.19749427425202884 -0.3967857609437585 99 79 70
-0.08382097788987897 0.2083669688007692 -0.3976431618315051 96 76 66
-0.08409259886263862 0.21045754752142995 -0.4003398329464871 98 78 67
-0.08458125574542326 0.2149677269005239 -0.40251163384275024 97 73 62
-0.08610384634288644 0.23100651356219237 -0.4021761736143702 97 70 56
-0.08602837319801561 0.2264513979917125 -0.41564226303610613 113 78 56
-0.08611665998505193 0.22650609187806908 -0.41875370104105764 109 74 52
-0.086431863155695 0.22909693707894185 -0.42129348468390887 104 67 42
-0.08732574291591647 0.2381614782828385 -0.42235375482238596 102 65 38
-0.08634676135771611 0.22627900321663108 -0.42818517904775055 103 66 38
-0.0880097933753202 0.24396001919336185 -0.42723632780474147 101 63 36
-0.08781031056459113 0.24079815579436806 -0.4310737054507514 99 62 34
-0.08841703825902365 0.24666633881804004 -0.4328107967820483 100 68 40
-0.0877877945681608 0.2386841804460485 -0.4377917692549812 99 72 51
-0.08738783567775736 0.23326552983386106 -0.44219195300171515 103 82 67
-0.0869820818449282 0.2277762426875702 -0.44662772778054033 119 104 95
-0.08647756886687484 0.22117256815183067 -0.4513502036666894 152 146 144
-0.08560886486730045 0.2104716504099482 -0.457086126886552 182 182 185
-0.08452415727488183 0.1973327839192953 -0.46345121841750087 181 182 184
-0.08521191388550205 0.2041077530825511 -0.4649800330387982 181 182 184
-0.08412227285758864 0.19089683945839597 -0.471418031752626 182 183 185
-0.11426017910775729 0.47897474609672686 -0.5699072523283404 195 196 198
-0.11380513368976256 0.47282385708539565 -0.5748631309175303 195 196 198
-0.11397659455005868 0.47393652026731325 -0.5773058793785479 196 197 199
-0.1135876759474068 0.4685437124223819 -0.5820271765273819 197 198 200
-0.11317875340172329 0.46291260730334227 -0.5868515251791357 198 199 201
-0.11317549121799717 0.4619900025977718 -0.59002939245595 198 199 201
-0.10996176664790017 0.4237341915843651 -0.6064858928355689 200 201 203
-0.11397698374575785 0.4695413015824217 -0.593041707811412 201 201 203
-0.08283875862865862 0.10513318954552339 -0.7301076232262931 203 203 205
-0.081808783361862 0.09205872566140366 -0.7382925327611114 203 203 205
-0.08275304595408108 0.10198614753764537 -0.7381536215298196 204 204 206
-0.0811823473843343 0.0825885280113188 -0.7487012424101919 205 205 207
-0.08075451449224606 0.07650777032062137 -0.7544256032138554 205 205 207
-0.08296284487603113 0.0903227450190061 -0.7877311348693756 209 209 211
-0.08344199031375621 0.09485254710092217 -0.7894764648450092 209 209 211
-0.08313931636080286 0.09020082552171471 -0.7947775493471269 209 209 211
-0.08323359983146555 0.09021008985738373 -0.7982761097716751 209 209 211
-0.08353977432617567 0.09271100192321856 -0.8007993762818327 209 209 211
-0.08384534261592964 0.09520688530134204 -0.8033179224922682 209 209 211
-0.08415032476672853 0.09769796981368585 -0.8058316779915025 208 208 210
-0.08445042641108139 0.10013366166920508 -0.8083607519377738 208 208 210
-0.0846069909599789 0.10087963957820616 -0.8115571058741143 206 206 208
-0.0848804490150292 0.1030043418599659 -0.8142005344541003 190 190 192
-0.0870328752005962 0.1273000019849097 -0.8079236452969785 159 157 156
-0.08676407668958126 0.1230385861909828 -0.8130975620165274 134 128 124
-0.08653211723454274 0.11920726825410735 -0.8181129906908133 117 107 102
-0.08626892735577935 0.1150023277966623 -0.8232949906792557 108 95 89
-0.0860938007283615 0.11183364552771567 -0.828069099816229 106 90 81
-0.08589517933955482 0.1083831518619012 -0.8329711459416697 101 85 72
-0.09022154745397433 0.15848669404701504 -0.8158142467496341 98 79 66
-0.09046901449852754 0.16033899820319908 -0.818458436770665 95 74 60
-0.09078951226889075 0.1630580779154116 -0.8207378652956062 91 67 54
-0.09117836834672251 0.16658992511060325 -0.822670692881775 90 63 50
-0.09638639244242192 0.2272864773498008 -0.8006490044297297 89 60 47
-0.09653319092523148 0.22798263863070728 -0.8036577271941057 89 59 47
-0.08791725774012772 0.12463111374530576 -0.8505974484640523 89 60 46
-0.09350919466016869 0.18996186273681714 -0.8263804296007243 88 59 45
-0.0940598109616409 0.19543773656370084 -0.8274189339118425 87 58 44
-0.09356239720583111 0.1884547868431051 -0.8337639632834982 86 57 43
-0.0932982559537371 0.18423964176284974 -0.838946827346562 85 56 42
-0.09191133971983872 0.16665205188335952 -0.8499043292910313 85 56 42
-0.09150694366691192 0.160748950184996 -0.855871136717922 86 57 43
-0.09402633462339421 0.18968609679877843 -0.8467379973276522 87 58 44
-0.09440792060270416 0.19316075119836607 -0.8486030722303273 90 59 44
-0.09472467457178364 0.1958651055419498 -0.8507949354888691 92 61 43
-0.09510007072661608 0.19927191902272917 -0.8526708101841166 94 63 42
-0.09581730223146312 0.20676483525882494 -0.8527356804772787 97 64 42
-0.09669303288122574 0.21615949223326597 -0.8519353253841593 99 65 40
-0.09736675110766038 0.22314831660756135 -0.8521733477558328 100 66 39
-0.09764657239986031 0.22543179582870845 -0.8544872033973844 101 66 37
-0.09780539998097876 0.2262689476213872 -0.8574422069602164 104 68 37
-0.09806838682890255 0.22835396558079502 -0.8598353487613289 105 71 40
-0.09831748243293892 0.23027428243517398 -0.8622972673449754 105 75 46
-0.09826948103016309 0.22863413671299465 -0.866365850953624 105 77 53
-0.09856212786879225 0.2310781242060839 -0.8685860079405517 106 81 59
-0.0983349142334982 0.22728461972455694 -0.87364395204788 108 83 67
-0.09880633736051236 0.23187645960654119 -0.8748781145389919 106 86 74
-0.09903590064905674 0.2335667023049921 -0.8774313377321714 111 94 86
-0.0988117100724015 0.2298031724171398 -0.882495304389952 115 99 92
-0.09827324544465425 0.2222547004813925 -0.889325453507676 114 99 92
-0.09801040119402105 0.21801464539735338 -0.8946460015812477 114 99 90
-0.09685247999653646 0.20299099790123148 -0.9050103061283172 110 95 88
-0.09659410110313321 0.19878851924880092 -0.9103637117972563 105 91 82
-0.09660020137800375 0.19776924129739704 -0.9142380711649088 100 86 77
-0.09698289884048436 0.20129074233893143 -0.9159772146620153 104 90 81
-0.09739215247552058 0.2051360841926484 -0.9175527614715051 111 97 88
-0.09755660283226122 0.2060291356889821 -0.920518437069799 112 95 87
-0.09776770765409255 0.20748631489666536 -0.9232138819627383 111 94 86
-0.09757915490281811 0.2041133917089815 -0.9282156203740269 113 95 86
-0.09745756236334766 0.20154610862889122 -0.9328438814636312 115 95 84
-0.09713850170961288 0.196585772114935 -0.9386350323082846 116 94 80
-0.09689576098415098 0.19254353583450712 -0.9440010464245228 110 87 73
-0.09830225316791152 0.20847687361567618 -0.9396939175365719 104 80 64
-0.09847704457290841 0.2094969319497525 -0.9425926606358656 99 72 54
-0.09869749562442445 0.21107138234264544 -0.9452187322608547 96 70 47
-0.09915613296466504 0.21553750686965473 -0.9464236320132264 94 66 44
-0.0991006229626138 0.21376530043141972 -0.9506833240372115 92 64 44
-0.09909137893343761 0.21255267196074895 -0.9546745070704002 89 60 42
-0.09903222124853457 0.2107314418505083 -0.9589729158003079 88 59 41
-0.09906174095901724 0.20998617570250033 -0.9627444149562572 86 58 40
-0.09741818134939277 0.18887971049885774 -0.9766751525838864 85 58 41
-0.09825455849742283 0.19794454854222762 -0.9755804111760376 86 59 42
-0.09900002961593427 0.20591151354748105 -0.9750074650426802 87 60 43
-0.09902163326283091 0.20506327539077346 -0.9788507623506861 86 59 40
-0.10110418912751426 0.2293496443985853 -0.9699898835175784 85 58 38
-0.1014862001530035 0.2329106635274576 -0.9715619620800348 84 57 36
-0.10250081899901844 0.24419932720779058 -0.9691894527570648 83 56 36
-0.10349433199585807 0.25524231178374185 -0.9669051234676358 84 57 38
-0.10371317929863051 0.25682785647196976 -0.9694314382348177 85 58 39
-0.10393828504581969 0.2584912121701305 -0.9719138615942691 85 59 39
-0.10411784485746028 0.25959855160329626 -0.9746790254672121 86 59 40
-0.1042843284060552 0.26054650825265185 -0.9775244708214457 89 60 44
-0.1044729051002503 0.2617656869690268 -0.9802273540051605 94 65 49
-0.10466645773802238 0.26304672013146607 -0.9828953804916614 96 67 51
-0.10510509190145742 0.2673346749681706 -0.9839882902018823 97 68 52
-0.10558081934618145 0.27208218687537583 -0.9848268621057513 97 68 51
-0.10556080561521157 0.2707472623783691 -0.9888520709146318 97 68 50
-0.10683596272383677 0.2853229928205194 -0.9844813773590193 98 69 51
-0.10696439861675984 0.2858179522187828 -0.9875219474766425 99 70 54
-0.10091240593341644 0.2102926934815375 -1.030970785686767 101 72 54
-0.10165977524793038 0.21836173309183618 -1.0301038322666922 103 74 56
-0.10649003569366013 0.27671694765466875 -1.0023064882967656 106 77 58
-0.1359684221870273 0.6370569627225336 -0.8176170176459053 114 82 61
-0.11026335119098657 0.3178306366033431 -0.9965889712089888 111 77 51
-0.11283873372020972 0.348577958612165 -0.9830783675179962 111 75 48
-0.10975519123092616 0.3093950487311802 -1.0077274048943559 111 73 43
-0.10964622225907715 0.3069643353838002 -1.0123400272656882 110 70 37
-0.10969314244226004 0.3064598831485385 -1.0159019516001033 111 71 36
-0.10996717559769116 0.30876713164261443 -1.0179139732403073 111 69 34
-0.11072351498444244 0.3170533524920752 -1.0166061882431712 110 68 30
-0.11074538384028268 0.31624166859128555 -1.0203286689735025 111 68 31
-0.11119263161889126 0.3207059987782861 -1.0211133533436405 111 68 32
-0.1113012057887103 0.32097078238872745 -1.0242332525503939 112 69 33
-0.11145863724571702 0.32184220367186595 -1.0270133812061748 111 71 34
-0.11161626273153709 0.32271652615241964 -1.029790400562559 110 72 36
-0.11161308146035862 0.321591657348664 -1.0336947767752 111 74 39
-0.11167330117632018 0.3212538285716987 -1.0371588837761607 112 77 44
-0.11169116311881455 0.3203877370967679 -1.0409258827206613 113 79 49
-0.11218014460445924 0.3253888760598943 -1.0413537302314642 109 76 47
-0.11234807957681305 0.32639369640937776 -1.0440501477773647 105 72 44
-0.11270484337045136 0.3297541644562866 -1.0453938588990837 105 71 43
-0.11318880017428243 0.3347052651630471 -1.0458124721481552 104 70 43
-0.11328411558668201 0.33480898262253744 -1.0490118381411069 104 71 44
-0.11348505379561422 0.33623189769570494 -1.0514490183753011 102 70 45
-0.11316642783460946 0.33116096805447526 -1.0576520324267091 100 70 46
-0.11304373618255702 0.3285343410329179 -1.062451389871261 96 67 44
-0.11302312833474015 0.3271817327412925 -1.0665175972095562 93 65 44
-0.11264335617238759 0.32132922714679185 -1.07322579646811 88 61 44
-0.11160840868462253 0.30725977301219487 -1.0847834339267848 80 54 43
-0.11112433529581879 0.30007986782045676 -1.0923326603656829 69 42 33
-0.11149600395711137 0.3036262859544037 -1.093569557876821 65 38 29
-0.11165826145248088 0.3045477279124458 -1.096351542836555 67 40 29
-0.1122213966729055 0.3105047046136976 -1.0961381284926857 85 58 46
-0.11278083405796133 0.3164217250497841 -1.095929119035734 85 58 44
-0.11304741908257251 0.3186626666151776 -1.0978993195324425 87 59 41
-0.11319116090049036 0.3193600867964643 -1.1007890418846182 83 52 31
-0.11307951011456936 0.3168424759736359 -1.1056120314986324 84 50 27
-0.11438943973337135 0.33222928045530786 -1.0996427275932783 88 52 26
-0.11412502694975718 0.3277897367117579 -1.1056180717246982 93 54 26
-0.11406268743558737 0.32589295845345345 -1.1100675225921153 96 60 27
-0.11409480114869817 0.32518535504885804 -1.1138014728631143 100 65 29
-0.11416323194184129 0.32493495358044616 -1.1172604342282142 103 68 35
-0.11423311559583894 0.3247020694828644 -1.1207111594307815 104 70 40
-0.11436244232251797 0.3252198690204493 -1.1237034018082341 99 68 39
-0.11463523038195542 0.3275525300190887 -1.1255778863340669 97 65 40
-0.11461882659501656 0.32622698348032614 -1.129704773487563 95 64 42
-0.11501855217887486 0.3301696500347391 -1.1305752952028105 94 64 42
-0.1146064979625534 0.3238290077886615 -1.1378202788898175 93 65 43
-0.1147119748070655 0.32404269484157644 -1.1410069247579866 92 64 42
-0.1148007622797361 0.32404433859364135 -1.144326872523014 94 66 44
-0.11486038547356489 0.32367517748258834 -1.1478807073918171 94 67 47
-0.11482814280215396 0.3221380182804724 -1.1521712139020328 84 63 48
-0.11487788275810416 0.3216405380165279 -1.1558138240834859 95 79 69
-0.11520381283664113 0.32465469616862896 -1.1572412720657408 122 111 101
-0.11550750561645898 0.3273889550034219 -1.1588369201295183 152 147 137
-0.11576196762520373 0.32949906838655135 -1.1608209722180622 172 172 166
-0.11558682019458319 0.32613715850863145 -1.1662854575902868 185 184 182
-0.11714903056892088 0.34492128868925276 -1.157614272326147 190 189 187
-0.11078704316557983 0.262635633058806 -1.2136324885366252 194 193 191
-0.11103208754865385 0.2645890205848358 -1.2158243648663216 195 194 192
-0.1124325181878715 0.28130190523867904 -1.2085018210479936 197 196 194
-0.11277581578731079 0.2845236769592863 -1.2098372141422917 199 198 196
-0.11413931074315253 0.2996392049886489 -1.20684470466194 201 200 198
-0.11870584435174278 0.3569516408085227 -1.1728985165741586 203 202 200
-0.11897915844363743 0.3593287821650626 -1.1746336036663443 204 203 201
-0.11952543943019167 0.3652077103258985 -1.174068030150793 205 204 202
-0.1261882971842902 0.4495555861000562 -1.1219435526131565 206 204 203
-0.12789275942576328 0.4703622188997031 -1.111366593692618 205 205 205
-0.1331797174175734 0.5372061123651524 -1.0703132205674466 206 206 206
-0.05531374225466724 0.07223501621918513 0.063525509408849 182 182 184
-0.053743270053968714 0.05527276714130122 0.06069526239697398 182 182 184
-0.05493658379706393 0.06665914233071708 0.05734066729695909 183 183 185
-0.05565370889414793 0.0731655763016638 0.05409256471834607 183 183 185
-0.05613336815261094 0.07723797988482413 0.05089573400592487 181 183 183
-0.05728176584239327 0.08818435606027841 0.04762556195908671 182 182 182
-0.05767081398776909 0.09133398202978714 0.04447023990462295 160 157 153
-0.05796847370000248 0.0935460332129361 0.04133156712929574 114 104 97
-0.058371282429761445 0.096841179646869 0.038189669562217726 91 74 63
-0.058566263089463375 0.09799979792544561 0.035069611109555233 86 66 50
-0.05873624125953434 0.09890156681196917 0.03195285018418974 81 61 42
-0.058916691804976 0.09991155259160907 0.02883703385694448 79 58 39
-0.058788546549650544 0.09774226493672752 0.025728631458798747 78 55 39
-0.05889980575923872 0.09803862146877057 0.022611570331590523 79 55 41
-0.05901432339924486 0.09836844300433004 0.019494047583223654 79 56 41
-0.059008592841750494 0.09745762667347307 0.01637283827024186 80 58 41
-0.05910918990864135 0.09764305502639938 0.013252065894872992 78 56 40
-0.05891295564338456 0.09476352903605877 0.010113201928690734 71 49 32
-0.059024914654027774 0.09506460886575002 0.006987012835422152 72 49 35
-0.05908701405513816 0.0948503431432682 0.0038558925398136847 74 52 38
-0.059329907816269935 0.09650447668878223 0.0007416306864801939 78 55 42
-0.05938874264993362 0.09625610192823152 -0.0023911562179646188 81 58 44
-0.05923225279366108 0.09377940950405357 -0.005555266048978149 83 60 45
-0.05930080216948416 0.09362949895838443 -0.008694218302110876 82 59 44
-0.0593655842072349 0.09344007447920716 -0.011835650177610308 82 59 44
-0.05943232019536637 0.09327035195236086 -0.01497869887551458 83 59 45
-0.05950764171216828 0.09318907778477381 -0.01812196513095512 80 58 43
-0.05956588681859159 0.09293031888322101 -0.021270526556392562 78 57 42
-0.059572014923952275 0.0921304343527596 -0.02443321253883858 79 59 44
-0.05993083799701179 0.09498896853521396 -0.027513424018436625 79 59 46
-0.05996382532417776 0.09446730197114896 -0.03067124436867364 80 62 52
-0.0598988279265668 0.09292731960953618 -0.03385910205952568 84 69 62
-0.05983370763433407 0.09138440311587016 -0.03705306928547996 112 107 104
-0.05961144701122492 0.08820668817586393 -0.0403014459851492 168 169 167
-0.059321179385741045 0.08431887799463078 -0.04358285789920576 179 182 183
-0.05809607510955048 0.07070379537780688 -0.047194421569378406 179 181 183
-0.05767057717018096 0.06539755948271803 -0.05056504255428184 180 181 183
-0.05841420475024407 0.072257225904482 -0.05351991172402018 180 181 183
-0.06275507436413524 0.11658533081573903 -0.05506513845862948 180 181 183
-0.06189527417726584 0.10676548861613096 -0.05856918076963033 180 181 182
-0.0631463745742644 0.11893914755029755 -0.061221786560024014 180 181 182
-0.06456315820512429 0.13285019711176024 -0.06376676000673769 180 180 181
-0.0658709633341168 0.1456356136411454 -0.06631972148617699 168 165 166
-0.06649113338291472 0.15125508286395345 -0.06915542273007683 117 110 108
-0.06656924934112132 0.15121957285776705 -0.07223655203552959 117 106 102
-0.06640743818507866 0.1486776602178243 -0.0754386380364068 110 91 81
-0.0667509533634254 0.15141348407418995 -0.0783902330080048 105 78 63
-0.06706049616564955 0.1537960832703589 -0.0813528411516724 95 64 48
-0.0666759138257165 0.14892119032861936 -0.08468847942539345 97 64 48
-0.06954479746484284 0.1780805760480603 -0.08621208288898397 93 60 43
-0.07037546868464609 0.185930698949124 -0.08882568179627212 92 62 43
-0.07134222537509705 0.19521199671611367 -0.09133565769523871 91 63 41
-0.0727904124396105 0.20954393212529615 -0.09352462553723943 91 63 45
-0.07348738949378825 0.2160149480412242 -0.09614138110657429 92 67 53
-0.07409724051972091 0.22157758215857207 -0.09879553120409582 100 75 61
-0.07422577415495474 0.22209612914556676 -0.10175095315106734 107 78 64
-0.07175042669561947 0.1952918607309579 -0.10646370052396795 112 83 66
-0.07332601429915381 0.2109895520811305 -0.10846068108713573 113 82 64
-0.07783680654044253 0.25752563799378164 -0.1083339457126539 113 82 64
-0.07820769360358598 0.260605036575554 -0.11106054165881003 107 76 58
-0.07809173234775876 0.2585694688886929 -0.1141392036123174 106 74 56
-0.07405745624578691 0.2153294272380292 -0.12018900641023447 124 89 69
-0.07314379692173455 0.20488059805677128 -0.12396332887698575 128 92 72
-0.07184707032168693 0.1903910326619624 -0.12807375046806013 130 94 72
-0.07095336816059551 0.18013211731876272 -0.13190605799519667 133 97 73
-0.07006770537823036 0.16994878261706056 -0.1357651049163199 132 98 73
-0.06891527652588919 0.15694530904847748 -0.13988089673462442 127 91 62
-0.08114789543747705 0.2842256359378402 -0.13557527431646005 101 59 28
-0.08112602290208684 0.2831817681955336 -0.1385742527800421 95 57 28
-0.0808270401515366 0.2792115657049442 -0.14182835890337014 88 53 27
-0.08123329356496356 0.2826850106524552 -0.14444701065786306 83 51 29
-0.0811809832349012 0.28131648237614115 -0.1474858554332961 80 51 33
-0.08097929339279433 0.27836759492628593 -0.15067279857749133 82 58 43
-0.08063741620712031 0.2739335121971476 -0.15400636567265824 81 59 47
-0.08043837778201818 0.271006243872216 -0.15721424848484564 80 58 47
-0.07968315235412787 0.2621900832352986 -0.16099083380243373 80 59 48
-0.07991032248814652 0.2637669311070007 -0.16379431493630975 80 60 49
-0.0797602924908314 0.2613495008559293 -0.1669852934769835 79 60 49
-0.07950068837996223 0.25776852200859424 -0.1703007013948518 79 59 48
-0.0794506732974089 0.2564059396582489 -0.1734044653135308 79 59 48
-0.07926529241324172 0.2536061761112566 -0.176661049572659 80 60 49
-0.07924245840134198 0.2525282677055804 -0.1797484484249584 80 60 49
-0.07882988190974893 0.24731204219622424 -0.18327736181574528 78 58 47
-0.07910016814250564 0.24934246439249594 -0.18604752191424423 77 57 46
-0.07919042588480513 0.24946165831432443 -0.18902042010505812 78 58 47
-0.07891276799743736 0.24567018419566525 -0.19242516841151955 78 58 47
-0.0788499563612676 0.2441595290498964 -0.19558812824337352 78 58 47
-0.07862896606412448 0.24096452351043413 -0.19894785584865501 78 58 47
-0.0785602384810139 0.2393867944047557 -0.20213312080234022 79 60 48
-0.0783235457391181 0.2360189946941672 -0.20553285955415485 79 60 49
-0.07815425883726106 0.23336586285008784 -0.20886009643642742 81 62 51
-0.07785750280921498 0.22935169895884092 -0.21235941881913098 82 64 52
-0.0775738517806931 0.22547336420335085 -0.21585606450228845 82 64 52
-0.07816359590637331 0.23090646552822364 -0.21822530605643006 85 67 55
-0.07775565905461874 0.22569850288244922 -0.2218992127446673 80 62 50
-0.07748909554820363 0.22199474025785967 -0.22540165628519454 80 60 49
-0.07731379281984967 0.21926197011546833 -0.22879346723778893 79 59 48
-0.07716017713734945 0.21675812750430853 -0.23216564740020135 80 62 50
-0.07703156872624997 0.2145190005906292 -0.23551247959238342 83 65 53
-0.076790561352923 0.2110755792165635 -0.23902633981942273 84 67 54
-0.07666297054355728 0.20884209929996647 -0.2423909206952031 85 67 57
-0.07645378463709977 0.20573296020390702 -0.24588192692109845 85 67 58
-0.0765407152847201 0.20579139544372987 -0.2489517874509181 85 67 58
-0.07614699728609345 0.20070062463614607 -0.25273339224268565 85 68 57
-0.07598784288232172 0.1981188027387474 -0.2561820907144763 84 69 57
-0.07580044633503016 0.19523150326763156 -0.2596833049507341 86 71 60
-0.07547963130531712 0.19091014778487442 -0.2633994515391007 87 72 63
-0.07528370843777214 0.1879248237846979 -0.2669377768975173 88 72 65
-0.07504986065096317 0.18452930125614317 -0.2705465805912886 89 74 68
-0.07482699895828368 0.1812483729112227 -0.27415047691370553 89 75 70
-0.07443321800030847 0.17612753156433172 -0.278039897010069 90 77 75
-0.07400552814698158 0.17063722171827683 -0.28200225408300567 94 83 79
-0.07399131795755079 0.16958860690706423 -0.2853080902363064 95 86 80
-0.07381880760068214 0.1668353828754919 -0.28888034262141554 97 88 82
-0.0736472867402122 0.16408995717831085 -0.2924613983562567 94 85 79
-0.07357331089858639 0.16239217601839342 -0.2958883304868398 89 81 75
-0.07347749106589038 0.16045712483931304 -0.2993595355699542 97 88 83
-0.07306146849039104 0.15506850182168214 -0.30339001759490253 113 104 99
-0.07358895405700462 0.15984919068897357 -0.30579807546330895 95 84 79
-0.0739066295733873 0.1623701906254382 -0.3085607441960977 91 78 71
-0.07405557058748752 0.16307181969972007 -0.3116161941077943 90 71 60
-0.07443907049342703 0.16630647124524495 -0.3142503422748515 87 66 51
-0.07473310813992193 0.16857714341724186 -0.3170373664440777 88 64 47
-0.07499396012019295 0.17049077143245556 -0.31987912006277447 93 68 50
-0.07515200498007593 0.17129408153993425 -0.3229058768641109 96 69 50
-0.07528924013161807 0.17187259027923912 -0.3259702874574379 99 73 54
-0.07538121129442812 0.17196134126646284 -0.3291194722653117 100 78 63
-0.07519540865908697 0.16904223129184598 -0.3327974698864041 112 98 90
-0.07497346341694179 0.16572858063481966 -0.3365558983245095 118 110 107
-0.07441723063304131 0.15878885715054464 -0.3409736506193869 177 175 176
-0.07429497564448118 0.1565476011474995 -0.3445682994252672 180 179 180
-0.07391356835149321 0.15149293915071965 -0.3486826472460059 180 180 182
-0.07448418212552155 0.1567643149831393 -0.3509218419415571 179 179 181
-0.07477323817591786 0.15898328198005213 -0.3537101493609021 179 179 181
-0.06996851257056355 0.10587780496957117 -0.366806490099339 178 179 181
-0.07074532352509938 0.11337504706744411 -0.3686785332376325 178 179 181
-0.0714456834208568 0.12004752765762977 -0.37068481419120647 178 179 181
-0.07198249959554191 0.12494688707139394 -0.3730104871869521 179 180 182
-0.07522121274949059 0.1592501232620277 -0.36965553484440195 178 179 183
-0.07104580041691942 0.11287293029979582 -0.38186972144304954 179 178 183
-0.07192706086974542 0.12152579097844315 -0.3834528011659034 180 178 184
-0.07280249715954226 0.13012263604081653 -0.385021129961196 170 168 171
-0.07399739923847225 0.14220938169652783 -0.38586921475070446 93 91 91
-0.07455935975357236 0.14740387482759953 -0.38806325078253506 92 87 85
-0.0754809398369384 0.15652647465442407 -0.38944813059038663 94 87 84
-0.07606176049818147 0.161937273684599 -0.39156199553317944 90 76 70
-0.07695339232257842 0.17074694206963448 -0.3929622535910635 88 71 65
-0.07817366828085537 0.18315499106428104 -0.3935914739673801 91 72 65
-0.07945172789426815 0.19620561338022333 -0.3940488842581979 95 74 66
-0.07982940439871605 0.19942124293312435 -0.3965327468354257 100 78 69
-0.08072579002507094 0.20831458170389638 -0.39780597944593277 97 75 65
-0.08125371533930645 0.21318250979275177 -0.3999109609224056 98 76 65
-0.08181660961522064 0.2184374424472211 -0.40191879070936676 97 73 61
-0.08250649461485354 0.2250881125712199 -0.4036092839884583 98 71 57
-0.06924315831926244 0.07782797174779615 -0.4421934726794158 87 55 33
-0.06858049171756084 0.06958257208372662 -0.44737511362086835 93 62 38
-0.06823372686384953 0.0647965365648108 -0.45181377210169427 111 78 55
-0.08525316004629233 0.24981225915191727 -0.416768794561084 111 76 51
-0.08578773129972429 0.2547889298259663 -0.418726352971079 100 64 37
-0.08443796916519715 0.23904849429758837 -0.4254170639321103 102 64 36
-0.08615757353161123 0.25706137288090747 -0.42437057312236925 101 62 33
-0.0855483252898675 0.249457266138372 -0.4292201873607218 102 64 35
-0.08581271621791077 0.25146615096079283 -0.4318465632013184 102 68 40
-0.08526784553376718 0.244560792901983 -0.4365676114954521 94 64 42
-0.08477668518109566 0.23824059463976238 -0.4411733632416309 102 77 61
-0.08438515956084895 0.23301279401439445 -0.4455399368298968 113 96 85
-0.0841019980029811 0.2289752219936977 -0.44963859958398533 140 133 129
-0.08338766314448662 0.22017432154132355 -0.454903995273999 181 181 183
-0.08220131842915018 0.20615245997076936 -0.46147043158144474 181 182 184
-0.08277660248536266 0.21157947420818962 -0.4633157183012665 181 182 184
-0.08238399774531638 0.20631293052983754 -0.4677834999880267 181 182 184
-0.11287560475565173 0.49416380921959135 -0.5648393454869565 195 196 198
-0.11204270432459698 0.4838354998210493 -0.5712228675349781 195 196 198
-0.112948183172762 0.49330421253031487 -0.570731154234593 196 197 199
-0.11183619532207437 0.4797828134508454 -0.5782726362762265 197 198 200
-0.11076802307436014 0.4667472986280533 -0.5856888225919514 198 199 201
-0.11120305348656906 0.47085199346559903 -0.5870813686490972 198 199 201
-0.10802162484409922 0.43367103088687664 -0.6031458212165364 200 200 202
-0.10786478946119755 0.4310017540702768 -0.6070026050701113 201 201 203
-0.081087727332959 0.1241006826193241 -0.7200814691561327 202 202 204
-0.0801603856734136 0.11246286964309826 -0.7276959518913672 203 203 205
-0.07758296178618197 0.08193609403144489 -0.7421936946011344 203 203 205
-0.07872500039973461 0.09394993078330477 -0.7413119206618097 204 204 206
-0.07528003556571554 0.05344768814571068 -0.7595915698309678 205 205 207
-0.07547505723492122 0.054608165365324125 -0.7627063654037166 205 205 207
-0.08556422878145638 0.16918517085931117 -0.7239787147889913 206 206 208
-0.08026269980919648 0.09998393829807319 -0.7772902381743443 208 208 210
-0.08049077815220428 0.10154948233434548 -0.7801694519015346 209 209 211
-0.08082547109282741 0.10434442585773408 -0.7825711228913671 208 208 210
-0.08108821235993262 0.10631233536082361 -0.7852853335386106 208 208 210
-0.08034271226120535 0.09665397598198364 -0.7925155586690973 208 208 210
-0.08050509181653369 0.09746094188222626 -0.7956926714689107 208 208 210
-0.08081287827592383 0.09994687693089785 -0.7982102548269168 209 209 211
-0.08112005374641876 0.10242779027453984 -0.8007231588103155 208 208 211
-0.08142665828629994 0.10490413857790437 -0.8032312232573852 209 208 211
-0.08165600145998883 0.1064892074389919 -0.8060866698757069 198 196 198
-0.08275807295256218 0.11817120569525523 -0.8049110746283786 169 166 167
-0.08303710152195173 0.1203387507011911 -0.8075090081365257 140 135 133
-0.08327819165498629 0.12206869339550928 -0.8102773307259135 119 112 107
-0.0831216508997166 0.11919299836015701 -0.814901666008807 109 99 91
-0.08337896001283707 0.12111113734608019 -0.8175930495188545 106 92 82
-0.08326508793314112 0.11872585533498768 -0.8220321656586346 104 86 75
-0.0830829863162287 0.11554589462831419 -0.826805867016285 100 80 67
-0.08334631596903999 0.11753350881381171 -0.829470097264267 96 75 60
-0.08744674025895792 0.1640934381483083 -0.8137534330675413 94 70 56
-0.08795616577147211 0.16896722918088583 -0.8151380589291332 92 66 52
-0.08813670681477247 0.17002137388066954 -0.8180954732949928 90 62 48
-0.09333850790829075 0.22949235047843589 -0.7966731104840097 88 59 44
-0.09380874431901906 0.23394994238310707 -0.7981024466432649 87 58 43
-0.08951280431898428 0.18290555488550092 -0.8228664066505218 86 57 44
-0.08949849934471259 0.18169681943443988 -0.8267554254683538 86 57 43
-0.08971703018729475 0.1832007210418985 -0.8294998504859246 86 57 43
-0.09002245774918399 0.1857192566951386 -0.8318088561110749 86 57 43
-0.08963138229910246 0.18011168487388873 -0.8375841104680918 85 56 42
-0.08881014152931722 0.1694751044483603 -0.8455377635901042 85 56 42
-0.0879006293095798 0.15779572764379227 -0.8539781037189581 85 56 42
-0.0881359602824899 0.15948496744407567 -0.8566780174152208 85 56 42
-0.0889298585463603 0.16770760265427806 -0.8565373624618685 87 58 44
-0.08886528660450951 0.16589375812798884 -0.8607448627847192 89 59 44
-0.090998682929847 0.1898084312439567 -0.8537031023503654 90 61 44
-0.09147708783749378 0.19436305600254794 -0.8550854438233395 93 62 43
-0.09218326456876927 0.20159121287943305 -0.8552751883511398 96 64 43
-0.09208243525143796 0.19936422531981007 -0.8596269523155218 95 63 39
-0.09217289485260968 0.19937846588640692 -0.8629920785837394 95 61 35
-0.09301263097333445 0.20818682374454256 -0.8624366644180846 96 62 34
-0.0932127298369973 0.2094922975296018 -0.8652119211301772 98 62 33
-0.09533851265598842 0.23342510651531675 -0.8578160846619695 98 64 33
-0.09580543208036424 0.23788103755707551 -0.8591262005917778 98 66 37
-0.09634766761889273 0.24322707317763081 -0.8600197534610313 101 71 44
-0.09601538895110799 0.23828658937188596 -0.8655716365516112 104 76 52
-0.09594647165886991 0.23644138484068933 -0.8697299006699951 104 78 60
-0.09579992145709991 0.23367914687388658 -0.874315886805986 100 79 65
-0.09532386830597181 0.22702957783050542 -0.8806993282820611 100 82 72
-0.0947511217334126 0.2192321073820786 -0.8876364564301613 106 89 80
-0.09589238278786437 0.23165063478162118 -0.8852423163517003 107 90 83
-0.0952693105509639 0.22325219345914538 -0.8924805441337126 106 90 81
-0.09464111730876416 0.21478382118724482 -0.8997815771723032 104 89 80
-0.0944790619243837 0.21181500303708378 -0.904538835580522 100 85 75
-0.0939183536611725 0.20412849663024327 -0.9115241087924574 96 81 71
-0.09432190802616616 0.2078416495210516 -0.9131623863560139 91 75 66
-0.09466055601896911 0.2107899387683836 -0.9151515315274474 98 81 72
-0.09499082889617975 0.21364168643340609 -0.9171780656403061 106 88 80
-0.09522696955750233 0.2153805007267172 -0.9197269009741604 106 87 79
-0.0952860210777925 0.21502100963601237 -0.9232750603782366 106 86 78
-0.09461896314098435 0.20604685165207348 -0.9309613496682676 108 87 77
-0.09526105921482543 0.21260127585663924 -0.9311992048241007 111 88 76
-0.09540720822626528 0.21327253659771866 -0.9342604656786263 107 83 70
-0.09551408822316652 0.21347741629579006 -0.9375473099813293 104 79 64
-0.09557072977986115 0.21308475110172156 -0.9411259944637727 100 74 56
-0.09556681918991261 0.2119708930517376 -0.9450600050753893 99 72 50
-0.0959407824395993 0.21535252030980123 -0.9467952913406 98 70 49
-0.0958963675020874 0.21375535054716627 -0.9509702605458178 94 65 47
-0.09580466087544473 0.21159250007206362 -0.9554316234092286 89 60 42
-0.09639406041505963 0.217546026863221 -0.955880744163115 88 59 41
-0.09354762479337056 0.18252588328793706 -0.9766819583073023 87 58 41
-0.09512786351586366 0.20029334214268601 -0.9712699655004455 87 60 43
-0.09578497530905815 0.20705738295797768 -0.9713069308175455 88 61 44
-0.09632379424125097 0.21241507237581148 -0.9720287084135562 88 61 44
-0.09638992214032638 0.21212796733133737 -0.97557893438501 88 61 43
-0.098529712770916 0.23664020727656354 -0.9665889444879664 88 61 42
-0.09895661557579181 0.2406820559038832 -0.9679047526952312 87 60 41
-0.09950809688604757 0.2462193469926749 -0.9684467277829545 84 57 38
-0.10020003997116192 0.2534448054836669 -0.9681086531921224 84 57 38
-0.1008348908691677 0.25999337225747166 -0.9680942704539389 88 61 42
-0.10101881715816577 0.2611409708793154 -0.9708371072939532 90 64 43
-0.10122002021791437 0.2624966249317032 -0.9734701914557284 87 59 41
-0.10139336675727727 0.26351883003982485 -0.9762728604584007 88 59 43
-0.10148617982663082 0.26357427651780485 -0.9795758947843947 95 66 50
-0.10160394039314433 0.26392911373838057 -0.9827242560550201 98 69 53
-0.10161118773106693 0.26295487689692093 -0.9865681389600994 97 68 52
-0.1016968927263064 0.2629230566977524 -0.989922439549296 97 68 51
-0.10191261307625553 0.2644558945371322 -0.9924546549549237 98 69 51
-0.10199729079173495 0.2644114757549313 -0.9958163153942897 98 69 51
-0.10182842078685755 0.26131076455492763 -1.0007994596245113 100 71 55
-0.10077194692051346 0.2475028689218543 -1.0114879737804037 101 72 55
-0.09758661205649748 0.20799389389066752 -1.0359358805464314 101 72 54
-0.09771933199005485 0.2084959730939524 -1.0391097954709576 104 76 56
-0.13227575823962467 0.6239195601268253 -0.8222319380224407 109 78 58
-0.13237127079876823 0.6242024263368101 -0.8248035700941116 111 80 59
-0.13231867024464095 0.6226931933720264 -0.8283470644765646 112 81 59
-0.10876453022461749 0.3356469589077762 -0.9904207095847691 110 75 48
-0.10894075442220517 0.33674584957511905 -0.9930510736256654 109 72 44
-0.10591747268656732 0.29904863240460156 -1.0169816934832758 109 69 36
-0.10599599322109196 0.2989418567947323 -1.0203392599285752 109 69 34
-0.10648526709256974 0.3038207822723529 -1.0209437978913602 109 67 31
-0.10712616219774704 0.3105463082068939 -1.0205092801433173 109 67 28
-0.10768891007617812 0.31632914869234796 -1.020577056955265 109 67 28
-0.10821392175193793 0.32165911437677647 -1.0208788288319894 108 66 27
-0.10838909585407976 0.3227381739167593 -1.0235421945269887 107 65 26
-0.10871801658859775 0.32568959979079554 -1.0251523768699173 108 68 29
-0.10885530216765352 0.3263096348091347 -1.028066519090694 109 71 32
-0.10903118799101053 0.3274002996824966 -1.0307142437868766 109 71 34
-0.10889498397100768 0.3246859811057552 -1.0355154787673606 108 71 37
-0.10884074917098312 0.3229682044242588 -1.0397614460318694 109 74 43
-0.1091603783796545 0.32581213710208 -1.0414145301748936 106 73 43
-0.10939734691992492 0.32764908431305334 -1.0436350315967984 105 71 43
-0.10974723397581428 0.33086769063437704 -1.0450581780745332 104 70 42
-0.10995337846704427 0.33233163332481597 -1.0474811111246272 104 70 43
-0.11006843835344061 0.33268223497975 -1.050542969511914 103 70 43
-0.11015865104723414 0.3327285266061199 -1.0537813169433794 101 69 44
-0.11021636868524337 0.33237630306576854 -1.0572524540058257 99 68 44
-0.10978158517297253 0.32598668994259405 -1.0642423365503237 96 65 43
-0.1095649382621212 0.3222644443152322 -1.0696982206892418 93 64 43
-0.10956516011306955 0.3211985787119782 -1.073612474663098 88 61 42
-0.10888155327352694 0.3117350556460162 -1.0824668749285047 81 56 42
-0.10825370130381874 0.3029451105290507 -1.0909592065619915 70 43 34
-0.10801754901357573 0.2989592928085608 -1.0966440940286255 62 35 26
