ply
format ascii 1.0
element vertex 675
property float x
property float y
property float z
property uchar diffuse_red
property uchar diffuse_green
property uchar diffuse_blue
end_header
-0.014670758924575172 0.26292638156239995 -0.3186637182583636 103 87 81
-0.015951524695073147 0.26234855022297615 -0.32164132950154983 107 91 86
-0.02168228493907058 0.2599541541655085 -0.32390025740832773 112 97 91
-0.019408089572215848 0.2608276851310194 -0.32744240980589545 117 101 96
-0.019166573178680438 0.2608713805216668 -0.33065980390384886 129 120 115
-0.014252810241009994 0.26282197661966145 -0.3346544225655888 165 161 159
-0.006636966729053589 0.26587501764050797 -0.33911965710670633 181 181 183
0.0009646564675486746 0.2689217901553861 -0.34360943261672006 178 179 182
0.029160562980268173 0.2803716944108423 -0.35164587565319266 179 179 181
0.06442725691700527 0.29470500315005194 -0.36099872847509473 179 179 181
0.07421623281894221 0.2986414131445332 -0.3660315419902726 179 179 181
0.0019463526226526362 0.2690998583939583 -0.35666067150326547 179 179 181
0.05020032232796465 0.28872882589193355 -0.3684567585037606 179 179 181
0.047651140716298584 0.2876318662313324 -0.3713070461705034 179 179 181
0.04179443162893806 0.28518595306760236 -0.3735515740413522 179 179 181
0.07049983888977887 0.29683656975486256 -0.3820914908847777 178 179 181
0.06159051290380374 0.293145356526101 -0.3837949036217189 178 179 181
0.05355481561589409 0.2898108963470335 -0.38563230484356276 178 179 181
0.03365392674050402 0.2816386769602409 -0.38521664314728554 178 180 180
0.0292364118222756 0.27978070784323184 -0.38766812312995746 171 168 171
0.01942713072736174 0.2757247153910858 -0.3890757695839524 104 97 97
0.004385634018864409 0.2695362163019123 -0.3894430362274958 103 94 90
0.00834617915967345 0.2710947091602875 -0.39345643403849223 100 88 84
0.00346004943433853 0.2690468772369255 -0.3957492130528845 96 81 76
-0.03249618819529072 0.2543354594224986 -0.3918794735231722 92 75 68
-0.03864550676451675 0.25177423030039386 -0.39383749034774074 90 73 65
-0.046465413519981374 0.24853251973729718 -0.3954399238317266 101 83 76
-0.06333931144456549 0.24160172473791092 -0.39517996028057256 100 81 72
-0.07124148654423529 0.23832762281772393 -0.39670009189129585 99 79 70
-0.061901869174469326 0.2420790115508183 -0.4017521217912804 93 73 63
-0.07875653115718872 0.23515791356813523 -0.4013884667206852 94 71 61
-0.08136046155150448 0.23404330893556852 -0.40395753254638844 94 65 51
-0.08355171823293417 0.23309693795882203 -0.4066063827627289 85 53 36
-0.07443944801106703 0.2367548936280601 -0.41165794162854386 80 47 30
-0.08635932011468846 0.23184596654348943 -0.41222418260845944 86 54 35
-0.09614516476263107 0.2278068347819937 -0.41321332906535874 90 57 38
-0.10002890081299715 0.22617181736493638 -0.4154583997991226 87 55 35
-0.09861776211789065 0.22669312394212338 -0.41885594002530374 82 50 29
-0.0990310838208394 0.22647144130595384 -0.4218553566957693 81 49 28
-0.10145336235602538 0.22543181245829502 -0.42440614653566694 79 47 25
-0.10728755914532337 0.22300323996066496 -0.42618239279796744 77 45 23
-0.10634895477638541 0.2233321351145428 -0.42947552174217785 81 51 30
-0.10586558816836181 0.22347564157763555 -0.4326692344067072 84 55 36
-0.1063161669486149 0.22323894997494437 -0.4356510532841738 82 54 39
-0.09991651070589236 0.2257903272594449 -0.4402206575242403 94 72 62
-0.09662788271492095 0.2270751978285605 -0.4440869838447164 101 88 83
-0.09309813591320637 0.22845797271767224 -0.44802262202357535 140 135 133
-0.09861469149549831 0.22615944363759014 -0.44982835282427774 182 182 183
-0.1051861779052012 0.22343198058937566 -0.45136487469107267 180 181 183
-0.1124135182206536 0.2204380438243309 -0.4527226851270489 180 181 183
-0.12077281253113645 0.21698400176856236 -0.45378316442283956 180 181 183
-0.11913172016634915 0.2143150057430856 -0.6473668977486318 191 192 195
-0.09598807645451027 0.22363219780895283 -0.6586571474003637 191 192 194
-0.07446477188615908 0.23229186939198615 -0.6694581683848295 192 193 194
-0.03711949038137699 0.24735618661481887 -0.6859502032552204 193 194 196
-0.03289063899487463 0.2490110828864429 -0.6907667848767963 194 195 197
-0.02558007272946855 0.2519132289089304 -0.6967040338043242 194 195 197
0.06527501281436121 0.28857232120811216 -0.7362462253553618 195 196 198
0.05359730265912893 0.2837856757172496 -0.735495191437993 196 197 199
0.07534792367870868 0.2925280230369841 -0.7469187871508316 196 197 199
0.07203104583328362 0.29112506751387374 -0.7492171606151995 197 198 200
0.06772506571256953 0.2893220616670249 -0.7511405056764741 198 199 201
0.06348078302928206 0.28754425433530434 -0.7530730881453357 199 200 202
0.05886621075158838 0.28561686936867237 -0.7548543313973368 199 200 202
0.056320315348317385 0.2845266084240075 -0.7573949737486323 199 201 202
0.052170109100447504 0.28278751165835714 -0.7593249784858311 200 201 203
0.048035169582063 0.28105481656685005 -0.7612476332188279 200 201 203
0.043825650676314054 0.27929218349653506 -0.7631289108025052 201 202 204
0.038386727534455406 0.2770325840271937 -0.764528068482562 202 203 205
0.034144372691246094 0.2752571711915324 -0.7663678892383974 200 201 202
0.029770661534271714 0.2734288759793748 -0.7681436771777558 185 184 182
0.025209029805062205 0.27152484004589944 -0.769832855090482 154 149 147
0.020547220181836384 0.26958055506620215 -0.7714684919288544 129 120 118
0.015289852788870184 0.2673957642964297 -0.7728567605225746 114 102 100
0.009933093763030698 0.2651710914989913 -0.7741889486114646 102 88 86
0.005656351640448476 0.2633832705309327 -0.7759288786758819 94 78 73
-0.0005353100352028517 0.26082172152223565 -0.7768977897860225 92 74 67
-0.006541073905647399 0.2583356559385532 -0.7779200728143462 90 73 65
-0.021780486144243993 0.2521184840254985 -0.7752377169680823 85 67 57
-0.024122935563734932 0.2511136726874019 -0.7776722922336836 81 63 50
-0.03022617870996272 0.24858942011691096 -0.778585862076359 80 59 48
-0.03609164408972182 0.2461615843319289 -0.7795753640728886 78 56 45
-0.039957408319454074 0.24454194508226945 -0.7813577306912234 78 54 42
-0.04438344930858901 0.24269618819221528 -0.7828992473873191 77 54 42
-0.06789916401397138 0.2331397948925185 -0.776604347914491 76 54 42
-0.0628052977355576 0.23514019825730081 -0.7820010628891839 75 52 40
-0.06534270790473076 0.23405823427797368 -0.7842632432396777 75 49 38
-0.06849968213333532 0.2327261981141124 -0.7862606654276171 74 49 37
-0.07409530691862456 0.23040958899662348 -0.7872316180331979 72 48 36
-0.07899712521020844 0.2283734415781835 -0.7884745442901291 74 47 36
-0.06101800732025489 0.23557561929325432 -0.7993224297252565 74 47 35
-0.05701843260805922 0.23713293056414964 -0.8043330152579431 73 45 33
-0.0200358551788494 0.25200462825119024 -0.8233462870872674 72 44 32
-0.02429764665344117 0.25022565865914637 -0.8249295111403026 72 44 32
-0.025811884384011774 0.24955589549498342 -0.8276739813171987 72 44 32
-0.025382807447833555 0.24967050109010167 -0.8312490980804552 74 44 33
-0.017583579769019725 0.2527593411679287 -0.8380055575339239 75 45 34
-0.01300686670711551 0.2545472974566854 -0.8433961145801132 75 45 34
-0.01516356243247019 0.25361803569624647 -0.8458768022489126 76 47 34
-0.008043682000945157 0.25643165978944676 -0.8524016510536159 77 49 35
0.003175126951998064 0.26089846415029905 -0.8607506987303983 79 50 36
-0.008986617519638446 0.25593274901784246 -0.8588491211049128 81 52 36
-0.016034950947249715 0.2530303712894577 -0.8591655668880706 82 53 35
-0.01616467171036412 0.2529189668967886 -0.8625287975610848 84 54 36
-0.011545332840120548 0.2547228877613536 -0.8680093821062845 87 56 36
-0.017677144560904856 0.2521907803546128 -0.868697897830141 88 57 37
-0.025363937797675096 0.2490319846545141 -0.8686673409292464 89 57 37
-0.03230491247716821 0.2461743673982667 -0.8689470032611044 90 58 37
-0.034953808034954514 0.24504766046527876 -0.8711467522931104 93 58 36
-0.04036781900236752 0.24280632334036834 -0.8720813736469266 92 57 35
-0.11879716093454146 0.2111311184544314 -0.8396709215672351 91 57 31
-0.11044640598491401 0.21444114956051452 -0.8467452658265456 92 57 31
-0.11079871567409183 0.21424276912016227 -0.8498474033072589 94 57 31
-0.11596261492022927 0.2121051718646693 -0.8507274680822006 94 57 30
-0.11422793873511909 0.2127479862679626 -0.854789003782226 96 61 31
-0.11440660201176799 0.21261965367214006 -0.8579676828167115 99 65 40
-0.10987518490385599 0.2143891667682679 -0.8633481801193524 98 66 47
-0.10197031269251818 0.21751755103844173 -0.8703290787202762 96 67 46
-0.0948124118212516 0.22034447986690187 -0.8769883634367612 94 67 47
-0.09416451526394012 0.22054843167062102 -0.8805976473320875 92 65 48
-0.09674424476059172 0.21945219479185996 -0.8826791477278241 86 63 47
-0.09503356257547695 0.22008418243223607 -0.8867965595325654 86 63 47
-0.09530216538323262 0.21991888382483554 -0.8899752537568979 85 62 46
-0.08963137893456465 0.22214546625064252 -0.8960053209366797 84 61 45
-0.08969035716364268 0.22206437541993407 -0.8992968785277252 81 58 43
-0.10015766208553752 0.2177923102908567 -0.8975560269495574 78 55 41
-0.09861569764696641 0.21835607667447926 -0.9016084263708473 77 53 41
-0.09488362209407218 0.21980143884357017 -0.9067351076870501 72 47 35
-0.09753183956077355 0.21867809284441142 -0.90875639969627 70 45 32
-0.09953363606411639 0.21781508978824943 -0.9110868933421862 78 55 41
-0.10190967337519527 0.21680155591641254 -0.9132272097174392 81 59 46
-0.08289673042914741 0.22439646232426594 -0.9259382908576959 82 59 45
-0.08501449668806943 0.22348643857052675 -0.9282315181790775 82 59 43
-0.08633959606484717 0.2228954926025401 -0.9309134539944018 83 60 44
-0.08801150251003348 0.22216505881872153 -0.9334186711047753 86 60 43
-0.08784339847985446 0.22217501194741218 -0.9368427220528733 85 60 40
-0.09299482447467125 0.22004484179660416 -0.9375895902368356 85 59 39
-0.0954223524246999 0.21901072879040773 -0.9396961017702542 86 61 41
-0.0995575645401369 0.21728983665056867 -0.940928895221097 88 61 42
-0.11008559108653013 0.21299790884213693 -0.9388930899571882 85 58 39
-0.08075986955425657 0.2247350408462711 -0.9571853310781372 84 57 38
-0.11511952742430362 0.21085925604458017 -0.9429269590132641 86 59 41
-0.10911958645201286 0.21321492940061504 -0.9493156374904146 90 63 47
-0.10223231928940053 0.21592697814647416 -0.9561861257054254 94 70 56
-0.07949375786909599 0.22501164670815701 -0.9712995339991828 99 76 62
-0.09179381670448307 0.22000852704305413 -0.9682721993686584 97 75 62
-0.09943800642043223 0.21687777802459365 -0.9676316025935047 92 69 58
-0.1062597043635467 0.21407809555380616 -0.9673953161183255 94 69 55
-0.11294335188047658 0.21133430581739443 -0.967208064819105 95 69 53
-0.12079457115120204 0.20812167188827166 -0.9663818670237303 93 68 52
-0.12727107860435405 0.20546195761403657 -0.966256016631313 93 67 52
-0.13127766330460067 0.2037951233388743 -0.9674198449666436 93 67 52
-0.15788497890010195 0.19304753364946403 -0.9565236125340202 94 68 53
-0.1435333219230129 0.19875764157420617 -0.9674386069353537 94 68 53
-0.1436360413173619 0.19865995503867115 -0.9706501366860546 95 69 54
0.05808832711885531 0.27957430363796787 -1.08619935049915 94 67 53
0.059249726180318485 0.2799778462721121 -1.0904722759851195 95 67 53
0.050739748590373 0.27649717013690295 -1.0894890645995141 95 66 52
-0.13205722350435617 0.2027993438931286 -1.0065231106437478 94 66 52
-0.13908919624463795 0.19991953702263598 -1.0059220659320764 96 69 55
-0.14513244464536368 0.19743701357053456 -1.0058472559396563 96 68 54
-0.16393858213582785 0.18983241630235317 -0.9986185518618281 92 64 51
-0.1705945827501399 0.18710511186329196 -0.9981347303112759 88 58 41
-0.17102272425794637 0.1868773840908901 -1.00113148927687 83 51 31
-0.17328010970274965 0.185915659641088 -1.0030956369535813 81 47 25
-0.17353272217990912 0.1857584204841771 -1.0061882175724708 79 44 20
-0.17455484626024198 0.1852924485688968 -1.0088441466028433 76 41 15
-0.1676947291667733 0.18798856828137045 -1.0159908211677842 77 42 16
-0.16909414628921562 0.18737107953072465 -1.018441028944705 78 42 16
-0.1724421113803966 0.18597209737079998 -1.019769576018573 78 41 16
-0.17832159114262985 0.18355800203410763 -1.019630029085279 77 41 15
-0.1801177472380594 0.18278180642707606 -1.0218280585417903 80 44 18
-0.17948365872181737 0.18298023068835187 -1.0254287934281536 83 49 22
-0.18022265962580167 0.1826280224317307 -1.0282353666055735 85 51 24
-0.18096140099904337 0.1822759399333928 -1.0310408345328295 84 50 24
-0.1821985664771225 0.18172405877344194 -1.0335535103269033 83 49 25
-0.1879479089056733 0.17936342572928696 -1.033415412165913 83 50 28
-0.1900031838661455 0.17848386686135784 -1.0354318526912178 87 55 34
-0.18660545523376398 0.17979001994013605 -1.040662188033706 85 55 34
-0.1873645045853825 0.17942999392791265 -1.0434443111795604 83 55 34
-0.18902295602112706 0.1787095619198819 -1.0456906244636113 81 53 32
-0.1886573427747519 0.17880027561185097 -1.0491388218171656 81 53 35
-0.1893338106376037 0.17847340037551485 -1.0519667293625652 81 54 36
-0.1870368125475882 0.17933785053066542 -1.056577277791272 82 55 39
-0.18396738838572352 0.1805115707228847 -1.0616627248955064 81 55 37
-0.18093488385555626 0.18167027701027974 -1.0667388902234003 80 54 38
-0.17928360170025232 0.18227551364860434 -1.0709916221856766 77 53 39
-0.18437956111947337 0.18017823462134053 -1.0711540625021077 74 50 39
-0.18477780850508696 0.17996261938512448 -1.0741609043992504 72 48 36
-0.19290427031074114 0.1766522262262654 -1.0724449617929206 67 43 31
-0.1859956709426938 0.1793626643588336 -1.0799163386060782 59 35 23
-0.17951606235748693 0.18190086588358179 -1.087151403731251 54 30 17
-0.1768076794720933 0.1829287934558554 -1.092086444110429 55 30 18
-0.18079126020513803 0.18127757847132805 -1.0928933561742342 59 33 20
-0.18339528603067873 0.18017881746034753 -1.094542827553604 61 34 21
-0.1820015426950735 0.18068033470572578 -1.098672190015118 65 38 22
-0.18344757800293524 0.18004518607918218 -1.1010355203467928 67 39 20
-0.1846155596619733 0.17952138013278288 -1.1035690280049149 72 42 21
-0.1850181968200221 0.17930388378406042 -1.1065803215317422 79 48 25
-0.18590059015957527 0.17889442407859213 -1.1092894049401743 80 50 26
-0.187347386605146 0.17825918116124725 -1.111640082002465 83 53 29
-0.18841208684485428 0.17777686834434744 -1.1142289537532468 85 57 33
-0.18894913626346316 0.17750567436805084 -1.1171506948739134 88 62 39
-0.18942998769313768 0.17725696816420558 -1.1201077528153136 91 65 43
-0.19021053231580254 0.1768884006500948 -1.1228729001859765 89 64 42
-0.19176985185798465 0.17620840149484726 -1.12513722103061 85 60 38
-0.1932165425382506 0.17557351804817392 -1.127469602111021 82 57 37
-0.1941866569633725 0.1751292694222519 -1.1301054418918535 81 57 36
-0.1931573986530553 0.17548447329194308 -1.134032598758204 81 55 37
-0.19491245013566938 0.17472641549952822 -1.1361586287793997 81 57 38
-0.1915865976782298 0.17599962711857303 -1.1415858118779787 78 57 37
-0.19573180290425024 0.1742861523656727 -1.142151345842459 79 57 42
-0.19244503202991406 0.17554349929857993 -1.1475670588764877 70 50 36
-0.19085878687103688 0.1761209564575048 -1.1518805171241797 69 55 42
-0.1908650215755416 0.17606187005008544 -1.155153171882603 88 78 67
-0.1989878892784377 0.17275932093093618 -1.1530685981920525 120 113 105
-0.2006884680780975 0.17202343828767014 -1.1552069888761272 150 147 144
-0.18829894655521248 0.17691717209676924 -1.1666965291383278 166 165 164
-0.18577328630617762 0.17786940164747878 -1.1716661810169173 178 176 176
-0.19165408023545427 0.17546329287656906 -1.1710329502575694 184 182 183
-0.15932535561253997 0.18831993248887108 -1.1959688680724314 189 187 188
-0.08705789712711243 0.21712620899156837 -1.2478536904193775 194 192 193
-0.08212132141799097 0.219037523146464 -1.2546655475100288 196 194 195
-0.23920504940578052 0.1562471870168354 -1.1520618538381804 198 197 198
-0.23846439401457284 0.15648766925934993 -1.155763431733589 199 199 199
-0.23627407533644104 0.15730689073701584 -1.1604540380159487 199 199 199
-0.23857104844948404 0.15633442746712795 -1.1620978920016034 200 200 201
-0.23495241839410805 0.15772365054045534 -1.1677753185172888 201 201 201
-0.25426601707178675 0.14995861865887666 -1.1577596462087612 202 202 202
-0.25240495592508 0.15064654830793375 -1.1622166188801335 202 202 203
-0.14305702689923308 0.19417475388181266 -1.2441156402811449 203 203 204
-0.18965018741769316 0.1755233979470568 -1.2152390107175308 204 204 204
-0.1742121428463726 0.18162619901970944 -1.229270074393488 205 205 205
-0.16417446180753248 0.18557332825134504 -1.2396006235567911 206 206 206
-0.22297070287651913 0.16160919208529037 -1.2279333366852105 209 209 211
-0.2101005935882851 0.16668347455946048 -1.2404057706858043 209 209 211
-0.20674730811115005 0.16796335186217465 -1.2460998357001634 210 210 212
-0.1803518096136506 0.1784271194205125 -1.2683884215255832 211 211 213
0.03706277504656791 0.29400317796238107 0.05208385439548542 182 182 184
0.06654014878857328 0.30613488048082355 0.05000548790313321 182 182 184
0.06156399021929254 0.3040243645264129 0.04668609648566764 182 182 184
0.05532465610404608 0.301392024183416 0.04334118666781943 181 181 183
0.04912207439082367 0.2987751880854725 0.040015898308716644 182 182 184
0.04431036416722489 0.2967334381760113 0.036748639890031395 181 181 183
0.038612740173297785 0.29432585006679823 0.03347154858725268 182 180 182
0.031765013421089935 0.2914433352933536 0.030182185790686007 184 176 174
0.027001858478427385 0.28942244163939 0.02696273743235665 166 154 150
0.023529790237800885 0.2879351807748701 0.023785698222536695 135 119 108
0.02135759758299456 0.2869850783255555 0.020645076232814277 108 88 74
0.019598273586937193 0.2862056205825923 0.01751787311773594 95 70 53
0.020470868727054795 0.28651336621061047 0.014440545738898587 87 59 40
0.019781208180291568 0.2861757850474908 0.011334543497271594 84 57 37
0.019770560250393157 0.2861186521521424 0.008239008123429013 88 62 41
0.019714384634753584 0.2860426954478445 0.005141608864343904 89 62 42
0.019658055007715253 0.28596665557177126 0.002043059040845726 91 63 43
0.019601794693239527 0.28589062473882076 -0.001056639265110744 91 64 45
0.01951412162556737 0.2858016042195521 -0.004157730207214574 91 65 47
0.019700432003801158 0.28582568406088865 -0.007258194764824283 90 64 45
0.02065779479080307 0.2861680507525596 -0.010357105932836414 83 58 41
0.019802287558028084 0.285761970364542 -0.013465701165672663 89 67 52
0.02219953919522183 0.28669859864310676 -0.016568628154535865 103 83 70
0.024731188477707222 0.28769054653452186 -0.019680623631376497 125 108 98
0.02813635497524236 0.2890428587256763 -0.022803745927004966 155 143 136
0.03181900036037927 0.29050947762693036 -0.025940119643175177 183 175 172
0.03450466713387655 0.2915644449683895 -0.029084572496453548 184 180 181
0.03865620905896708 0.29322413053574636 -0.03224885953917134 182 182 184
0.03747737561247072 0.29268415085921284 -0.03538344728782532 181 181 183
0.03924249556716977 0.2933588635077403 -0.03854485413086927 180 181 183
0.04312500731695888 0.2949070165219366 -0.04173774882118871 180 181 183
0.04648532690541432 0.2962395099152401 -0.04493763117641948 180 181 183
0.04159449331079505 0.29416811745400095 -0.04802783157306095 180 181 183
0.01320395855153142 0.2821915916568782 -0.06317271203318993 180 181 183
0.00800316135092105 0.27999397041394536 -0.06616241698178792 180 181 183
0.004315638866406651 0.2784205614304108 -0.06917610359746328 180 181 183
0.006061295600818861 0.2790873749432895 -0.07232961437886054 180 181 183
0.0019995058152882383 0.2773598807783884 -0.07531995293564558 178 181 184
-0.005020761619979858 0.2744130017533606 -0.0782070194866522 179 180 182
-0.0074573743037664175 0.2733559003478332 -0.081221835337412 181 180 179
-0.00011090904478400221 0.27633129112224564 -0.08456424536275468 182 179 177
-0.005471835773959072 0.2740688826682447 -0.08747717402814016 183 180 178
-0.007401297562442233 0.2732209361779522 -0.09050239152311462 182 178 177
-0.009319231866026748 0.27237782392881216 -0.09352313958293167 154 145 143
-0.014407696815107077 0.27022831862054214 -0.09641015126473323 124 109 104
-0.019032595259472707 0.26827008031608895 -0.0993015759766031 120 101 93
-0.0214189548032587 0.2672343830254334 -0.10227755946116042 128 106 97
-0.054204791782550894 0.2536746460308477 -0.10386361292268255 124 100 89
-0.07093029091551509 0.24673288608112226 -0.10610146522275679 112 86 75
-0.09107165927437536 0.23838493028771812 -0.10811968325777234 108 81 68
-0.10182169539505717 0.23390638253412213 -0.11054689482281327 109 81 66
-0.10583643909851806 0.23220250651425323 -0.11329074521864554 108 80 63
-0.1135826845865789 0.22896202309416544 -0.11582263516492498 118 85 67
-0.11995734007084151 0.22628679511453692 -0.11840638131178963 114 79 57
-0.05877730250944666 0.25143035657293306 -0.1248145186585449 108 75 52
-0.05145835392328956 0.25439244869040994 -0.12827084990641743 112 79 57
-0.05962986271107486 0.25097613157965587 -0.13082044120939496 115 82 58
-0.07523472006687978 0.24449987499083667 -0.13288536681668228 104 71 45
-0.08667393420098936 0.2397393778251442 -0.13516487329119103 96 62 35
-0.10156745014521312 0.2335575222914035 -0.13718360215639566 91 57 31
-0.051622511581869625 0.2540655922588508 -0.14347906938130778 86 54 32
-0.05167996142354306 0.25399002617723404 -0.14652266883508674 78 47 27
-0.12294661459487456 0.22460692946129424 -0.14458565683464944 76 46 28
-0.12547900306486032 0.22351476950413884 -0.1473378661487829 76 49 30
-0.12621680489071743 0.22316122551894732 -0.15021448056029016 75 54 40
-0.12524300577101755 0.22351200002489466 -0.15321809554702978 76 57 49
-0.11904394481113825 0.22601267232111963 -0.15662593468378075 78 61 51
-0.11663922120413417 0.2269518737442275 -0.15975885527900904 81 64 56
-0.1126539267899231 0.22854116872339708 -0.1630270409595611 77 62 55
-0.1070575403532088 0.2307929803173769 -0.16644075832794605 74 59 52
-0.10048675035627959 0.23344527409447408 -0.1699550602324226 74 59 52
-0.0975928188340505 0.23458482060273841 -0.17318077304650278 75 60 53
-0.09610532156347484 0.2351457308437012 -0.17629584373621537 75 60 53
-0.09861328556437263 0.23406335440825138 -0.1790655415611072 77 61 54
-0.09434531754928172 0.23576758973567857 -0.18243564214198185 77 61 54
-0.0958921788870054 0.23508047129873355 -0.18529031663033127 75 59 52
-0.089196156033449 0.23778270954552283 -0.18890714828065636 76 61 54
-0.09125403494507776 0.2368853842147533 -0.1917194880490262 80 65 58
-0.08591039951783498 0.23903107640448737 -0.19523848594897467 80 65 58
-0.08172290781497854 0.24070116291318622 -0.19866325268334523 82 67 60
-0.07811190832476711 0.24213401576786073 -0.20204576575442987 83 69 61
-0.07291411231967329 0.24421887649020624 -0.20560201475260936 83 69 60
-0.06383951469485545 0.24789682517224593 -0.2095752839173814 83 69 60
-0.058854210876841284 0.24989361725872647 -0.21315267205283683 83 69 61
-0.054838250689833945 0.2514917512864054 -0.21664499606297066 87 72 65
-0.05141281910030909 0.25284697350881824 -0.2200882856890156 89 76 68
-0.04869601742106468 0.2539108061421756 -0.22346670248216477 90 77 69
-0.04488014915183938 0.2554260351696131 -0.22697750739230155 92 79 71
-0.040600734176105546 0.2571314701460682 -0.23055452604094023 94 81 73
-0.03605513183571364 0.2589459940321088 -0.2341774960129404 101 88 81
-0.03711038653861452 0.25845949410157715 -0.23716702924981278 103 91 85
-0.03209950820214151 0.2604647319932499 -0.24086828843226343 103 93 88
-0.026501535298730353 0.26271080008286346 -0.2446575667560836 107 98 94
-0.021710179180030306 0.2646252516168071 -0.2483691648410624 110 102 99
-0.01733123336764289 0.26637004406439085 -0.25204743402121854 122 116 114
-0.014072854376870517 0.26765441253359706 -0.25560230310238174 137 131 131
-0.013890662476273838 0.26767544498920426 -0.25878185780967033 153 149 150
-0.00999688071095478 0.2692203728965716 -0.262437101987973 171 168 170
-0.006343307932718381 0.27066643714867855 -0.26607560274338937 179 178 179
-0.005662152458211764 0.27089200434988 -0.2693383877064485 180 179 181
-0.0030866630570221126 0.27189513670133575 -0.27285603770955225 180 179 181
0.0018339352906874135 0.27386070432569515 -0.2766985331636718 179 179 182
0.0009155856223295455 0.2734294019038022 -0.27976505025744 178 179 181
0.003365628328392628 0.27438057229621515 -0.28329340958843074 178 179 181
0.004932649996770927 0.27496919834967504 -0.2867083474157618 178 179 181
0.011400756046853144 0.27756892044986675 -0.2908206359499618 179 179 181
0.01929811530233358 0.2807547191162931 -0.29515969653639146 179 179 181
0.006793470110613098 0.2755690380233444 -0.2965831420133142 179 179 181
0.008167739898428228 0.27607821197707155 -0.29999171918734424 179 179 181
0.012659786308011511 0.27786634025516765 -0.3038664864947793 179 179 181
0.017330087277563633 0.27972731224305675 -0.30778426822929766 180 177 180
0.008924863191217297 0.27622455219759046 -0.3097453883906629 180 175 179
0.000755051224695602 0.2728188034169785 -0.31171576407367735 158 154 156
-0.0053254750677341756 0.2702703798608205 -0.31398258607805646 138 131 132
-0.008768163236484827 0.2688040667932772 -0.31664187095129603 121 114 113
-0.0100382689597137 0.26822884891104193 -0.31963350690668435 126 120 120
-0.010938487985549958 0.2678053505243682 -0.32268121685343415 135 130 131
-0.012250503821014433 0.26721303534935825 -0.3256610214241664 146 141 142
-0.012213516384507822 0.26717384892590734 -0.3288572539099786 165 160 161
-0.009806592792646451 0.2681062187573218 -0.33244446668330396 181 179 181
-0.00569963054404149 0.2697353287770584 -0.33632337350428926 179 179 181
-0.0015508081755348235 0.27138133876274273 -0.3402244829367352 179 178 180
0.0017327641924476112 0.2726724426328666 -0.3439943839103493 179 178 181
0.004825657003154821 0.27388518514526183 -0.34774410893201557 179 179 181
0.0837434909788635 0.3061721823458498 -0.36460232720902175 179 179 181
0.07957042755033797 0.30440483713312744 -0.3672358854193357 179 179 181
0.04393158172912706 0.28957564880530834 -0.37421266764909067 179 179 181
0.09545823258012359 0.3106271072160275 -0.3869342891759799 178 179 181
0.08598254620427259 0.30668794393146187 -0.38857598933125087 178 179 181
0.07314270724300978 0.3013713795160262 -0.3895608766792112 178 179 181
0.09762395731761883 0.31134076326339244 -0.3975155786437327 178 180 180
0.07154363404158567 0.30060215559386505 -0.3959698959016137 179 179 180
0.04633277343970382 0.2902210696956621 -0.39450395472746536 125 120 120
0.0158092752039857 0.27766602207136254 -0.3919293480840926 104 95 91
-0.00101850081242022 0.27072035472077616 -0.39191861873263945 105 91 88
-0.011732174884424795 0.26627884576104405 -0.3930527453772164 91 75 70
-0.023056013344939716 0.26158813595732505 -0.394031253272222 94 76 69
-0.037236070342892266 0.2557288363878491 -0.39440248923224364 95 77 70
-0.05067812437617289 0.2501724171472979 -0.39487577134136953 102 84 77
-0.06120450427787033 0.24581013819088887 -0.39589706722288803 100 81 71
-0.060646350749380504 0.24598503529858515 -0.3991539639542607 93 73 64
-0.06069830822282045 0.24591019262918773 -0.40228816894339536 91 71 62
-0.0800157820664089 0.23795160005518215 -0.40141313047078075 94 71 62
-0.10334402630858394 0.22835295053461327 -0.39963223993012076 91 62 49
-0.1094698841735609 0.22579409842938933 -0.40141290347109876 82 49 32
-0.08331533513766255 0.236442389565046 -0.41005818413369644 82 49 32
-0.0870321555245033 0.2348688005380966 -0.41237261808474385 88 55 36
-0.08480094366547287 0.23572856435154355 -0.41596447155235106 90 57 38
-0.09382340690103175 0.23198496136684343 -0.4171079867291877 81 49 28
-0.09715053270263051 0.23057131904511716 -0.41947548438453 80 48 27
-0.09753884481554026 0.23035977110226513 -0.42248473512268425 81 49 28
-0.09311850073691748 0.23211474159054793 -0.4265685718291531 82 50 28
-0.10361112105640499 0.2277711482514657 -0.4273110012011143 83 51 29
-0.10299644949392396 0.22796986754692025 -0.43053891669745065 85 55 34
-0.10221698825119815 0.2282359048994944 -0.4338079609943831 85 56 38
-0.09917086516874582 0.22942857089675694 -0.43760298774488177 89 62 48
-0.09622805144397814 0.23057880271470543 -0.4413858116083969 99 79 69
-0.09280376678185351 0.23192565557848616 -0.4452925672305043 110 99 95
-0.09129591218352112 0.2324889437034837 -0.4487612751754917 166 163 163
-0.10026388659667879 0.22877042327804228 -0.44975266640182293 181 181 183
-0.1061883262342485 0.22629627117989023 -0.45144162156001155 181 181 183
-0.11285279647935634 0.2235200173722449 -0.4529337030978234 180 181 183
-0.11967500689327987 0.22067967054298465 -0.45436615042657286 180 181 183
-0.04833097906740727 0.24646623674696155 -0.6692821022732475 191 190 195
-0.051413557571318186 0.2451562706990939 -0.6714889659732902 192 192 195
-0.08245868296600872 0.23247208351009946 -0.6638565973351116 191 192 194
-0.06038062140243344 0.24139716430964467 -0.6748846790526251 192 193 194
-0.03938838051318255 0.24987927946147626 -0.6856064339870181 193 194 196
-0.020983724405394977 0.25730778539637367 -0.6954803191819323 194 195 197
-0.012907018861677333 0.2605352793488054 -0.7017171527096301 194 195 197
0.0454215226226761 0.2841367997602666 -0.7295527755067103 195 196 198
0.08365014487208569 0.29962010995464033 -0.7469255349371904 196 197 199
0.08190155028923696 0.2988490865880351 -0.7498176172665694 196 197 199
0.08035954053078556 0.29816211840836465 -0.7527810147326175 197 198 200
0.07474231357287342 0.2958187561758643 -0.7542360963409344 198 199 201
0.07340237657979448 0.29521417298775154 -0.7572595270493734 199 200 202
0.0692156352194343 0.2934526700894666 -0.7592187761659167 200 201 203
0.0648094733409327 0.2916022242109612 -0.7610826280287705 200 201 203
0.060579437281039206 0.2898235859969979 -0.7629987322207967 200 201 203
0.05700139146844119 0.288310093280432 -0.7651479013616528 200 201 203
0.05248447117138211 0.28641533376630185 -0.7669293945792305 201 202 204
0.04687652435587089 0.2840775793013291 -0.7682801554110669 202 203 205
0.0428113949043768 0.28236687585966863 -0.7702040221815006 203 204 206
0.03943047448917583 0.2809343170676124 -0.7723785340372958 202 203 205
0.034255344158827444 0.27877318225896963 -0.7738484562180968 203 203 204
0.02952313231580972 0.27679222054769126 -0.7754737128430107 191 188 189
0.025290559260770812 0.2750144265426272 -0.7772787992498807 163 157 158
0.020699014452811137 0.2730910913922069 -0.7789296070754952 131 122 121
0.015860822504967814 0.2710678571334616 -0.7804684675193436 113 102 99
0.009561980192228647 0.26845183883341256 -0.7814135815256646 101 88 83
0.0037886637155865044 0.2660495332191388 -0.7825467537086536 97 83 77
-0.007611015074403843 0.2613634866920958 -0.7814141065419836 95 80 72
-0.014918407873380557 0.25833927635883513 -0.7818838771915738 91 75 65
-0.021464411314422893 0.2556245291756706 -0.7826359027501781 84 66 56
-0.029527451957870737 0.252294438918329 -0.7827521987210682 81 61 51
-0.03348344969421857 0.25063159919079836 -0.7845106351116165 80 59 49
-0.039228094586712225 0.2482431307631462 -0.7855262570160485 78 57 45
-0.052014244036439145 0.24299771710584336 -0.783635605525875 77 56 43
-0.052954082242035044 0.24255963608209696 -0.7865793862069401 77 54 41
-0.06125628495200461 0.23913456896307905 -0.7864761614225202 77 54 40
-0.06484131628592307 0.23762366276475272 -0.7883042675075845 77 52 38
-0.0699404083341215 0.23549876541073536 -0.7894894043479943 75 52 39
-0.07374884347316528 0.23389767353396046 -0.7911985495572634 76 49 38
-0.07486523463459964 0.23338866131540775 -0.7940282835125436 75 48 37
-0.061315447471094714 0.23882773619609282 -0.8030528487652031 75 47 35
-0.04321908588060233 0.2461097371280441 -0.8140568231570606 73 45 33
-0.04364694399224009 0.24587901879350832 -0.8172332035119737 73 45 33
-0.04224176185938863 0.2463915440920486 -0.821194002773071 73 45 33
-0.07601284237774565 0.232642101211312 -0.8100449792662934 74 44 33
-0.08467519821053202 0.22907400605322237 -0.8096113430859424 75 45 34
-0.09946774211677145 0.22302136843345688 -0.8064917315624438 76 46 35
-0.07122374191402536 0.23441438724382177 -0.8220465682034185 79 50 37
-0.07962329629780437 0.23095338214817174 -0.8216941760704922 80 52 38
-0.08677498439476188 0.22799860972940708 -0.8218605388997074 80 52 37
-0.01265420107225071 0.25798041101125196 -0.8578045841446036 81 52 36
-0.005021811171606383 0.26101485559392673 -0.8646080275553893 81 52 34
-0.0019601108961974645 0.262196786009359 -0.869410596571736 84 53 35
-0.005310011832388217 0.2607807517623453 -0.8713667032623366 86 54 35
-0.008172273444718242 0.25956245543610745 -0.8735306306627209 88 55 36
-0.011207418764675292 0.2582742726327045 -0.8756080873234368 89 57 37
-0.015050128793300643 0.2566591280107612 -0.8773116802087908 90 58 37
-0.026488433085556623 0.2519676654786392 -0.875561127604723 92 58 36
-0.07623876459187282 0.2317601147260476 -0.8563410662794106 91 56 34
-0.1072788801730405 0.21913285446286593 -0.8454886534331195 90 56 30
-0.10877044856283671 0.21847312646287403 -0.8480752213646578 91 56 30
-0.11203790629369476 0.21709437556653433 -0.8498403286284378 93 56 30
-0.11238751148567844 0.21689720148960073 -0.8529436608739859 92 56 28
-0.11254121261490048 0.21677933657343287 -0.8561381139185279 92 57 29
-0.11024402162310584 0.21765363910066796 -0.8604751156766618 95 63 38
-0.10048672482538354 0.22154758436558453 -0.8683103333913299 98 67 47
-0.09581978802586073 0.22338050889095107 -0.8737929014291079 96 68 48
-0.09219730222100081 0.22479039590901453 -0.8788017193308273 94 68 50
-0.08970015114224018 0.22574460825942652 -0.8832928531235417 93 67 52
-0.08438911733321254 0.2278373368945235 -0.8891307727788712 89 66 51
-0.08340131064978079 0.22818036056729024 -0.8929287067568129 87 64 49
-0.09272719946945608 0.22435028290225728 -0.8917966946882564 85 62 47
-0.10070252087592312 0.2210671667990931 -0.891280999509425 83 60 46
-0.09006159177003017 0.2253156687715372 -0.8997132956919056 82 59 45
-0.09165091333400247 0.22461615228169074 -0.9022669811142465 78 55 42
-0.09372242920821504 0.22372166804796945 -0.9045821658174683 75 51 40
-0.0945367014355967 0.2233357837296284 -0.9075043482972508 73 50 38
-0.09453251448660255 0.2232809277957416 -0.9108256485432752 74 52 39
-0.0949585984055532 0.2230520476239002 -0.9139371194840833 80 59 45
-0.09766890543127581 0.22189951749794995 -0.9159222997778041 81 59 46
-0.08779258240127075 0.225836279799607 -0.9241280315551587 81 59 45
-0.08215166726921383 0.22806003199040722 -0.9302675697895558 83 60 44
-0.08687571251410542 0.22609318930123967 -0.931261944807469 86 63 47
-0.0814606084111675 0.22822522871927184 -0.9373138360166163 86 60 43
-0.08466446569981431 0.22687307440652066 -0.93905870469425 81 56 36
-0.09034851656561703 0.2245186632093065 -0.9395433344421937 83 58 38
-0.09438401809290721 0.22283082986992037 -0.9408426188649882 83 58 38
-0.09966220326849083 0.2206410388534703 -0.9414977834928057 86 59 40
-0.10512169738342951 0.21837828761318714 -0.9420427721095274 86 59 40
-0.13404729519608619 0.20663438446537813 -0.9305701359835552 85 58 39
-0.12742777577592945 0.20925313740965318 -0.937233774318437 85 58 40
-0.07151954949862652 0.23178344837805015 -0.9693071579347337 88 62 46
-0.07909137955261902 0.22866710519766925 -0.9687781141400761 93 69 55
-0.08531947888541228 0.22609397473962067 -0.96891979431481 94 71 57
-0.08971934380799046 0.22425961896820756 -0.9699917713455762 93 71 58
-0.09576887204565465 0.22175927605496534 -0.9701874315615325 91 68 55
-0.10137375086335998 0.21943884870187094 -0.9705954793021893 92 67 53
-0.10637842197112606 0.21736110969539907 -0.971300180277657 91 65 50
-0.11459127670618066 0.21398829647799084 -0.9702945213652697 91 65 50
-0.12264996013449847 0.2106782167302555 -0.9693418325223914 90 64 49
-0.13559976881245772 0.20539404367463873 -0.9657611425771474 92 66 51
-0.1491700174900594 0.19986020205615204 -0.9618033330568471 93 67 52
-0.11801564912427155 0.21237994098901666 -0.9817349704260763 92 66 51
-0.1188394487712954 0.21199095546612368 -0.9846083558490372 95 69 54
0.05157387813861197 0.2805860327382862 -1.0870283285627915 96 69 54
0.049650109938616044 0.27974788899466535 -1.0896161000840507 96 68 54
-0.4286424336692794 0.08671705427513884 -0.8319560898297544 94 67 52
-0.44257287721477 0.08105033923998387 -0.8270708151030987 94 66 52
-0.445550690145402 0.07980267064495083 -0.8281592546139039 93 65 51
-0.44459942619111026 0.08013999787070103 -0.8314062049495623 94 66 52
-0.13869863903852853 0.20341573667428917 -1.0068026773961272 97 69 55
-0.14488099338244112 0.20086648692194792 -1.0066509354874684 96 68 54
-0.15415881760549965 0.19706940616418872 -1.004746609493627 91 63 48
-0.1604791053945479 0.19446536872243625 -1.0044689126908866 86 55 37
-0.16749585708196035 0.19158091195151586 -1.0037771798488366 83 49 28
-0.17363342861909759 0.18905130443849005 -1.0035574882259786 82 46 23
-0.1732222515452952 0.18916190302659946 -1.0070275927649717 79 43 18
-0.17355534679606605 0.18897245261637066 -1.01007756937156 78 42 16
-0.16465149996267847 0.192505884399495 -1.0183965999650866 79 43 17
-0.1669429448490126 0.19152689501985865 -1.0203435817245454 79 43 17
-0.17762113988219605 0.18716833429959362 -1.0174684990143366 79 43 17
-0.17854217472383416 0.1867420542935632 -1.0201751615128773 81 44 18
-0.17995673969015377 0.18611695584544963 -1.0225947057743796 85 49 22
-0.1794239481659649 0.18627648164212937 -1.0261393842508146 87 53 26
-0.18028281810218993 0.18587531327267343 -1.028878189847701 89 55 28
-0.1816535237624906 0.18526799570662805 -1.031316665555671 87 53 27
-0.18315429665798014 0.18460835003558435 -1.033675397105719 86 52 27
-0.1830372406421243 0.18460036697394516 -1.0369799734950766 86 53 31
-0.1842697398096066 0.18404885039283098 -1.0394915423497164 86 55 34
-0.18599751109415721 0.18329794367665483 -1.041707344977528 85 55 34
-0.18783863390564381 0.18250147908675443 -1.0438509965451082 85 57 36
-0.18982546520295968 0.1816464396305183 -1.0459026165501493 83 55 34
-0.1822345549777278 0.18464748325108976 -1.053661628011191 83 55 36
-0.18957214998956678 0.18163830318302904 -1.0525174423165589 83 56 38
-0.18812582809346992 0.18216539483759295 -1.0566199667179108 83 56 40
-0.1862214141244039 0.18287675178593432 -1.061005248289301 81 56 36
-0.18333465891529147 0.18398332492807148 -1.0659925220619895 79 53 37
-0.1795661029079904 0.18544455864084525 -1.0715264046214725 78 53 39
-0.18525383906824067 0.183100250619272 -1.0713287255128705 75 51 39
-0.1826939493199178 0.18407491652651206 -1.0761393171115488 73 49 37
-0.18242844768464234 0.18412626258436962 -1.0795579673567401 66 42 30
-0.18064290774086997 0.18478909350245284 -1.0839115213440245 57 33 20
-0.17693819577834877 0.18622382618288524 -1.0894541320220497 53 30 17
-0.17790145390445603 0.18578062041793145 -1.0921313072306669 56 31 19
-0.17739439203134222 0.1859288345894843 -1.0957165702142806 57 31 18
-0.17944848626327098 0.18504693815563883 -1.097714979319787 62 34 21
-0.18220757453300743 0.18388163393291493 -1.0992680993829318 66 38 22
-0.18544104212587603 0.18252572428547548 -1.1005160042764406 69 39 20
-0.1881050179939316 0.18139898115643005 -1.1021100710775373 75 44 23
-0.18539736347506183 0.1824320691243134 -1.1070714824594758 81 48 26
-0.18773035214883932 0.18143850811227175 -1.1088672602100298 82 51 27
-0.18922732999266464 0.1807811390131314 -1.1111843099423464 84 54 30
-0.1901413501883383 0.180358164572649 -1.1138668954780013 87 58 34
-0.1902105432474487 0.18027478053920465 -1.117084871517513 89 62 38
-0.1912654606643612 0.17979521914473434 -1.1196753075206252 91 64 43
-0.18954629057177982 0.18043049727294216 -1.1240381298165611 89 63 41
-0.19038043891367454 0.18003964193014024 -1.1267705424114676 83 58 36
-0.19221014932490196 0.1792488010772001 -1.128860595541074 81 56 36
-0.19573913115461627 0.17777534586856586 -1.129848403834839 82 57 37
-0.1896909325365035 0.1801495517134563 -1.1370243546792305 82 56 39
-0.19129579179473336 0.17944911039582107 -1.1392558819026752 81 55 38
-0.18898784245300254 0.180320394097373 -1.1440307286569842 80 56 37
-0.1935114813599897 0.17844769760104995 -1.144354419983698 76 55 39
-0.18965211284293923 0.17994190566705778 -1.1501529958223629 67 48 34
-0.19009480327135225 0.17970825882631755 -1.1531419168798502 74 61 49
-0.19529628748075842 0.17756377831250802 -1.1529957938541666 97 88 78
-0.19897110539653268 0.17603257355675567 -1.1538400356441454 129 124 116
-0.2014946333762465 0.17496379285239147 -1.1554346301415601 157 155 152
-0.19870138930940978 0.17602951855022225 -1.1605539531457096 172 170 171
-0.18553981884994916 0.18125696926546728 -1.1725945546846919 180 178 179
-0.164829699602122 0.18951334496407937 -1.1897313048698392 185 183 184
-0.10441390589819141 0.21370395958850233 -1.2335583726883945 190 188 189
-0.09962669437759375 0.21556626644947577 -1.2402302748844507 194 192 193
-0.09898339166150283 0.215765373483517 -1.2441290982485633 196 194 195
-0.2443715367715016 0.157369890168283 -1.1493294683744104 198 196 197
-0.2436539208490581 0.1576034230191681 -1.1530080488774133 199 199 199
-0.24202132502576607 0.15820395608741353 -1.1573127952587023 200 200 200
-0.239783337582216 0.1590472091544486 -1.1620379311911253 200 200 200
-0.23961387077792723 0.15906057472437918 -1.165359206744758 201 201 201
-0.23970453760788857 0.15896956841775653 -1.168504324816387 202 202 202
-0.23960886408534346 0.1589532742831906 -1.1717786849271543 202 202 202
-0.23848320923618205 0.15934998922833177 -1.1757648636943787 203 203 203
-0.17558513959301092 0.18440273984729347 -1.2291272495770806 205 205 205
-0.20658908659369254 0.17141270817697726 -1.240444588149698 209 209 211
-0.20785333688716967 0.17085016248426332 -1.2428342724592694 209 209 211
-0.1908132510175068 0.17761905173993894 -1.2583650637829995 209 209 211
0.036355102324828595 0.2970711413341976 0.04892448062402182 182 182 184
0.07747543911635417 0.31408698851119815 0.04718388089066246 182 182 184
0.06722242556114849 0.3097781485276789 0.04368492698693105 181 181 183
0.0611366926017774 0.30719934915914654 0.040342540915877016 182 182 184
0.05741710064702191 0.3056027910316077 0.037085550886592024 182 181 185
0.051642884470374004 0.30315380444788825 0.03378385608234618 183 181 183
0.04307566395096574 0.29954616972097836 0.03042862806212566 184 181 182
0.0390334985471362 0.29781648598180327 0.027206555583628483 183 179 180
0.03545592299214201 0.2962797494669692 0.02400630724994856 180 179 181
0.0328493903923123 0.29514603084969687 0.020836042075579382 177 175 174
0.031149583692222857 0.2943885711025196 0.01768989792719777 170 164 161
0.025579266301118952 0.29202566179186545 0.014480913853130419 158 149 145
0.02507518493644703 0.2917644079365339 0.011367922457986568 148 137 132
0.024863495808864183 0.2916244296850307 0.008259332715513212 140 129 125
0.02496075779632985 0.2916125708753211 0.0051539480838769455 136 125 120
0.024654839951111424 0.2914334855967448 0.0020425258320265934 132 120 116
0.02470710773928861 0.29140292443855786 -0.0010659223807103872 133 121 118
0.025018921141393174 0.2914799577258268 -0.004173877122848078 141 130 127
0.02520726910912055 0.291505760577574 -0.007284919274925068 148 138 135
0.02527780735818108 0.2914826877665381 -0.010398431006268473 156 150 148
0.03162242568386692 0.2940606071926657 -0.013495436668596872 169 165 164
0.03423916808657963 0.2950928128973833 -0.01661890135795737 178 176 176
0.0368267419126973 0.29611276410698883 -0.019752104059689066 181 180 181
0.03901186993562511 0.29696574534641457 -0.02289418751039929 181 182 181
0.04397148272979215 0.29896849271682563 -0.026054476463217537 180 181 182
0.04846386676587376 0.300777315448485 -0.029229658146797656 180 181 184
0.04209881036712429 0.29808650858735386 -0.03234725005394661 181 181 183
0.044853580354692724 0.2991750667013461 -0.03552204400647373 181 181 183
0.0458228809135901 0.2995236443424124 -0.03868924682593787 180 181 183
0.049902739892351486 0.30116092134382116 -0.0418969816096198 180 181 183
0.048461091346266125 0.30051041868633244 -0.045046336065531684 180 181 183
0.0048410690951781465 0.28207411053857817 -0.06617837148334808 180 181 183
0.0003390214569942013 0.28015771532490674 -0.06916727161462993 180 181 183
-0.0013364223602766456 0.2794119014599893 -0.07222133878950278 180 181 183
0.00295666736353864 0.28113727340619477 -0.07544650601800001 180 181 183
0.0006141359400557711 0.2801152622297659 -0.07848140481212096 179 180 182
-0.008566358667779425 0.2762626459765789 -0.08128721003599632 179 180 182
0.007585547046277202 0.28289666524549495 -0.08493122852984564 179 180 182
-0.0025217595095193696 0.27866069235108776 -0.08768805220728848 179 180 182
-0.003516531551480906 0.27819681683880215 -0.09075473080935008 179 180 182
-0.004927962459460769 0.2775605342481655 -0.09380324206541019 161 157 157
-0.008019101218500524 0.27622918666482366 -0.09678015218836683 107 97 92
-0.015219191644538735 0.27319767532980516 -0.09957446635656886 120 104 97
-0.017285251060065912 0.27229088850578786 -0.10257235007083833 127 106 98
-0.052649977138492815 0.2576068138005856 -0.10404738081151783 125 99 91
-0.07627336607440914 0.24778232568722627 -0.10596291026335078 113 88 78
-0.08772683625242832 0.24299376568174388 -0.10839708490918062 109 83 71
-0.09747807658475985 0.23890997105706335 -0.11088115859074647 112 85 71
-0.10521560433866622 0.23565964495837252 -0.1134396434736245 108 80 64
-0.11433802013797749 0.23183691039842474 -0.115899826667823 118 84 65
-0.11990752196523083 0.22948409489969357 -0.11852816860349344 113 77 56
-0.06500512213169003 0.25214033350909565 -0.12458456514058525 110 75 53
-0.05846513750528713 0.2547940982133508 -0.12798734068162854 113 77 54
-0.05803111923667115 0.2549226325308617 -0.13104500301339067 112 77 52
-0.07841572162521876 0.24644308057147052 -0.13281751027414768 100 65 39
-0.09295306193966663 0.24038217851849508 -0.13489603172689252 95 60 32
-0.10146395436702982 0.23681352514299425 -0.13732085230101002 92 58 30
-0.11618101599311864 0.2306797144583163 -0.1393048017291752 87 56 31
-0.12711240812134292 0.22611156586041206 -0.14150084445245667 79 48 27
-0.1269522152354392 0.22612859952571845 -0.14443919031185065 76 47 29
-0.1265821669356854 0.22623233903628132 -0.1473943714288594 75 50 31
-0.12677272238546405 0.22610434734846005 -0.1503109390880203 74 55 41
-0.12133777698773116 0.2283011286571472 -0.15364976182786838 77 60 51
-0.11614411285242769 0.2303978845106531 -0.1569891911166572 84 67 57
-0.11299638987280677 0.23164894367933286 -0.16018688576747278 82 65 58
-0.11049744541044541 0.23263174844669487 -0.1633443738927954 77 62 55
-0.10604654736351 0.23442083939725816 -0.16667044073226112 74 59 52
-0.09967660605152079 0.23700245900308511 -0.17017196836144882 74 59 52
-0.09729488943007802 0.23793619868839283 -0.17335755555209162 77 62 55
-0.0958184521874485 0.2384958457275312 -0.1764740219834458 78 63 56
-0.09492095685658555 0.23881626464073935 -0.1795456518506346 79 64 57
-0.09018286551480627 0.2407228162676336 -0.18296610946257666 77 63 56
-0.09195802704765851 0.23993922617000782 -0.18580838267218378 76 62 55
-0.08780701236628574 0.24160295406280857 -0.1891973127628825 81 67 61
-0.0859302839502398 0.2423273162420361 -0.19238594397542094 84 69 64
-0.08120325400577799 0.24422843993644394 -0.19585656282613434 84 69 64
-0.07740139530081161 0.2457473028881091 -0.19925345277742174 85 70 64
-0.0669547691436238 0.2500091846831931 -0.20332601471561795 81 68 61
-0.061019653970789046 0.25240804059455685 -0.20697757076689074 85 72 65
-0.05875091835057995 0.25329310595147553 -0.21027277490293805 87 74 66
-0.05232565967262251 0.25589367244914946 -0.21401136940566026 89 76 69
-0.044226554853772415 0.2591847113810956 -0.2179502891767359 92 79 73
-0.039904452851913394 0.2609164893696869 -0.221509950293811 92 80 74
-0.03727698385077985 0.2619486678215502 -0.22489967535032798 95 84 78
-0.03340738821069164 0.263493240647205 -0.22843751926799236 103 92 87
-0.034492395948256524 0.2629931979479856 -0.23143056983901572 105 96 91
-0.029317995657211313 0.2650757872043982 -0.23513790343920077 107 100 96
