ply
format ascii 1.0
element vertex 674
property float x
property float y
property float z
property uchar diffuse_red
property uchar diffuse_green
property uchar diffuse_blue
end_header
0.01513636512886228 0.0011228061785814314 -0.859805642952523 87 55 31
0.01577545759723041 0.002362284299086387 -0.863622553934629 91 61 40
0.01874540050403891 0.008611189306777428 -0.869971116360688 86 57 38
0.01960438482571361 0.010322317150860932 -0.8740487225923745 82 54 38
0.016680563561505733 0.0039040131488076446 -0.8740056617372397 78 51 38
0.019382898180767938 0.009576072835267901 -0.8801032998304005 73 47 34
0.019127782925176882 0.008892734063531443 -0.8829722586952609 73 49 36
0.018751130536857237 0.00794831716212624 -0.8857062386642427 71 48 34
0.019697982723355732 0.009847236123553454 -0.8899038153027808 67 45 31
0.020926485069013213 0.012350799359659798 -0.8944230024389227 65 41 28
0.02174305501493831 0.013969090438446297 -0.898493687679637 60 39 26
0.02258612441954176 0.01564396936886875 -0.9026016434116612 56 36 24
0.023423708483098625 0.01730673195659238 -0.9067112667038085 53 33 22
0.02384744249257042 0.018080447324924698 -0.9103622372631267 55 33 21
0.022893276784502786 0.015895264711486695 -0.9124592424694982 63 39 27
0.022713302973732294 0.015372615183038368 -0.9154285356105927 70 46 33
0.019362536129754457 0.008042552529634733 -0.9147860270751176 75 51 37
0.017841518829733213 0.0046415901057083875 -0.9162093719109287 79 52 37
0.023534978505672773 0.016727509918463807 -0.9258963657740018 80 53 36
0.02395166166453625 0.017485344048253998 -0.9295566293915644 80 53 35
0.024968585393080237 0.019531242707068686 -0.9339145733157 77 50 29
0.025787793344602863 0.021152434287260158 -0.9380526307499792 71 44 22
0.02419598095551949 0.017599509340967184 -0.9393946748836531 62 33 14
0.02246881266359721 0.013756643445148126 -0.9405672496298465 56 27 9
0.021311982650981824 0.011138007835764657 -0.9423949792400994 54 25 8
0.021521291831906937 0.011450603798672743 -0.9458195974820045 53 24 8
0.02275805484118723 0.013967179843098004 -0.9504581986385252 54 25 8
0.023043294138429184 0.0144422308641321 -0.9539823581033309 61 32 14
0.0206450125301064 0.009161346644148388 -0.9543251849004153 72 46 30
0.018151216265011212 0.0036763853251202405 -0.9545362790696166 78 53 39
0.014016631203771265 -0.005326477199060264 -0.9527682412529113 87 65 53
0.020680639267823334 0.008827992698356824 -0.9639132752722285 91 72 60
0.018443630540120243 0.0038947585538812723 -0.9644069256879215 90 72 62
0.017758871279524323 0.002290276358380916 -0.9667570291433476 92 75 65
0.012764087873933863 -0.008554001601378897 -0.9638844143507239 92 75 66
0.011990566266874517 -0.01034764846427183 -0.9661007899256873 91 74 66
0.011852120941022767 -0.010779797769724403 -0.9690861195259749 91 74 66
0.009645233373942678 -0.015645281769222807 -0.969542267831025 97 80 72
0.009111314159796567 -0.016924637235737033 -0.9720342223062183 101 84 76
0.009258652427591128 -0.016743939483382708 -0.975361509930047 98 81 73
0.006839354765711125 -0.02206313884138708 -0.9755218831894725 98 81 73
0.006378238810192664 -0.02318589187656067 -0.9780897721614747 99 82 74
0.004990661652625246 -0.0262934406528018 -0.9795036913832357 100 83 75
0.005743993490279889 -0.024814117742943106 -0.9835769245687975 100 83 75
0.005354962909020114 -0.025782174958395146 -0.986228441992959 98 81 73
0.004335275379921968 -0.028100977953151154 -0.9880865970121426 103 86 79
0.003668119383169584 -0.02966443649181845 -0.9903814839101125 99 82 74
0.0019978570051727984 -0.033375964172463246 -0.9914053462233312 92 74 64
0.0011985467531381716 -0.03522188519534336 -0.9935203212536137 82 63 53
0.0011552849517029937 -0.035448688065456244 -0.9965908751888726 76 54 43
-0.0011573433383654727 -0.040534420117624495 -0.9967689120992375 72 47 35
-0.002789593728146446 -0.044162775815551475 -0.9977996483765921 68 40 25
-0.0016426865037946423 -0.04184117701895963 -1.0023839969475745 63 32 15
-0.0019448105809983449 -0.042621764162289785 -1.0051137875063945 59 28 11
-0.004643128107279841 -0.048531081142522706 -1.0047486896705484 57 25 10
-0.003552706261127872 -0.04633079295902881 -1.0092696630445523 55 23 9
-0.0030115380172167083 -0.04530635678766487 -1.0130870184036085 55 23 9
-0.004389469193041132 -0.0483887792712218 -1.014409023345303 56 24 8
-0.002066611937046381 -0.04355220868680401 -1.0205585959695855 58 27 9
-0.003446907057991902 -0.046639472403847734 -1.021872458207762 60 29 11
-0.008635289898533016 -0.05787313918329402 -1.0181677583910784 61 30 12
-0.00578195487821688 -0.05190240001837623 -1.025031555094656 64 31 13
-0.006286476920738068 -0.053115166169561454 -1.0274760156950826 68 34 14
-0.00762421164116326 -0.0561099059235915 -1.0288115554106771 72 39 15
-0.009995085764323168 -0.06131375997399684 -1.028761884316725 76 46 24
-0.009238640608628765 -0.0598291211236463 -1.0328705340767657 78 52 30
-0.007624273576389597 -0.056510291238397695 -1.0381356101618446 78 54 33
-0.008150880351135543 -0.05776976235316757 -1.04053839756559 83 58 38
-0.007171821328986416 -0.05581004343393439 -1.0449670689430444 88 65 47
-0.005216248132883697 -0.05176313351882479 -1.0507246951263391 87 64 47
-0.005515918552413408 -0.052537792161870864 -1.0534418888790456 84 63 46
-0.006058755864148321 -0.053832149870378904 -1.0558271448826617 84 61 45
-0.006052915696486957 -0.05395369782652587 -1.058957419968451 83 60 44
-0.006294634441883239 -0.05460435264754715 -1.0617502539808636 84 61 45
-0.005226342683575073 -0.05245558777668913 -1.0663394805084714 84 61 45
-0.00413242455399522 -0.05025248699585046 -1.0709737771013554 83 60 46
-0.003148788568997647 -0.0482854418421676 -1.0754659034292582 82 58 45
-0.001344428868415161 -0.044565399035317185 -1.0811031188656572 78 56 45
7.853804487723687e-05 -0.04166077369784846 -1.086226708618387 63 44 35
-0.00048563282971093163 -0.04300131112311227 -1.0885964798333574 47 31 23
-0.0017436418968241121 -0.045823649845996156 -1.0899940152378857 36 21 15
-0.0013405638988285284 -0.045098020813132314 -1.0937085754639067 38 20 15
-0.0016575501614326943 -0.0459102947744682 -1.0964162887793747 44 26 19
-0.0016501766092911138 -0.04602988651328334 -1.0995794293634267 48 29 20
-0.00023173615510554274 -0.04313665931729409 -1.1047370051557126 50 29 18
0.0004258304642557678 -0.041868441186469665 -1.1088294029506793 51 29 18
-0.004588053190366946 -0.052708041739787784 -1.1048707953884829 51 30 17
-0.005418271350502643 -0.054615286273688474 -1.1068333158529122 56 32 17
-0.00663122836366626 -0.05733923487924254 -1.108243327902781 63 34 21
-0.0013873631715114257 -0.04628203016755776 -1.118896893674658 73 43 24
-0.001785506979587001 -0.047267447696867915 -1.1214866639752004 84 56 32
-0.0029888765082064367 -0.0499710840443663 -1.122913915360594 87 63 41
-0.004118865210296162 -0.05251777007355128 -1.124438541170641 87 64 47
-0.008559550625567604 -0.062127798757133326 -1.121156947731202 86 63 45
-0.007466875406394173 -0.05993133294018223 -1.1258822316522845 84 61 43
-0.007460291642121149 -0.06005219916026662 -1.1290346622656051 84 61 43
-0.008304196779173711 -0.06198726895261086 -1.1309452631856203 83 60 42
-0.008250506556029755 -0.06200761593588926 -1.134165659693448 83 61 42
-0.005185555838142106 -0.05560586099027645 -1.1418133965317225 84 61 43
0.001144972727747981 -0.042241249444568696 -1.1543002845427366 84 61 46
0.004495070522718067 -0.035234284700578045 -1.1624353345204737 77 57 43
0.007097115792421546 -0.029823539111145853 -1.1694903726375674 66 50 36
0.007362058676740849 -0.02939649621311194 -1.173094694205696 81 68 57
0.006730964814070255 -0.030879802838532366 -1.1753670691055984 112 105 93
0.00633597513567271 -0.03185964319444201 -1.177988258025184 152 148 140
0.006049116478946764 -0.032608915024710805 -1.1807694068354382 173 171 168
0.008076479039616967 -0.02842581275506928 -1.1870265694062774 183 182 180
0.015785223975907564 -0.012135688639085124 -1.201861354181792 191 190 190
0.013094335196377122 -0.018009512885739598 -1.2010494318282645 195 193 194
0.014266007914088052 -0.015652165328749468 -1.206067813333191 198 196 197
-0.030721762916546717 -0.11164281217421698 -1.1409822792430655 198 197 198
-0.025649445297071156 -0.10096820099023586 -1.151773472220305 200 200 200
-0.022477348068647065 -0.09434337715965474 -1.1597055172822839 201 201 201
-0.021926897957056265 -0.09330402754806798 -1.1636502476347517 202 202 202
0.0016287035748698553 -0.04326629060563486 -1.2029233995786819 203 203 203
0.0009613241688844337 -0.044825132751575264 -1.2050993167701587 204 204 204
0.0006428671237158762 -0.045640743535996536 -1.2078095289083972 204 204 204
0.0812263630887161 0.12520637399675655 -1.349885579574252 206 206 206
0.0838581401488263 0.13065609163933403 -1.3575536016372993 206 206 206
0.08391055121682992 0.13061514346526498 -1.361188483328067 207 207 207
0.003030078914037393 -0.041661357047368536 -1.23721964335177 208 208 208
0.06109842601838664 0.1517027753176825 0.12767294289482725 184 184 184
0.05400858722120651 0.1358991130175595 0.12358644739190781 184 184 184
0.05546995103599049 0.13900579070762886 0.120881551907382 183 185 184
0.05877710833390978 0.1461930924403382 0.11844643359250773 183 182 181
0.06921030554099944 0.16913417774475917 0.11704699528872045 156 147 144
0.062260046967709294 0.15364195993857574 0.11304829345457665 125 108 101
0.05525786187707969 0.13803700143668846 0.10909038917117475 119 96 85
0.046352518946237695 0.11822731129720222 0.1049181170183896 116 87 71
0.04401989034701831 0.11294778803463537 0.10169262183033871 119 88 71
0.04037109288540863 0.10476002320070418 0.09831015062383962 134 103 87
0.039067023707114214 0.10175511176689958 0.09525154812687961 145 116 101
0.03849826237655808 0.10037545430870479 0.09229236580594846 142 115 103
0.038682295080109404 0.10065935742812787 0.08942689458545473 130 104 91
0.04091559287358288 0.105471066511164 0.08679867190419685 116 92 76
0.042570435019311896 0.10900403503628302 0.08408805775393342 107 83 67
0.04268247901101358 0.10912807598747297 0.08119532198896454 95 69 49
0.037680612466103124 0.09795503985430133 0.07775747512864205 82 53 32
0.03803353150722429 0.09861177501210372 0.07490406147671609 78 49 28
0.03531882346854132 0.09249267604948276 0.07174302473113163 66 37 18
0.031143989477466973 0.08314949192214038 0.06846072131079131 66 36 19
0.031465132698629356 0.0837367531530714 0.06562089702974133 57 28 10
0.03133049402498017 0.08331736446506584 0.06273748299400551 56 28 11
0.03021724074055982 0.08073703082572381 0.059770940754243974 54 26 12
0.030460564080950766 0.08115233416691003 0.05692171699491563 57 29 15
0.02940772970352601 0.07870578232393123 0.05396893423485982 77 54 45
0.02732407934933546 0.07398376206241346 0.050946135836008974 97 77 71
0.02357315997083302 0.06558173265280541 0.04781935286371988 98 73 64
0.02197861135482677 0.06194079175540905 0.04486305636953006 98 71 59
0.02151028025964785 0.06078614557906019 0.04198873073501336 112 87 79
0.017937482248239496 0.05277971027816007 0.03893053320786679 147 130 123
0.01567726529141476 0.04767112445144735 0.03597091016613615 160 144 138
0.03987643360673636 0.10095384566670872 0.03442500050519605 130 111 104
0.05695681609869328 0.13852050219714573 0.0323545263554668 141 120 111
0.022744825625546073 0.06290531247263811 0.02781613654128745 129 103 93
0.024481109268908507 0.06661487569481357 0.025036179074370023 119 88 73
0.021469874315984457 0.0598499121437384 0.022059711051329613 98 63 40
0.020596806369361446 0.057802713223595176 0.019178623174644884 83 46 20
0.016514740927760247 0.0486770350081545 0.016201960783273232 73 37 13
0.014082257566564971 0.0431911063011725 0.013299459147259343 69 33 10
0.013751787780671425 0.04234205275751396 0.01046440963346931 69 33 12
0.013329456550895586 0.041290464074620066 0.007628856963758304 66 32 11
0.013557700786036207 0.04167366645996196 0.004806493247745042 61 29 10
0.013363175186416113 0.041124495021883194 0.0019758064890792078 60 28 9
0.013239988786513805 0.04073264313235474 -0.0008537452952291974 60 28 9
0.013336207248960095 0.04082453739224354 -0.0036819863823437963 60 29 10
0.013377266627702531 0.04079475329192844 -0.006512039785765876 58 28 11
0.013455727458026194 0.040847367787314334 -0.00934338752633792 53 25 10
0.015139760519477123 0.04443919210934632 -0.012183321828577238 50 25 11
0.015978897112501094 0.0461681259758565 -0.01502956978162288 48 26 12
0.024790277401264476 0.06546810327024392 -0.017975065353827483 51 32 18
0.023420888738340334 0.06232782965397156 -0.020830454811420512 54 35 24
0.02279129708427524 0.06081826689934179 -0.023690866857436745 54 37 28
0.02078025087495409 0.05626467223952144 -0.026516866461846353 54 37 28
0.020503182106459347 0.05553238947917622 -0.029374376827457575 48 33 25
0.019325918586040262 0.05281674970338946 -0.03220428694524848 35 21 15
0.024039282343029437 0.06307935201783685 -0.03522190100995243 29 16 10
0.022781797820507436 0.06018672137350393 -0.03805508411475023 24 13 8
0.03389173816942943 0.08453791705072333 -0.04137902776705417 20 12 9
0.033776945129984144 0.08416107308684004 -0.04429081481958598 15 10 7
0.03572865683939007 0.08833577250906484 -0.04730101142242781 11 9 7
0.04130672371597298 0.1004964532685503 -0.05051172744798846 11 8 7
0.04379974461521293 0.10586140276873866 -0.05359477175290166 13 8 8
0.0401435198300725 0.09768443752753153 -0.05633799586727937 18 11 10
0.039097772730545696 0.09525662078918921 -0.05921759828462809 27 19 17
0.03774725073162508 0.09215803776614998 -0.06207068315566937 21 16 13
0.03646819497406554 0.0892171674191294 -0.06491997343113554 21 16 13
0.034101441370714344 0.08388212071436066 -0.06768186772653347 20 15 12
0.03123941610088264 0.07745751193381215 -0.07038983570285504 30 21 18
0.029587744523836633 0.07369791612226952 -0.07317496983127308 50 38 32
0.028154864090147603 0.07042034489378624 -0.07596746415389383 84 68 62
0.02560567856116181 0.06468635364022629 -0.07865321037981887 91 73 67
0.023687621588860924 0.060342024758265424 -0.08137886003912621 77 56 45
0.02403424512424026 0.060981764640045226 -0.0843055876042409 67 42 28
0.023091391931449254 0.0587840081489156 -0.087109327676477 58 31 18
0.024103720299122798 0.06088835396010933 -0.09010611247587144 57 31 17
0.02248069137408485 0.05719435207660889 -0.09283362116764315 54 31 17
0.024805890955212642 0.06218661329490233 -0.09598057455389833 70 51 40
0.021943060690982785 0.05576563974836167 -0.09856127698867626 81 62 55
0.01898105781804338 0.04912736443796453 -0.10111069490591092 67 45 36
0.012231584320937097 0.03415956097016499 -0.10318573587185767 75 53 42
0.01137438733095162 0.0321527288898766 -0.10594029856809038 80 58 46
-0.00027103861568354183 0.0064211440797462375 -0.10731847343383748 95 69 58
-0.0020465850587621463 0.002396972308622269 -0.10990333805444438 100 74 63
0.001207293857677075 0.009432234958841277 -0.11315202853736075 99 78 67
0.0010769866691343263 0.00902567284025923 -0.1159583391271826 140 117 106
0.0022362487759512353 0.011454274338902625 -0.1189473150336263 148 128 118
0.0031939292362897463 0.013439322692311628 -0.12191641263768552 136 110 95
0.0002835089996881014 0.0069210698798562835 -0.12431749242636873 104 71 49
-0.0005385796978010365 0.004993979593450135 -0.12701692339934678 90 52 22
-0.0010005053850982767 0.003858710873061822 -0.12976759493980938 88 48 14
-0.000833287089715834 0.004106253012998707 -0.13261642638750928 81 44 14
-0.0007276987801771682 0.004218263397698197 -0.13545737625119683 76 40 15
-0.0004001832521179048 0.0048178743047281 -0.1383371555523019 71 37 19
-0.0005142961292412089 0.004446952908584378 -0.14114489063702135 62 32 17
-0.0016377519070607128 0.0018583543511282996 -0.14377674694657477 60 33 14
-0.0021945540896891793 0.000514993911224608 -0.14650227343811423 64 37 23
-0.0020906354574321585 0.0006232581021866253 -0.14934475935754618 62 40 28
-0.001975772320547525 0.0007554901146592727 -0.15219100823120188 62 43 34
-0.0008787564890682716 0.00304496582014158 -0.15522468929731076 63 44 37
-8.274804150434044e-05 0.004672936495258528 -0.1582093737994305 64 45 38
-0.007591837657494634 -0.01193914046315963 -0.15957060227528602 64 45 38
-0.002230943948761801 -0.0002857093131047664 -0.16345127736110363 63 44 37
-0.0020435654941186113 5.484021371109787e-06 -0.1663187642298378 61 42 35
-0.0019116211231564682 0.00017485830675306388 -0.16917711120087256 61 42 35
0.013927609013654974 0.034462061247984344 -0.18402763504796055 60 41 34
0.014020069473894123 0.03454197130960194 -0.18694290471592542 59 40 33
0.014254512553716087 0.03493343513482915 -0.1898924016299357 59 40 33
0.017859066387904597 0.04234955414404421 -0.20236806348475486 58 39 32
0.016558585392782092 0.03937234934302331 -0.20496096623079296 59 40 33
0.020791887131256778 0.048535942861876985 -0.2089356769747972 58 39 32
0.01786472006367082 0.04199010608648232 -0.21111714574868728 58 41 33
0.017903645441138583 0.04195145431127777 -0.21404513558998242 58 41 33
0.01793502093158307 0.04189618735939031 -0.2169724437716683 58 41 33
0.02209796571360939 0.050902437723684524 -0.22099978525667163 59 41 33
0.019387683299860774 0.04483370259487339 -0.223205551295495 59 40 33
0.019112456901875706 0.04410570042352188 -0.2260579102666315 57 38 31
0.01870454561605404 0.04308679213961255 -0.2288725068232321 56 37 30
0.021339053143488326 0.048738853643706 -0.2325390384469309 54 35 28
0.0194938405498674 0.044568399447770954 -0.23495216057755164 55 36 29
0.018843191154587373 0.04301733560432591 -0.23769678700958874 56 37 30
0.018979607643822456 0.04319180328416914 -0.240667243877475 57 38 31
0.01738359060128186 0.039568692580807946 -0.24312793746747266 57 38 31
0.033897919389107106 0.0756410565990082 -0.25099475990654657 58 39 32
0.03696842976813619 0.08224357866296925 -0.2549137669618173 59 40 33
0.031382122389175975 0.06987343215921267 -0.25620328729427166 59 40 33
0.03494464684466606 0.07755348245718172 -0.2602903691361246 59 40 33
0.035695374464425396 0.07907112052520338 -0.26352226105659227 59 40 33
0.03230090708931426 0.07150611925737904 -0.26544435980856124 58 39 32
0.024756332427405842 0.05484967030877285 -0.26600912026145773 58 38 29
0.05359405959384799 0.11789981575831121 -0.2783420327681934 59 39 30
0.053486249800492096 0.1175331722206492 -0.2813760192247942 59 39 30
0.0457157489991434 0.10038194219232752 -0.28186348068081885 59 39 30
0.036290752036664764 0.07960931745449377 -0.2817384626458554 60 40 31
0.024687767872987692 0.05406957579656717 -0.28080468972030215 59 39 30
0.026361044368995785 0.057607870842460863 -0.28434602951436816 56 36 28
0.027903946528554324 0.060860101274503905 -0.2878555408015928 55 35 26
0.026083440669865024 0.05674714558151261 -0.2901973573048496 46 26 17
0.029385654719843272 0.06385082930860106 -0.294343193106217 50 30 21
0.03070112696034612 0.0666038028222663 -0.29780270973805745 50 28 19
0.03406474177351026 0.07384004492369808 -0.3020144869547711 47 25 17
0.03624521657988369 0.07848527573552505 -0.3058195754360763 54 35 29
0.03421803022828082 0.07391982519635934 -0.3080874306889359 76 59 54
0.0322773684783874 0.06954434606076437 -0.3103735640135024 107 90 81
0.02981271465412466 0.06402265971377272 -0.3124488470868374 76 48 33
0.02735318277031724 0.05851291648724787 -0.3145088035732145 66 29 10
0.029682380784657958 0.06348270205151418 -0.31839185201168774 70 34 13
0.0242523100196778 0.051473944703413745 -0.3192824726031707 73 37 18
0.023974952759156773 0.05074050285147089 -0.3221522885649105 71 37 18
0.02365397154354156 0.049911666459213994 -0.3250038273867822 63 32 12
0.023179347136925398 0.048746779573619885 -0.3277926821898243 67 38 22
0.02845740235343537 0.06016557720590268 -0.3328969045382983 64 36 23
0.029498913213721483 0.06231618945438843 -0.336318732422033 45 24 16
0.031442197017723716 0.06643870567465002 -0.34011943605956685 23 10 7
0.03464005908776836 0.07330426571892028 -0.3444552057595468 34 20 15
0.033567737232874456 0.07083074966464098 -0.34703166451185796 42 25 16
0.03403095107011963 0.07171518718430404 -0.3502485041334494 42 24 16
0.03442183889498455 0.0724412935764071 -0.3534390983110335 41 25 15
0.034084089868025594 0.0715741983072046 -0.35632106122970575 42 25 14
0.04092940198943207 0.0864104879408682 -0.36231015055818205 44 26 15
0.039650994133455686 0.08348609471549577 -0.36480542402422883 45 27 16
0.033137699783071 0.06911942510611749 -0.3649875910399709 33 19 12
0.03194243255580652 0.06637830508471607 -0.3674832177583215 32 15 9
0.030256056901006752 0.06256419067666065 -0.3697510808623961 62 41 30
0.030477188607516147 0.06291916844698862 -0.3728685524082392 67 43 33
0.030231348698000284 0.06225360161683181 -0.3757761668139786 68 42 29
0.02997470864011724 0.06156446927905373 -0.3786780404964208 62 34 20
0.029718206632561382 0.060875675348331576 -0.3815791127589768 61 32 18
0.030221274847319297 0.06184637295264689 -0.38483361870554916 63 34 18
0.03073148453662208 0.06283246630381037 -0.38809631210690443 64 35 20
0.028315044358979864 0.05742534923878332 -0.38997682153189545 78 49 35
0.027011492554301707 0.05444978459757947 -0.3923718838845953 66 35 22
0.025048778395981425 0.05003492041037742 -0.39444086787995003 68 37 24
0.022547087365852463 0.044443549260375664 -0.39623465987877515 73 44 30
0.02154155687766907 0.04212020493872821 -0.3987422765549431 68 39 24
0.020120306828283533 0.038889366839829236 -0.40103855948817685 69 37 21
0.017866046640302644 0.033840100297184775 -0.4029116455179269 67 33 17
0.01563830123800609 0.028849399116097255 -0.4047820964090206 76 45 28
0.013963437116719827 0.025066378772791373 -0.4069154872529841 101 75 58
0.01306778006815966 0.022984837398496653 -0.4094329670251816 108 85 74
0.011921854251034772 0.020357248384341005 -0.41181673242077393 98 70 55
0.011137241489118283 0.018518602700598186 -0.41437909061849576 81 42 20
0.010236272648583948 0.0164262176587786 -0.41687618682409155 80 40 15
0.008947386866181344 0.01348751318185621 -0.4191647276678057 76 37 13
0.00871722369332523 0.012859492518922246 -0.42200209960784796 73 35 12
0.009341422266631826 0.014095729032818374 -0.42529188822538677 72 34 12
0.007546216293456958 0.010052939290820274 -0.4272951639148973 71 33 11
0.007536007828373267 0.009904994676148159 -0.4302460785695924 68 32 14
0.012437601880053318 0.020472258281771002 -0.4358585286437115 72 43 27
0.013402151793166821 0.022449752770003592 -0.43936158694694716 74 48 34
0.019306523904566546 0.03520168231193231 -0.44558603056726565 77 52 39
0.02203698988491186 0.04102922508250151 -0.45010096716722536 76 54 41
0.028590651892944113 0.05519381068480961 -0.45676626796100417 78 55 42
0.02993903964039063 0.058004957509625504 -0.4605643222183877 65 38 27
0.030494303341792775 0.05908616499361666 -0.46392605389758146 62 35 22
0.03517024243002888 0.06915189541884031 -0.46963410905359426 66 38 22
0.04616785548647424 0.0929988774056412 -0.4789940397306135 68 41 23
0.04470239595039428 0.0896717207175788 -0.48126341696327085 69 42 24
0.047936259160633786 0.0965891540984909 -0.4862459537786229 69 42 24
0.04712414800179812 0.0946862356946467 -0.4888941991057098 67 40 22
0.048204797964655606 0.09690899723028962 -0.4926485492006271 65 37 22
0.04785954030038905 0.09602368309330404 -0.49556969593141925 63 34 19
0.047393183302132616 0.09487452420913176 -0.49841731445783427 59 31 16
0.04675341296955272 0.09334758082477927 -0.5011587191990784 66 37 20
0.04457494970305634 0.08846805195777324 -0.5029697220562837 69 39 20
0.046340461603276234 0.09218229356287189 -0.507155438731557 72 40 19
0.04526558422078051 0.08970775044305418 -0.5096235257334374 77 44 22
0.04693438815100237 0.0932105413219168 -0.5137681339643055 76 46 21
0.04721769547580712 0.09369470411337302 -0.5170710887600513 75 44 20
0.046544218937970824 0.09209471050527056 -0.519782922763919 74 42 19
0.04625785444185801 0.0913380128679254 -0.5227326947532371 75 43 19
0.04596485646944322 0.09056691436024261 -0.5256772206722233 75 43 19
0.04575974688823277 0.0899872550890833 -0.5286762224062804 73 41 18
0.0461116953673428 0.09062061035541796 -0.5320293042308663 75 43 19
0.04632290263459347 0.0909473631977053 -0.5352960615391891 78 44 19
0.04638628058643739 0.09095214984463143 -0.5384703225555455 78 43 19
0.04575793977707817 0.0894509859136336 -0.5411980260301236 77 42 19
0.04586522027322327 0.08955131889655363 -0.544401441259704 79 44 22
0.04597241158555364 0.0896513759021926 -0.5476067235555452 79 44 22
0.04607980388279863 0.08975178849146613 -0.5508140642307464 77 42 20
0.04610983894493295 0.08968376132098149 -0.553972035171236 76 41 19
0.04619125043560281 0.08972748290120917 -0.5571656104426084 74 41 18
0.04650314361643716 0.09027266893343536 -0.5605155179187744 76 43 21
0.046996295689154116 0.09121210414985276 -0.563991194988907 75 44 21
0.04648245293971408 0.08996039495824074 -0.566788595111211 75 44 21
0.04653309998704945 0.08993688442816294 -0.5699682944920373 77 44 22
0.04681030891117388 0.09040617125178568 -0.5733049294349756 79 46 23
0.0464864090552565 0.08956777047446549 -0.5762301021040687 79 46 22
0.0464011945120391 0.0892485844301264 -0.5793194893470055 82 48 23
0.04659875939499463 0.08954439711506167 -0.5826065895437857 84 50 24
0.04697295819754703 0.09022423129345696 -0.5860202045385677 87 53 26
0.04854002958480064 0.0934978921427959 -0.5902790219790381 89 55 27
0.04788620580699349 0.09194184411108546 -0.592976271785761 91 56 28
0.04757401745962213 0.09112876358627549 -0.595913169843264 90 54 27
0.047333755579286055 0.09047211190606441 -0.5989003428542882 92 55 28
0.04612961138024086 0.0877200809864197 -0.6011922726081035 93 56 28
0.04592517071356965 0.0871415150041797 -0.6042002459466532 95 58 29
0.047363184844219135 0.09013300934014926 -0.6084038391049684 96 59 30
0.04731552727653879 0.08989497181944141 -0.6115319938215954 92 55 26
0.04734118084269197 0.08981622737862809 -0.6147148541403735 90 53 24
0.04727599865310883 0.08954003067763036 -0.6178318384251097 89 52 23
0.04788367450012924 0.09072589267733425 -0.6214497772093169 91 54 25
0.04819650639285929 0.09127087600344112 -0.6248531361172022 92 56 26
0.04847575489182923 0.0917427452105049 -0.6282347965673225 93 58 28
0.047590542022039786 0.08968473324243524 -0.6307404052765603 96 61 31
0.04879541318875327 0.09216723816767362 -0.6348266707408879 92 57 27
0.0482932819016887 0.09094147059143319 -0.6376211765386083 91 56 26
0.047923324163771965 0.09000289592503223 -0.6405142776883436 87 52 22
0.045135254934422026 0.08381273597696284 -0.6415423872708287 86 51 21
0.04589260273748227 0.08532280350663997 -0.6452957046732338 86 51 20
0.04544538857221667 0.08421690010660325 -0.6481185276576638 85 48 19
0.04539375706215723 0.08397002798662992 -0.6512484189241813 83 46 19
0.043607866474242134 0.07995779582930575 -0.6530159476635836 80 43 18
0.043247284126174124 0.07904041987805155 -0.6558965775299656 79 43 19
0.04652356025920597 0.08601806985454837 -0.6616621331413329 77 41 17
0.045961619155630296 0.08466315768110069 -0.6643928983644648 73 37 14
0.046153463855589265 0.08494446570539822 -0.6677245587246811 73 37 15
0.04634538044611861 0.0852258186203593 -0.6710588913903297 74 38 16
0.046976346291742216 0.08645986741213063 -0.6747511050737934 73 37 15
0.0459519911845689 0.0841016215946042 -0.6771034959843822 71 36 14
0.0454126683858812 0.08279610277408118 -0.6798453173031419 77 42 20
0.04383259859688906 0.07923263972107814 -0.6817298690386403 77 42 21
0.04257027958138056 0.07635900969753173 -0.6838653467167434 69 34 14
0.041651070130694204 0.07423006768705545 -0.686276448983364 65 31 11
0.04050578117344136 0.07161097523146957 -0.688493364559859 65 34 12
0.040280401582021785 0.07098750240758366 -0.691471833269282 65 34 12
0.04292486915600491 0.07658830189831344 -0.6968608250105718 64 33 11
0.04563595375179834 0.08233265173780688 -0.7023276983852532 64 33 12
0.04563888685506769 0.082203398739678 -0.7055204393061943 61 30 11
0.046248517369503056 0.0833896270749766 -0.7092311318448304 60 28 12
0.041922018694058844 0.07387317873644778 -0.7087238755539639 60 28 14
0.04149333963681294 0.07280865022948117 -0.7115346257398002 58 27 9
0.04138555695931684 0.07243987093788952 -0.7146202612377037 58 27 9
0.04167887516444748 0.07294053996526477 -0.7180540908731815 60 29 11
0.044195061382813546 0.07825917671413035 -0.7234280088679788 61 29 12
0.042501774500838536 0.07445350794645847 -0.725138766133524 62 29 12
0.04002227279127586 0.06894447426914067 -0.7261463689844928 63 30 13
0.03947939278195112 0.06763291978729616 -0.7288456951949568 63 30 13
0.03755702569286954 0.06333234308833026 -0.7303185634464151 62 29 10
0.03604296413566857 0.059917027914209914 -0.7321412690542245 62 29 10
0.03362817852838621 0.05455072306593041 -0.7331474952498919 62 29 10
0.03199883364577759 0.050886719481485154 -0.7348417517038786 65 33 13
0.030156345806886954 0.046761498995098516 -0.7363320779018036 69 37 16
0.03251497084450393 0.05173657802043852 -0.7416167243667481 68 36 15
0.03347619302103369 0.05368424186630759 -0.745648956023387 69 37 16
0.036714854339574166 0.0605637836830019 -0.7517717133701232 69 37 16
0.03743918381006041 0.06199733604364391 -0.755612645512821 69 37 16
0.0372707610297555 0.061497464358564805 -0.7586373018290573 69 37 16
0.03751910759915218 0.06189998906315439 -0.7620476493695234 68 36 15
0.03788223164495365 0.06255087985133428 -0.7655677946711164 66 34 13
0.037624267002346584 0.06185702711059697 -0.7685120192603643 64 32 11
0.03653536841916757 0.05936448865359091 -0.7706762813917359 64 32 11
0.029734429302176332 0.04450835810582905 -0.7674551849378527 68 34 12
0.028716149419314003 0.04217024372940427 -0.7696490607886991 70 34 12
0.027224699507971996 0.038808385482539634 -0.7713868831476437 69 33 11
0.028000528102274005 0.040353444765905896 -0.7752754716708437 67 32 10
0.027334620415954594 0.0387784709538356 -0.7777912554719735 66 31 10
0.02752034877415513 0.03904635686311329 -0.7811214642117925 65 30 10
0.028781667404745505 0.04164120903158586 -0.7854922453527343 62 27 7
0.027584882876744682 0.03891781235738273 -0.7874922480157551 64 28 8
0.025273015299204046 0.033782619056277066 -0.7883991314967235 66 30 11
0.022876183377724492 0.02846436901723237 -0.789205989145332 67 30 11
0.02361433698006827 0.029927426251908404 -0.7930697685495306 69 32 13
0.023129496503701906 0.028745220603333496 -0.795736221497591 70 33 14
0.024875719052779466 0.03238787435567467 -0.8006056429898328 69 32 13
0.023270357105165965 0.028782547773317083 -0.8021633328556141 68 31 12
0.025016301121482003 0.03242389567971117 -0.8070490287834521 67 30 11
0.02115470012231995 0.023940929646743603 -0.8063397178979326 65 28 9
0.023640868731080934 0.029182215230548647 -0.8119765386036157 63 26 7
0.020611902650465037 0.02250057934866334 -0.8120731958640376 65 28 9
0.020455559244775365 0.022029163966262658 -0.815054881238248 68 31 12
0.021124793793280014 0.023342124379022985 -0.8188753957842603 71 33 14
0.02152788625155238 0.02407962813043288 -0.8224308200850218 70 33 11
0.018913170169207447 0.01829538933847022 -0.8229001182213378 70 34 10
0.01384530713835136 0.0072110797519833875 -0.82082804205712 72 36 12
0.012764628943415818 0.004743490773013961 -0.8228316977517435 72 36 12
0.012671015673861148 0.004408791872501011 -0.8258504497381557 73 34 12
0.016674568921049113 0.012925404621425787 -0.8331300674695967 74 35 12
0.017992152516614644 0.015638431924860113 -0.8376388007752258 73 36 10
0.01525696934806317 0.009596921761805308 -0.8379127238152863 76 35 11
0.012332440520027778 0.0031473251998487967 -0.8379670017897912 77 35 11
0.012000572839216767 0.0022979856895218725 -0.8407362818650179 79 37 13
0.009757606190428016 -0.0026783326172462596 -0.8414789871366795 79 39 14
0.01437895039141416 0.007168468355896504 -0.8495059085261666 83 43 17
0.013465921500237725 0.0050639791379040455 -0.8516623004540083 87 48 19
0.013597667934371567 0.005215427538236825 -0.8549320815990273 86 48 21
0.01414632788998501 0.0062668329021765695 -0.8586524174536944 85 50 22
0.016485874800438005 0.011183940536445836 -0.8643114011517035 88 56 34
0.018417151550755156 0.015218959238335661 -0.8695477479210324 90 59 39
0.01509670723191437 0.007918313277301553 -0.869089925684441 86 57 38
0.013880453448070686 0.005159929203649466 -0.8709032917038197 81 54 37
0.014203520772681603 0.0057237561862130415 -0.8743941840893799 79 52 38
0.014432102670660335 0.006083542771507383 -0.8777849069968663 72 46 33
0.011345766257268138 -0.0007092563630995141 -0.8775213344559141 72 49 35
0.014725313800450696 0.006449013712180457 -0.8843936657262111 71 48 34
0.020783177885771303 0.019384079331488835 -0.8942702029332198 67 45 31
0.021029952134946656 0.019781649740473223 -0.8977155557206729 66 42 29
0.02091300871200634 0.01939455560928957 -0.9007569522010919 62 41 27
0.02203761791807391 0.021685248749397507 -0.9051930227594839 57 38 25
0.024515198993976278 0.02689339020510692 -0.9111641852338007 55 35 24
0.02029472030107078 0.017656452051121985 -0.9095798985994119 56 33 21
0.024998254161657858 0.027663784079019038 -0.9180928548904967 63 39 27
0.020317359223410963 0.017435376636473543 -0.915954696020353 69 46 32
0.02174410031194967 0.02037636037077903 -0.9207618963649254 73 48 35
0.02361511402967087 0.02427457255800458 -0.9260912417841634 76 49 36
0.02264368441943579 0.02204485523007238 -0.9281648369758327 78 50 36
0.02289350730244398 0.022447775386390506 -0.9316424452595435 78 51 34
0.02230551136836848 0.02104482179190781 -0.9341521279212025 75 48 29
0.021854443508218108 0.01993711488575306 -0.9368175199317409 69 41 20
0.021840931727353338 0.019772422425503366 -0.9399911067526555 60 31 13
0.018880608325791137 0.01325796300984497 -0.9397149037478209 55 26 10
0.017962353884942682 0.011144317583702379 -0.9418156879272953 53 24 9
0.017958180823978834 0.011000266431614308 -0.944988014494042 53 24 8
0.018814710782040014 0.012710351891881494 -0.9491797069216532 54 25 9
0.019927877793283144 0.014972917916772882 -0.9536840494084569 58 29 12
0.017668299241167383 0.009970409829493543 -0.9541813435965121 69 43 27
0.01436355245049889 0.0027175848259052005 -0.953412646744444 74 50 35
0.010721560238423924 -0.005260449934668843 -0.9522142292299944 88 67 54
0.020971287956763215 0.016677350879976127 -0.9677005710365311 89 71 59
0.017290450291999042 0.008615689803675192 -0.9664548529976666 89 71 61
0.013650505612491558 0.0006432807936730678 -0.965230279665846 90 73 63
0.011577187302348572 -0.003955139490488008 -0.9658812704603548 90 73 64
0.009470392633499358 -0.008624966484888252 -0.9664759476526089 92 75 67
0.0072774478895183195 -0.013479566131627235 -0.9669494716289965 93 76 68
0.0050639003393325305 -0.01837781054250942 -0.9673812326515885 102 85 77
0.003177555448604534 -0.02257113473042313 -0.968199186682909 103 86 78
0.004572722359368196 -0.019701886508190672 -0.9730564579970823 97 80 72
0.004743289081472389 -0.01946835464158375 -0.9764085295212084 98 81 73
0.00379398670347484 -0.021644560284828113 -0.9783708309810734 100 83 75
0.003557574093392711 -0.022286681283272103 -0.98121580366449 100 83 75
0.003295683418430874 -0.022983582421914964 -0.984028131355169 100 83 75
0.002719929601413082 -0.024355622807203395 -0.986445485348876 103 86 78
0.0019638815910352977 -0.026115331284492782 -0.9886322826768328 103 86 79
0.0009801218485550392 -0.02836460314671141 -0.9905264335625488 96 78 72
0.00020932180064442418 -0.030155578049318538 -0.9926837010101797 93 74 67
-0.0003985314986291594 -0.0315959186570033 -0.9950430691359321 86 68 60
-0.001363988551081656 -0.03380506755752949 -0.9969425449128572 78 58 47
-0.006083320963954433 -0.044085385055971024 -0.9940321311841612 72 48 36
-0.005922863168676518 -0.043872613828687027 -0.9973483262241789 69 41 28
-0.005870742102381206 -0.04389285044544192 -1.0005274526602592 63 32 17
-0.004243123353173318 -0.04052638482344606 -1.00574314093803 58 26 12
-0.0046323551032233165 -0.041495702464212095 -1.0083598826013354 57 25 12
-0.005579716845395419 -0.043664526662876194 -1.0102491824208348 53 22 9
-0.005973831554762395 -0.0446440712505566 -1.012853272239043 51 21 8
-0.007290589720583843 -0.04760625410316052 -1.0142486337611392 53 23 9
-0.007037995487240399 -0.04719582350482748 -1.017693287751399 56 25 10
-0.006524871022789709 -0.04622574825090256 -1.0214839647537803 59 28 11
-0.011959637157867568 -0.058034615836114384 -1.0174287486278661 61 30 12
-0.010767529198654743 -0.05560532388488715 -1.0221049115696936 66 34 15
-0.012622061516013805 -0.05972098083878441 -1.0227456167034894 69 37 17
-0.013154088873878873 -0.06099540057681502 -1.0251341955380542 73 42 17
-0.012981192593754916 -0.060755680991172636 -1.0284615173719525 80 49 27
-0.012363161832455671 -0.05956010575854888 -1.0323879757963363 80 53 32
-0.011004555796021095 -0.05677447280582201 -1.0373161680053382 81 56 35
-0.010629274717268794 -0.05610078970749782 -1.0409306130409184 84 58 38
-0.009921072139279778 -0.054712480354936865 -1.0449995071416815 84 61 43
-0.008411313867043337 -0.051603610338616296 -1.0501626300425437 85 62 46
-0.008797925040886542 -0.052566283643870976 -1.052758972882316 83 62 45
-0.009095793724288974 -0.05333838179006713 -1.055474413346138 83 60 44
-0.008986336480585083 -0.05323615177754236 -1.0587460907237654 81 58 42
-0.009147044101988383 -0.05371383602346587 -1.061648914621979 82 59 43
-0.008654330706140474 -0.052789253835720334 -1.065451253021251 83 60 44
-0.007399609433156207 -0.050229733177562394 -1.0703110463827665 83 60 46
-0.006147596675950426 -0.04767650747617999 -1.075178458906228 81 58 44
-0.00154310131167118 -0.037930988190360435 -1.0847141892984413 75 53 42
-0.0025040020539305458 -0.04012674798515935 -1.0865349879112156 62 43 34
-0.0037571083924899593 -0.042949051450832595 -1.0879408100699495 45 30 22
-0.005025237495650127 -0.045803192740961174 -1.089316504023401 36 21 15
-0.00492277378095092 -0.045717276852454525 -1.0926092710631379 36 19 14
-0.004095356257985051 -0.044076680682954075 -1.0969258622367004 40 23 16
-0.0031602549390512824 -0.04220549669514108 -1.1014025901978526 43 25 18
-0.0027551727216678645 -0.04147120265882652 -1.1051367133503633 49 29 20
-0.002442920537956625 -0.04093613719688162 -1.108743321655441 49 29 20
-0.0038453692166483602 -0.044077453236540415 -1.1099086972554917 51 30 19
-0.00841948971050889 -0.05401766759240756 -1.1065283735583034 57 33 17
-0.0033065037128995126 -0.04319109014525742 -1.1170036347654584 65 37 20
-0.003454130479789 -0.04364205789787286 -1.119956354139004 70 40 19
-0.003196104657824911 -0.043223609239232894 -1.1234940758152967 82 53 30
-0.003944326249977301 -0.04496176263979565 -1.1255796868610397 85 61 41
-0.006371155207644037 -0.05029679215729571 -1.1252255889252092 87 64 48
-0.007467613374853223 -0.052780405276481215 -1.126787835873039 86 63 45
-0.010597855865449791 -0.059621172097573144 -1.1253756567585274 86 63 45
-0.0100411186141569 -0.05856199631385252 -1.129332095838532 85 62 44
-0.0113608295089778 -0.061522795114785714 -1.130541765626317 83 60 42
-0.011710629004907935 -0.06240560515777553 -1.133168459083564 83 60 42
-0.008413075963769175 -0.055476249363228716 -1.1411735652549102 83 60 42
-0.0013462409291066305 -0.04047550589813942 -1.154782415851453 84 62 46
-0.0003302746289427991 -0.038435237961549656 -1.159475275639145 79 59 45
0.003510715977378509 -0.030346069864557818 -1.1683796466696756 67 51 37
0.005670299524789035 -0.025858446077866692 -1.1748089303141984 77 64 52
0.003552658605620554 -0.030529074315664845 -1.1748599554533397 106 98 87
0.003074712495286007 -0.03168874688756204 -1.1773538775840302 147 143 135
0.002831038115065236 -0.03234681345789325 -1.1801973585421222 170 168 165
0.004685139390180636 -0.028514653958097408 -1.1862034658199831 181 180 178
0.012697322410549446 -0.01150318718349147 -1.2015378421463363 189 188 188
0.010804740932188465 -0.015691793592291114 -1.2019213745243218 194 192 193
-0.02937782274020739 -0.10181756843565998 -1.144075292317805 197 195 196
-0.03351107556602466 -0.1107927121007593 -1.1408560422933292 198 197 198
-0.03488214816959068 -0.11385655741532538 -1.1418261544111057 200 200 200
-0.0353597665758048 -0.11500851253100948 -1.1441555215720818 201 201 201
-0.026169561788207174 -0.0954786961239019 -1.1613404850038533 202 202 202
-0.026423122793892775 -0.09615284003305115 -1.1640494455081232 203 203 203
-0.0031604180604054566 -0.04652861825090973 -1.2030938759313659 203 203 203
-0.005103974560904702 -0.05082120545726057 -1.203279883386048 204 204 204
0.082740173301303 0.13629501356787954 -1.3571584773084981 206 206 206
0.08342223225164272 0.137601667375293 -1.3617924428450028 206 206 206
-0.0031062231105830063 -0.04763775235385165 -1.231996444627151 208 208 208
-0.0019195985223690037 -0.04523816943671219 -1.2370871260626999 208 208 208
0.06623745794827134 0.17044682293778507 0.12893951685875474 184 184 184
0.05272649043037187 0.14032561585625974 0.12379495557014215 184 184 184
0.055263887354540464 0.14583484282700612 0.12125373573044929 183 184 184
0.05921378026258394 0.15447871934865146 0.1189093047574937 181 179 178
0.0643472615611411 0.16574851908750068 0.11671246539289189 146 134 130
0.057428003727626915 0.15026575319768698 0.11272242220261869 124 104 97
0.046801893587537745 0.1265582265603395 0.10825364326405418 113 88 77
0.04277459486282647 0.11749788791013167 0.1047737314639419 108 79 63
0.039937853299962425 0.11108061279611801 0.10148218048909868 120 90 74
0.03765377010947955 0.10589043613890245 0.09828245068118974 141 112 96
0.03578060025784546 0.10161261394423032 0.09515052792501331 151 123 109
0.03471534062142408 0.09912773839316061 0.09213140775851845 143 117 105
0.03524820546552144 0.10018849613298475 0.08931193700736725 130 106 94
0.03531207463062751 0.10020868054454794 0.08643270111477033 121 98 83
0.037280261612562704 0.1044528637579922 0.08376851917748435 104 82 65
0.039287661681655116 0.10878339014765367 0.08109365388699079 95 69 51
0.03541192015502365 0.10006535544045844 0.07777656208708117 82 52 32
0.031461663891189554 0.09118318996462592 0.0744784171000679 71 40 21
0.026223257534531162 0.07944563230934396 0.07107934693735413 66 35 18
0.02522089349837421 0.0771025997797147 0.06812276701126208 62 29 15
0.028223089527650114 0.0836389320128196 0.06554200793464916 57 27 10
0.027811880021452243 0.0826064655070904 0.0626359446608142 56 27 10
0.027559358354181773 0.08192588389915302 0.05974534950070047 53 25 10
0.0261033237165919 0.07857739171675528 0.056757366621549746 56 29 14
0.02535969797373115 0.07680845537945526 0.05383438984537133 77 54 44
0.02303369701909812 0.07153237094893747 0.050797924575713325 102 80 75
0.020693131050738528 0.06622466379371547 0.04777607025447513 101 76 67
0.018996780093498873 0.062345326777670934 0.04481333316624008 103 76 64
0.018752128489205017 0.06168349175877684 0.04195427380644894 110 87 77
0.01505468262542267 0.053370658540326577 0.03888828377838835 148 132 125
0.04849664139324447 0.12735033952263944 0.03794903638674161 142 125 119
0.035356932039959536 0.09811383343991613 0.03430066691999422 133 114 106
0.057284052152616075 0.14656982095209253 0.03247828179661377 147 126 115
0.024615009446280686 0.0740726780782765 0.027995410369667503 130 105 94
0.019322561520036332 0.06222838581698664 0.024902342738704328 108 78 65
0.0180133156422634 0.05920840548155528 0.022000250355531804 87 53 32
0.016320366029169697 0.05533893676052991 0.019093108309385952 78 41 17
0.01317489131395872 0.048253046661109716 0.016151389041355674 67 34 11
0.010365786247437996 0.04191296895435697 0.01324065434427943 64 29 8
0.009634129101588172 0.040173972629282656 0.010399628631692387 60 25 6
0.010462382314566216 0.04188916601163422 0.007595216773950894 60 27 8
0.009789381452341029 0.04028016460729542 0.00475816467782209 58 26 9
0.01065722871569676 0.042082661018902845 0.0019458408731957517 54 23 7
0.010920439938385207 0.04254632155728943 -0.0008797054619235616 53 23 7
0.011323757033319927 0.043320004189044616 -0.003707227065230123 54 23 7
0.011375149044544706 0.04331454484687353 -0.00653959154924974 53 25 9
0.012622406077317294 0.04595587041202094 -0.009374311153078433 49 23 9
0.01375451640968646 0.04834193710062322 -0.012218472139572677 47 23 10
0.013716664476548374 0.048138463940593595 -0.015062348833015325 47 26 12
0.012452212166671492 0.04522064986063854 -0.01789264388597801 49 30 17
0.020619735320426037 0.0631735143859502 -0.020858653028560475 51 34 24
0.01972473924530237 0.06107240202030655 -0.023713640226098155 52 37 28
0.01802352475296476 0.05718782740321552 -0.026545053167832216 54 37 28
0.01693950862416434 0.05466913491716523 -0.029381270797839434 50 34 26
0.015195278331372433 0.05069026081817717 -0.03219105946968364 34 19 14
0.02195638654768668 0.06552536599726791 -0.03527234639361208 28 15 10
0.02590785966401163 0.07414399405249952 -0.03829977594987085 24 14 9
0.03247936927112536 0.08855600529198658 -0.04146287460920203 20 12 8
0.030457584202399805 0.08396184827731126 -0.04429531335216503 14 9 7
0.03310684524690058 0.08969760259960936 -0.04733711803735722 10 9 7
0.03862390383794742 0.10177378880237878 -0.05054634885185002 10 9 7
0.0383903365662695 0.1011333312893656 -0.05348039756742557 11 8 7
0.03706653929621517 0.09808251507894582 -0.0563498999921626 15 10 9
0.03281138530011882 0.08855157589184746 -0.05902849040107571 21 13 12
0.03209934682716501 0.08685427738895336 -0.06191051195895328 18 13 11
0.03268898943990264 0.08803444219639953 -0.06487878463836369 19 14 12
0.03009778908016739 0.0821838051936398 -0.06761991344131582 20 15 12
0.028697015656894538 0.07896492110537821 -0.07043457047444089 26 18 15
0.02684658186931256 0.07475268031113894 -0.07320396170778339 36 25 20
0.02528220903962245 0.0711731082371202 -0.07598495179014673 74 59 52
0.02247812077347704 0.06485460010402988 -0.07864702721154539 88 71 64
0.02036563659002569 0.06006502281829665 -0.0813528302752772 68 47 37
0.02075927747778771 0.06081301180942638 -0.0842819646164324 55 30 16
0.019350985870769152 0.05757997447773905 -0.08703752569495331 55 28 16
0.02037156902234434 0.05971287120595279 -0.09003184268789938 53 27 14
0.019078300285071695 0.05673431530753653 -0.09278992211236016 51 28 15
0.017970255439906047 0.05416522827484988 -0.09555985628457961 61 40 29
0.0185846730595123 0.05540068154960664 -0.09851738075529148 76 57 48
0.015963170009065757 0.04948952215756863 -0.1011029193212803 64 41 32
0.013439956930202888 0.04379617762524184 -0.10368219907406498 68 45 34
0.010040938520521294 0.036169656800537284 -0.10613556907323604 77 54 42
0.009389401394587158 0.03461055965512691 -0.10891566412827251 93 66 55
0.00843428999621666 0.032381376855333543 -0.1116521702725038 95 68 57
0.0074783752501081675 0.030150671841707957 -0.11438259661302358 96 73 61
0.00668138382666259 0.028271047222203555 -0.11712905348319716 135 111 99
0.005125288157296818 0.024715993487265345 -0.11976278128620445 156 136 126
0.005225293971917365 0.02481676840702532 -0.12262759582364957 134 109 94
-0.0019191469636421592 0.008928443253863584 -0.12441148021854598 98 65 43
-0.003395401020037079 0.005551507253014662 -0.1270119629252053 85 47 18
-0.0037901967652598997 0.00456150965585931 -0.12977215827622854 85 45 12
-0.0037167796721538186 0.004604756655680293 -0.13260554849367742 84 45 17
-0.0035874943275117747 0.004771210917778129 -0.13544961843906142 78 42 17
-0.003201484242867215 0.005503997274731994 -0.1383386675462737 70 36 18
-0.0031383568164559273 0.005524295711378871 -0.1411761869729113 61 32 16
-0.004342267340986363 0.0027494515383413853 -0.1437933826201829 59 32 13
-0.0011988681617231562 0.00956441956690219 -0.1471795520410074 62 36 21
-0.0032955275848996976 0.004820438595004722 -0.14963420590627005 62 40 29
0.002438263422333411 0.017347393241626066 -0.1535310242810644 62 44 34
0.0010486809468736851 0.014162788839850823 -0.15611972494790596 63 44 37
-0.0035155642435035356 0.003977721576703713 -0.1580854493483899 64 45 37
-0.005163879378026013 0.00022385705472794185 -0.1605931456296487 64 46 39
-0.0013026526826181786 0.008618546333622436 -0.16419533857271437 64 45 38
-0.0017439060113854793 0.007526051859632846 -0.1669476778967524 62 43 36
0.005122292842864407 0.022543725962645027 -0.17121778030897997 61 42 35
-0.003826143276582464 0.002577225941201737 -0.17502784132025342 61 42 35
0.0018501546089803988 0.014969199109996827 -0.17910828209551535 61 42 35
