ply
format ascii 1.0
element vertex 694
property float x
property float y
property float z
property uchar diffuse_red
property uchar diffuse_green
property uchar diffuse_blue
end_header
0.18666362695344577 0.10082739708213548 -0.1434779697541176 69 41 26
0.18768419824901092 0.0998451619985694 -0.1461988563593158 69 45 32
0.18774183832160068 0.0999114219610611 -0.14900351644812182 71 47 35
0.18308049342437613 0.10511723224547882 -0.15224588397353053 68 47 36
0.18303642587478872 0.10529486715833859 -0.15507310802433974 67 47 36
0.17999894817055867 0.10873334870056423 -0.15819230911677734 66 46 35
0.18591137309127337 0.10255186356558457 -0.16325940589640373 65 47 35
0.18360608171045728 0.10532328918844142 -0.16915003911641655 65 47 37
0.18234787478719156 0.1068245024364966 -0.1721167186563314 63 44 37
0.17980105024574553 0.10973055295857079 -0.17523287692947295 62 43 36
0.17966632674648747 0.11000791108547638 -0.1780900213538561 63 46 38
0.161496156741988 0.13021171274285123 -0.1887968365666871 63 46 38
0.15805006581378966 0.13410218342979052 -0.19210549355294912 63 46 38
0.15745201279609636 0.1348874873930696 -0.1950779882038573 63 46 38
0.15747190938085098 0.13499900970495216 -0.19797663343281618 64 47 39
0.15579566191229055 0.13696069054450466 -0.2010946834739945 64 47 39
0.16028895103720636 0.1323257642803059 -0.20631403117148506 63 46 38
0.15818012744637294 0.134759852903656 -0.20950007046984218 63 46 38
0.15728856026048607 0.13586620151503243 -0.21252966567549883 63 46 38
0.15946572565710998 0.1336239426297346 -0.21513561340522983 61 44 36
0.15779752331417934 0.13557809056080197 -0.21827968552020152 63 46 38
0.15850008372994462 0.1349449831046237 -0.2210904991998318 63 46 38
0.1445624956919627 0.15083435788820782 -0.23783694700245014 64 46 37
0.14629155397716812 0.149081546702979 -0.2405150417397796 65 47 37
0.1407650884371926 0.15525309921849564 -0.2443498489633671 66 47 37
0.1406893946451299 0.15547184450126766 -0.24732516011378045 64 44 35
0.1444491444327127 0.15150071007558327 -0.24967002997834808 62 42 33
0.14028260251449598 0.15618863104350503 -0.253324064126372 61 41 32
0.14072282352457502 0.15584394963842013 -0.25621814831438994 61 41 32
0.1398455144199549 0.15693897339991428 -0.25933796914440577 63 41 30
0.1369835393227294 0.16034007662356844 -0.26578940202355716 65 41 31
0.14726872943128416 0.1492346745292423 -0.2669352189717734 66 42 32
0.14719272892518845 0.14945369509363238 -0.2699092788090861 67 43 31
0.14343163478174242 0.15370161185785342 -0.27356006702831576 67 43 31
0.14035991679729834 0.15719664110687856 -0.2771017740997733 62 38 26
0.13979920228517603 0.15794664834308253 -0.2801877348031952 66 42 30
0.13799219685953687 0.16005977246231617 -0.28351459889515895 66 42 30
0.13696509179138394 0.1613203759812188 -0.286701311587678 65 41 29
0.14006216247319503 0.15807024965408165 -0.2890917446141823 62 38 26
0.14317003246285365 0.15480772774198082 -0.29146737339198475 63 39 27
0.14174079028752057 0.1565082637122979 -0.2947339832640767 60 36 24
0.1406161990406795 0.15787584870083582 -0.29794731487148096 64 39 27
0.12851220693521592 0.1712576257066628 -0.30340474140199614 83 62 53
0.13209957890697493 0.16747056297494337 -0.30568570608773116 68 49 42
0.13268727964894894 0.16696574864947517 -0.30857679233512825 88 67 59
0.13738828887336135 0.16264925922055729 -0.3256379984742368 73 42 23
0.14781398759082598 0.15136963958763222 -0.32630940913089695 75 47 30
0.1419047804305813 0.15811714564702894 -0.3336444241168794 53 31 20
0.1329979917818898 0.16801251442754297 -0.33871244764477876 36 18 10
0.1259587986656367 0.17586371434279607 -0.34338665574162797 79 60 52
0.12484084053033584 0.17722856196720566 -0.34669708224836054 77 56 45
0.11940781133481083 0.18332221971988427 -0.3510430079023404 79 57 42
0.1229331242841569 0.17959950808842354 -0.35325919950291335 77 54 38
0.11971696022311455 0.18326493482928524 -0.3570991028904755 72 49 35
0.1203563649627244 0.18270491520934623 -0.36000949295011075 70 48 34
0.12384960622552754 0.1790163522338189 -0.36221164466909384 71 49 37
0.12857455330506448 0.1739767446383515 -0.36409121793292193 56 37 29
0.12825078164129866 0.174471868663199 -0.3672243739779328 42 24 18
0.13377810719604857 0.1685510744749605 -0.3688705843651027 62 43 36
0.13371102683257383 0.1687643529589205 -0.37193033676157183 68 47 35
0.13225989368451957 0.17049570633687394 -0.3753508800988568 75 51 41
0.129618862560623 0.1735326146973313 -0.379091086590183 73 48 38
0.13256167734732227 0.1704447691486076 -0.38137120557057075 69 45 35
0.13237206118240785 0.1709331564418183 -0.38752705121346726 87 63 51
0.13273772763178973 0.17067220832734598 -0.3904832390185706 65 40 33
0.13969432400103915 0.16317828304753665 -0.39163797958425706 57 32 28
0.13834612446783648 0.16479761918299174 -0.3950509357310547 52 24 18
0.1526029406957802 0.14928882262518556 -0.39413393725399637 52 25 18
0.1551015040280445 0.14668448128161662 -0.39644786230805107 65 38 32
0.16309340896864907 0.13804885194552813 -0.3971989392963945 67 40 34
0.1639783085822561 0.13721471154690168 -0.3999396328090306 67 38 30
0.1664608687021249 0.1346261293072643 -0.4022186675220404 72 44 32
0.16845554185401113 0.13257286460428253 -0.4046289547199394 97 73 61
0.17159744127966275 0.1292592744861112 -0.4066964220569409 109 88 78
0.17148490485045423 0.12951968727669352 -0.40970871679811527 103 77 65
0.17748106106668282 0.12306986894262997 -0.410910523280285 89 56 41
0.17734204855620342 0.12335890047584636 -0.4139205495564556 77 39 22
0.17749071426403562 0.12333195978810986 -0.41684606321461487 71 34 12
0.1758780625193274 0.12524041448295356 -0.4203074558804973 76 39 13
0.18095840513572273 0.11979422433887302 -0.4217291251146243 79 42 18
0.18084203468837595 0.12005834006663589 -0.4247314799499389 84 49 26
0.1769828038476543 0.1244364645664592 -0.4288993111809262 82 46 22
0.17910262463350554 0.1222430573428325 -0.43121433543727283 81 48 27
0.17484248131951738 0.12706309146667094 -0.435534051932368 82 55 39
0.1718076288828066 0.1305369603049337 -0.4394858944776597 86 63 51
0.10182887757971285 0.21827457107333004 -0.6968930417109357 178 175 174
0.09967404004098274 0.2208121795638084 -0.7012463374413509 161 156 154
0.09707413529872289 0.2238433752224226 -0.70583374146118 142 135 132
0.09475200795454461 0.2265674992150781 -0.71029655330719 124 116 112
0.1115129818540662 0.20920084285113244 -0.7280815824050246 82 63 54
0.1134621193229332 0.20719011901968054 -0.7303425009459578 83 63 53
0.11540670878530036 0.2051840775289525 -0.732597939985998 81 60 48
0.11239362219904411 0.2086762466258237 -0.7374625159349538 81 58 46
0.11205102459943574 0.2092070304332151 -0.7409274674162203 82 58 46
0.11442327000617068 0.2067263171241412 -0.7429493757943614 80 58 44
0.13063366026421663 0.18993675522588419 -0.7602942279749211 80 52 40
0.13054791631558188 0.1901814582378659 -0.7635973812518094 80 53 40
0.16901072858045582 0.1499531216119478 -0.7962305283758229 94 74 63
0.1646669071928651 0.15507889758030552 -0.8052314310273595 87 66 55
0.16132615121013694 0.1589431673887941 -0.81045803273202 84 63 52
0.17561760323915981 0.1434800682086247 -0.8113544374194024 87 67 57
0.17203958804769143 0.14760902803088238 -0.8167399300668555 84 64 54
0.17342644387409412 0.14621187765384816 -0.8190787026383137 86 66 55
0.1751179741008267 0.14447527936364032 -0.821223269448824 93 73 62
0.18122914321187503 0.13781729595350736 -0.8206090722514229 90 71 59
0.18271644867762887 0.13630697992542132 -0.8228565656669832 91 72 60
0.18331963007126348 0.13578103592578392 -0.8256532433404705 92 72 61
0.18286535381742436 0.13643283063483616 -0.8291150350263855 85 65 54
0.1817096364932578 0.13786615811788885 -0.833024677500321 85 63 51
0.18137059928285526 0.13839002207754972 -0.8364230506268446 93 68 55
0.1839041047135413 0.13571359634686378 -0.8379927116869101 86 58 44
0.18637852302036878 0.1331025000029678 -0.8395891139965732 86 53 34
0.1879532821146622 0.13149347307741582 -0.841753077876714 86 47 23
0.1867625442123539 0.13296630513909366 -0.8456956481225602 84 44 16
0.18576817200351725 0.1342206206162978 -0.8495187342256593 85 45 18
0.18683206791291213 0.13318082771519435 -0.852009733280192 88 47 19
0.1904232145664718 0.12932336272082062 -0.8528467419136542 92 53 23
0.1850572240415651 0.1354520403819121 -0.859539060767427 94 60 34
0.18308878608293916 0.13779349750194173 -0.8640244666992135 96 66 41
0.18305453106490105 0.1379784944434026 -0.8672438306287734 97 71 48
0.1815868258079077 0.13976232827468582 -0.8714157150045252 98 72 49
0.17958687464368403 0.14214026873292865 -0.8759511168210843 97 72 49
0.17933809447136423 0.14256523880641095 -0.8793282054377567 96 70 49
0.17861418563808062 0.14352043187735755 -0.8830270162145604 95 71 51
0.17747687349841654 0.1449371426657724 -0.887009619550327 94 71 52
0.18514909459939463 0.136523640834995 -0.8850454511368269 93 70 52
0.1811253882619711 0.14116127845182674 -0.8909789362853788 93 69 51
0.18633187607187324 0.1354978021437888 -0.8906489723106612 91 65 48
0.18221156173704983 0.14024424262535534 -0.896669487265983 89 63 46
0.18286003541480367 0.13966800319048725 -0.8994409142015777 88 61 44
0.17945489943665582 0.1436174908058882 -0.9050023192859635 84 57 36
0.17768096828737445 0.14574644906988127 -0.9094553718858737 91 65 40
0.1741300368994793 0.149860318116322 -0.9151520853750887 104 77 51
0.17320162073048384 0.15104617641067192 -0.9190425936187704 108 82 57
0.17413697860972108 0.15015058012641652 -0.9216370432785381 111 85 62
0.1743320950864894 0.15008174910721409 -0.9247477109385247 101 75 52
0.17507467586970848 0.14940133074881723 -0.9274737194392134 93 67 46
0.17526527263362388 0.14933755549538413 -0.9305877080110951 86 60 40
0.17382209878697105 0.1510994361682964 -0.9348610731592779 78 51 33
0.1737392725976422 0.15134148855330243 -0.9381754358220432 67 38 23
0.1711548775744111 0.15437955298011796 -0.9432788328960732 64 34 22
0.17093010417282076 0.15478076850136113 -0.9467057792981062 67 38 23
0.18047123923849867 0.1442648172334848 -0.9431097820152442 66 37 21
0.1780060348102711 0.14716998923011082 -0.9481350657989305 79 53 40
0.17911104970373964 0.14608383592836444 -0.9505879130763417 86 63 51
0.18351671526620736 0.1413065369848998 -0.950636760272761 86 64 53
0.18235570191201073 0.14275389607616945 -0.9547268479639002 93 73 63
0.18434528384804572 0.1406776997196612 -0.9565174795717236 93 73 65
0.19037830245307183 0.13407808759292345 -0.955328130642666 92 72 65
0.18957260286797528 0.13512779035968725 -0.9591527666583106 91 71 64
0.1868531459894564 0.13831896575921582 -0.9643996160743519 89 69 61
0.188393677544894 0.1367440893481338 -0.9664986490166702 89 69 60
0.18884392732645938 0.13638904512762354 -0.9694039923089408 91 71 62
0.18347420233070721 0.14254770663785474 -0.9766610357369755 93 73 64
0.19008816298237016 0.1354429939490952 -0.9781968670881779 95 77 67
0.19712718855293695 0.12785952294912192 -0.9793489648699961 92 74 64
0.2031998414990971 0.12135527957919633 -0.9811727894164168 91 71 62
0.20917754123514137 0.11480774850442037 -0.9798107003174185 96 76 67
0.20700404774225284 0.11738947619850998 -0.9846840259122152 97 77 68
0.21473508847222622 0.10887600145148174 -0.9819323734628435 96 76 67
0.21554346601505592 0.10841006940723319 -0.990883629306902 97 77 68
0.21794087123526645 0.10586988805399153 -0.992204912268706 97 75 68
0.22137322686022542 0.10216916508515664 -0.9927038493362346 92 69 60
0.2242320459787532 0.09911063039595377 -0.9936378845178443 87 63 50
0.2300844765432816 0.09327698058799305 -1.004862348986768 79 39 14
0.22578152796360848 0.09824927008012493 -1.0114864268573642 78 39 14
0.2267098342821297 0.09735407887926184 -1.013923106368504 79 39 14
0.22414681206871045 0.10037585318742441 -1.0191766855507902 79 39 13
0.22704370666251844 0.09727189450483077 -1.0200210586414067 79 39 13
0.23429387770255095 0.089282095961839 -1.01731292997964 80 40 14
0.23391926940061722 0.08984803412091122 -1.0207871830968787 81 41 16
0.23284546669754036 0.09119894335991884 -1.0248372391684297 82 42 16
0.23880680474185007 0.08465285101695756 -1.0231199396534008 82 43 16
0.2340257212563621 0.0901656684172471 -1.0302191252257165 85 49 20
0.23447720003592082 0.08980461185150555 -1.0330225740166679 91 57 27
0.2267321591895392 0.09864755066691541 -1.0426181315910883 95 61 34
0.22622727730215375 0.09936145851240127 -1.046236998378448 96 62 35
0.2287121066905951 0.09671764392979093 -1.0473668634488174 99 68 41
0.23531883638636264 0.08944325425626493 -1.045036852785846 101 71 45
0.2355211808368127 0.08936204860045022 -1.048048800412466 104 74 48
0.23620119538233655 0.08874420076042541 -1.0506592777039943 105 75 51
0.23266007134410005 0.09286933045146309 -1.0568329078142993 105 76 53
0.23301718487668058 0.09261469149628122 -1.05972442781946 104 76 54
0.23469299410738684 0.09087798077057838 -1.0614951411331226 105 77 55
0.23383717387660233 0.09198651904909591 -1.0654169339856845 105 77 55
0.23502603683699544 0.09079685492252884 -1.0675965443500102 102 75 53
0.23396929628690094 0.09213160796993679 -1.0716978607207426 99 73 50
0.23364231408507902 0.0926461778740737 -1.075178636461057 97 71 48
0.22651892154109937 0.10080344355229766 -1.0845287677289472 88 62 41
0.22407075367188395 0.10370468578623876 -1.0898709589751743 72 47 29
0.2184067793995647 0.11022355094687095 -1.0980204917639513 68 42 28
0.22044641669121023 0.10807838418683807 -1.0994917191255875 59 35 21
0.22259609460257626 0.10595780475974081 -1.1040980635968727 63 36 25
0.2339459568306597 0.09333550536037988 -1.097363436820422 65 38 25
0.23725614380652427 0.08975796138479794 -1.09765860428427 66 37 23
0.23738537880845137 0.0897597622946487 -1.100750970276849 64 35 19
0.23267877733473305 0.09520480363539101 -1.1081338348192344 68 37 17
0.2354138395127407 0.09227387309699157 -1.108922942891284 74 37 15
0.23440786504461075 0.09355416065833283 -1.1130375156445096 83 43 16
0.23629537639795264 0.09157682218854471 -1.1145695554598287 88 52 20
0.2380491742107147 0.08974967569751317 -1.1162133350660501 98 64 34
0.23946022578400514 0.0883081841861881 -1.1181581212106955 101 69 41
0.24007667364210014 0.08776141413041778 -1.1208146924448055 100 70 44
0.24118242106873258 0.08666340181774049 -1.1230265950067781 100 70 46
0.24258969079429676 0.08522551209125842 -1.1249604709913084 99 69 45
0.23628440146529406 0.09247708682006675 -1.1339151077384377 101 71 46
0.23574522315578314 0.0932329169808935 -1.1376366607558104 99 71 47
0.241972967048761 0.08636301603372314 -1.1351616427300701 97 69 43
0.24118054776522074 0.08740386307726553 -1.1391071740826657 95 68 42
0.23914761378677568 0.08984328453881815 -1.1442022203675677 96 70 48
0.2371282552817699 0.09226798577229259 -1.1492974255369521 87 65 47
0.23528015765501048 0.09450018178622549 -1.1542464937551686 77 58 42
0.23374806214197974 0.09637660507386606 -1.1589134696302823 91 77 64
0.23511179664936702 0.09498790699655829 -1.1608900697763067 118 111 99
0.0710096801971775 0.21021860682379606 0.11047243000653233 184 183 182
0.07761174138514394 0.20324283469469773 0.10684928326364432 159 142 133
0.08180453897108028 0.19886045943755207 0.10349980353159502 129 97 74
0.08396438098764829 0.19666688958090955 0.1003707793549659 133 96 66
0.08635958670580582 0.19421944690535833 0.09722645755291336 109 71 40
0.0882514929474616 0.19231376999909125 0.09413929378990966 92 55 29
0.08976351089772971 0.19081705217634587 0.09109446912490306 77 40 18
0.08932594014506073 0.19142063480689916 0.08823355024780011 75 39 17
0.08846090103756504 0.19248497445855284 0.08540760878863231 76 42 18
0.09131604434971019 0.18954061392483132 0.08225118890300871 72 39 16
0.09387099158196929 0.18691928633193317 0.07913120166295903 71 36 16
0.09624496835871382 0.18449257649794654 0.07603580533151519 69 34 14
0.09687717749086616 0.18394293890690844 0.07309025706780632 68 33 13
0.09848026508558749 0.18234662651644895 0.07006944207184813 69 34 14
0.09942386823814478 0.18146106065717374 0.06710466600094171 70 35 14
0.09746972892209285 0.18369973852180907 0.06435849929590659 73 38 16
0.09713211132246086 0.18419576361838788 0.06148546365092393 72 37 15
0.09693303171945292 0.18454252110501113 0.05859979916718106 70 35 13
0.09751599173797229 0.18404595328442355 0.055658600541511276 68 32 11
0.09672597620145815 0.1850302268063933 0.05280895978214203 67 32 11
0.10002125622279745 0.18160792397344477 0.049694037102793846 68 32 11
0.10018635012386448 0.18156187018509967 0.046784680678171625 67 30 11
0.10175259058968428 0.18000416071389644 0.04379133118800376 66 29 10
0.10281637409842598 0.17898835599833665 0.04083208091011952 65 28 9
0.09346819561535732 0.18920786624879593 0.038449640580126974 63 26 7
0.09371591350965529 0.1890734905462698 0.035517356839481894 63 26 7
0.09453203205846872 0.18832566395612912 0.03255583423819179 66 29 10
0.09451162914391009 0.18848067343306363 0.029637042379409374 69 32 13
0.09474904360198401 0.18835744309975744 0.026704733083508635 70 33 13
0.09411200315550525 0.1891782807799017 0.02381069528099431 72 35 14
0.09875445263899038 0.18429913066509918 0.02069023241103226 70 34 12
0.09943354901160995 0.18369868933348688 0.017746670279016462 70 34 13
0.09998694569223471 0.18323392083845053 0.014809344712574314 69 33 10
0.09957929773973068 0.18380701898415325 0.011907148723675619 66 30 6
0.09780241504918047 0.18585914729455694 0.009047442559235092 65 29 5
0.09725950181503829 0.1865787865052149 0.006140020674237266 69 33 8
0.09713870238070371 0.1868425997653267 0.003216512279025304 71 35 12
0.09658532311010513 0.1875738532477729 0.00030263114999489263 72 36 13
0.09647329288091837 0.18782841608452477 -0.002626022638820005 71 35 12
0.09765237497975526 0.18668792310477902 -0.005585685405296135 68 31 8
0.09745692587325368 0.18703268475818605 -0.008513743960443434 67 29 6
0.09756116850916967 0.1870536529536693 -0.011449561169752563 66 28 7
0.09795692891266145 0.186759573380466 -0.014391044926249062 65 27 6
0.09766423748403724 0.18720968046081896 -0.017322793087477795 63 26 6
0.09789089532701514 0.18709845827246713 -0.020263308908072496 64 27 7
0.0979806973740244 0.1871352228651755 -0.023203021980619354 66 30 10
0.09717421123070201 0.1881411686242639 -0.026137358346915118 63 27 7
0.09760151838913624 0.18781315252956915 -0.029082892334238976 62 27 8
0.09761966521707811 0.18792761398452215 -0.032026876116497426 52 19 4
0.09913724850845759 0.1864203908101442 -0.03497321147547078 53 20 9
0.10079825696820724 0.18475779297257902 -0.037914148414740216 54 23 8
0.09927562896456826 0.18653889842588828 -0.04086122019687393 55 24 9
0.09765985186914464 0.18842115102599913 -0.043817008527823845 54 23 8
0.10021957497173731 0.18578602131901392 -0.04674737704088143 54 23 8
0.09737913406049083 0.1889938118980725 -0.04972381596816701 55 25 11
0.09798772589658569 0.18846979253266471 -0.052670983190611885 55 26 11
0.09872128269378797 0.18781047288657354 -0.05561511893939481 54 26 9
0.09961930450026185 0.18697306159002663 -0.0585547283886063 60 35 21
0.10055271122880319 0.1860972347598096 -0.06149119442818527 91 72 64
0.10984779885602186 0.1761691596056923 -0.0642465884692666 77 58 51
0.12018614336265865 0.16510977999609927 -0.06693793983190684 75 49 39
0.11498116964762051 0.17087828682190137 -0.06998541739479494 82 54 40
0.12867113899206187 0.15645108657456827 -0.07832589279885226 101 78 64
0.13484334963646044 0.14989760949401654 -0.08101304299539544 95 72 58
0.1406696960938679 0.14371762283718023 -0.08368709521854213 84 59 46
0.13867557324034618 0.14600904740192389 -0.08664184890904084 68 40 27
0.1396377183704162 0.14509788862128856 -0.08948503792367374 68 37 19
0.14002516366746404 0.14480933470397866 -0.09235038089296019 75 49 32
0.14325478671885547 0.14144075846554544 -0.0950857371869574 99 78 67
0.14649368290344078 0.13806154657906494 -0.09780779245357007 94 72 64
0.15145017861889615 0.13282007215485608 -0.10043092872692176 85 58 48
0.15703017323487736 0.1269018002850927 -0.10300092161297937 97 65 54
0.1638171710554589 0.11967397364020324 -0.10548179526858319 107 76 63
0.16687889696996938 0.11648372341026307 -0.1081453205097569 103 70 59
0.168185424932131 0.11519605565758753 -0.11090015620611515 108 76 65
0.17089644127624976 0.11238517922494856 -0.11356469209735669 128 101 89
0.17249355594861113 0.1107818325214373 -0.11628922663044597 142 120 106
0.17444756849176368 0.10879113942129662 -0.11898466230403057 137 112 95
0.17956133977840386 0.10337275224742593 -0.12145842786363989 117 86 63
0.1799773928182049 0.10304944349355002 -0.1242400618365843 94 58 29
0.18495705138891455 0.0977750856120032 -0.12669127623155269 87 48 20
0.18543073213091715 0.09738874841447909 -0.12945757932673008 82 45 20
0.18558997407135808 0.09734357637384386 -0.1322473283094148 75 39 19
0.18523349412691223 0.0978580975663674 -0.13507852936949033 70 37 18
0.18593787491911484 0.09722140303519919 -0.1378265662931347 68 36 16
0.18538679104496136 0.09794731447709396 -0.14067766942226698 65 34 17
0.18602475885864342 0.09738268219858906 -0.14343075432602428 68 39 24
0.18453560943361996 0.0991271964654731 -0.146369467066198 70 45 32
0.18406148282854265 0.09977006067565958 -0.14922473766702213 71 48 36
0.1812692469588253 0.1029301129161066 -0.15229778653080941 68 47 36
0.18733314664473966 0.09647381564854784 -0.154546499674584 67 47 36
0.18582600303280816 0.09823860574847885 -0.15750306888686738 66 46 35
0.17986956697123552 0.10548139084935919 -0.17507397685212206 63 45 37
0.17829109509752175 0.1073259952599718 -0.17808907053062373 63 46 38
0.17575091738127926 0.11021620210241181 -0.18122317552443426 63 46 38
0.16153565125569483 0.12592836785120848 -0.1886204436156076 64 47 39
0.15925862810143418 0.12853518808405487 -0.19178180815227733 64 47 39
0.15863782579599087 0.12934182853689136 -0.19474974705606965 64 47 39
0.1567252286948876 0.13155329109967412 -0.19788489361372813 63 46 38
0.15460628094382523 0.13398960974370744 -0.20105664087099281 63 46 38
0.15561024119763672 0.13303010899766704 -0.20383144546336576 63 46 38
0.15356759933422906 0.13538411864910507 -0.20700810018748178 63 46 38
0.15019758987265167 0.13918246993469507 -0.2103748829656053 62 45 37
0.1521647248998077 0.13717551648184664 -0.21302493537606315 62 45 37
0.15427980294961485 0.13500726892587278 -0.21564691105217593 61 44 36
0.15379132718904745 0.13567149216365548 -0.21863037874476815 61 44 36
0.1547212563019722 0.13479241913695844 -0.22141299014642588 62 45 37
0.15544123519770106 0.13414170509419562 -0.2242236310166651 62 45 37
0.15801643748798821 0.13147172976859822 -0.22675653338517865 63 46 38
0.15637822115621108 0.13338750885165754 -0.22991554528877825 62 45 37
0.15670802357556438 0.13316134344965472 -0.23278180885942595 63 44 37
0.14136197312140877 0.15013580116379716 -0.2410404914966769 64 46 36
0.1405916656311705 0.15110919396045164 -0.24411924848479277 64 44 36
0.14984343590151256 0.14116880655481606 -0.24557566380626775 63 43 34
0.14737661905253566 0.14398928657863005 -0.24892098790094808 62 42 33
0.1429599986385703 0.14893408040388928 -0.25260452732932953 61 41 31
0.13725513470911332 0.15528315286228925 -0.25652767444516233 60 40 30
0.1310432417092022 0.16218584187452517 -0.26056528590479777 61 40 29
0.13344374758096936 0.15970655000829476 -0.2631362077633666 64 41 30
0.13968281856909004 0.1530442547833334 -0.2650219420529491 65 42 32
0.14625697289266795 0.14601558402146778 -0.2668209716967647 67 43 33
0.1464753776176935 0.14591228374487175 -0.2697394296065585 67 43 32
0.1479405504510446 0.14445011562070775 -0.2724303761835309 70 46 35
0.14354131761610722 0.14938012099913583 -0.27620213195344406 66 42 30
0.14414248660282353 0.1488599764151704 -0.27905810116703406 65 41 29
0.14100522539867466 0.1524155760095683 -0.2826222417531474 66 42 30
0.13796442742688933 0.15586672081036046 -0.2861837459178088 63 39 27
0.13902908396549934 0.15484176729683677 -0.28896286222895967 54 30 18
0.14049141725702918 0.15338297233973844 -0.2916604375079166 53 29 17
0.13972414256607762 0.15435568861194696 -0.2947963610379925 67 43 31
0.14082713970315242 0.153288606827991 -0.29756100768732047 69 44 31
0.13120797411527377 0.1639178519188226 -0.30250421906791314 80 59 49
0.1323146954567132 0.16284750712471605 -0.3052856636523744 71 52 44
0.13342006218825964 0.16177847918368843 -0.3080638523752969 81 60 51
0.13516344256441878 0.16001309990644735 -0.3107042654168862 92 70 57
0.1389250383920535 0.1560449697692952 -0.3129089216203566 92 66 50
0.1373206994821628 0.15793246891100082 -0.31625152280245034 82 49 30
0.13623436416639112 0.15925497465768562 -0.3194904883415686 72 40 20
0.13721616944792542 0.158320189331066 -0.322281816215731 73 40 20
0.1364716160605663 0.1592699487873912 -0.32545327604400803 76 45 27
0.12818392851903715 0.1685936452789907 -0.33335123140851597 77 50 34
0.12661608035977595 0.1704438583051346 -0.33674174617151403 52 30 19
0.12462401008947006 0.17275777760992567 -0.34023912434133613 32 15 8
0.12371778835838651 0.17388618673856493 -0.34349377453832236 67 48 40
0.12411775005497544 0.17358806256956627 -0.346446225611887 78 56 45
0.12589024701434093 0.17179050675947777 -0.3490716208731019 79 56 41
0.12356439377412866 0.1744703022273819 -0.3526756195206951 74 50 34
0.1200586608065215 0.17843986213865892 -0.35657833370798203 71 47 33
0.12112205755911618 0.17741726613710992 -0.3593792940581601 71 47 33
0.1264752725409762 0.17170631799191916 -0.3611158297774232 73 49 37
0.12946823830887857 0.1685739981816563 -0.36341839425294603 52 33 24
0.13092458597253412 0.16712076109500634 -0.36609585419087376 43 25 20
0.1350164896631242 0.1627861406362323 -0.36809788238503194 52 33 27
0.13699225876732965 0.16076427395856477 -0.3706255420427142 75 53 44
0.13557884686979704 0.16244777549455106 -0.3740232340372844 80 56 48
0.13366171251573938 0.16468246900446837 -0.37756067988360814 73 49 40
0.13089967535800665 0.1678416321954152 -0.3813313385361223 69 45 36
0.12424305917965053 0.17526100549193618 -0.38615212930288995 72 48 36
0.13132293016777902 0.16765662752606944 -0.3873205190933362 86 63 51
0.13793368385810068 0.16056399868110885 -0.38858444703308137 72 49 42
0.14602004021364437 0.15185568212459763 -0.38941640992049875 66 41 37
0.15032996878930055 0.14727765189235056 -0.3912517113023599 56 28 23
0.1537301373246566 0.14369427644820645 -0.3933210041520466 56 28 23
0.1574671338170988 0.1397416411938822 -0.39528169644294375 59 30 25
0.15343338838653775 0.14429302366288368 -0.3994198570709999 65 36 32
0.16267080218937763 0.13431921169829578 -0.3998014984874217 69 40 32
0.16542410909800334 0.13144145938832613 -0.4020020201956022 71 42 31
0.16834036295895127 0.12838480052422002 -0.40414407472053987 106 81 70
0.1701100268027535 0.1265829723466285 -0.40660839026699397 114 93 83
0.17136482731433939 0.1253446071545413 -0.4092173124983291 103 79 66
0.17588033040183335 0.12053526095609368 -0.41085575264671703 90 60 42
0.17606362829508296 0.1204696657282555 -0.413768358776548 84 49 28
0.1781325760329395 0.1183387304323315 -0.41611408408157047 80 42 19
0.17974584978278804 0.11670657610488051 -0.41858986460983894 77 39 14
0.180294889055143 0.11624004118369302 -0.42138493208751016 84 47 22
0.17795172477832416 0.1189422463909135 -0.4250698608233229 87 52 29
0.1760597835083674 0.1211506013737389 -0.42862729344222894 83 48 23
0.17710759375480375 0.12013791999937043 -0.4312758007343694 83 50 29
0.17667139075068922 0.12075149217692085 -0.4343885243851824 82 54 37
0.17564719401560205 0.12200970452609844 -0.43769150633430154 85 62 49
0.1005951342401441 0.2142276949941868 -0.6801150463569722 177 175 174
0.09843897017891576 0.2167563245623472 -0.6844297436525689 162 159 158
0.09664863896070018 0.21888174081530737 -0.6885791559387705 146 143 141
0.09480351494053399 0.22106811613938876 -0.6927657855508212 132 125 122
0.09679067762208754 0.21902440860638603 -0.6950844832227616 120 112 108
0.09879896435733487 0.216957016043951 -0.6973847990324753 110 101 96
0.10080312350917725 0.21489381274656927 -0.6996790741864456 106 94 88
0.10289013813778401 0.2127387475705534 -0.7019240522472842 102 88 80
0.10535995996457677 0.21016053322680064 -0.7039691352867713 98 83 74
0.10259465811876904 0.21336397225873055 -0.7086343625994941 93 77 68
0.10406136192323065 0.2118934408377131 -0.7111780453669583 89 71 63
0.1044144728627046 0.21165285867203237 -0.7142812904184321 88 69 61
0.11011429353000607 0.205803162374047 -0.7212024006631 83 61 51
0.111096447684475 0.20486687028511888 -0.7239689316091891 81 59 48
0.11302427439985664 0.20288521377036425 -0.7262409341916117 81 58 46
0.11468931685580658 0.20119368137587312 -0.7286423957746612 83 59 46
0.11300682363434233 0.2032025369789105 -0.7327934990197263 83 59 44
0.1147921591888404 0.20137779472488757 -0.7351268824418822 82 57 43
0.1435691132607388 0.17073024924177055 -0.7456135035220159 80 52 39
0.1440350012128575 0.1705075283394767 -0.7517870177126957 79 52 39
0.13064751057547208 0.18576820557343707 -0.7689288566426986 80 53 41
0.16892352520890222 0.14541598808501593 -0.7919195328625176 88 68 57
0.16876916449002508 0.14573215408758494 -0.7951954880666539 86 66 55
0.16704258469954764 0.1477918484649518 -0.7994158542106722 85 64 54
0.16739636461257162 0.14754489084712924 -0.8023950095751361 85 63 53
0.16523363083816045 0.15008903740124915 -0.8068943779396575 81 59 48
0.16728984548392678 0.14795396899728386 -0.8088469861442427 82 60 49
0.17316378719748693 0.1415833328980576 -0.8084654925722897 84 62 51
0.17057809317434003 0.14459705321564806 -0.8132305129756678 83 61 50
0.1742912821788796 0.1406223685344279 -0.8141417437903418 80 59 48
0.17495695645184495 0.14002870290398386 -0.8169153345778083 84 65 53
0.1757613873991152 0.13928097035558246 -0.8196013762613342 86 66 55
0.17998126354166738 0.1347422704682345 -0.8201617159448898 86 66 55
0.18049663908495356 0.13431479450674438 -0.8230149267244822 87 66 55
0.17924077158336363 0.13585361733067633 -0.8269773440404814 87 65 54
0.18216486219745764 0.13275196109363827 -0.8283175612550667 84 62 51
0.179156859703413 0.13623656513982282 -0.8333924723265237 86 63 51
0.18067698369138063 0.13469349517344312 -0.8356121098081607 89 62 49
0.1836614623434321 0.13152383321968783 -0.8368932676936844 88 59 45
0.1867436691468261 0.1282450143342084 -0.8380985897293199 82 49 29
0.18702468501664438 0.1280772274483756 -0.8410880439887461 81 42 17
0.18660334560409228 0.12868973601231964 -0.8445303814687153 82 41 14
0.18623838768411277 0.12923977600564218 -0.8479400865672917 86 46 20
0.18756362101181817 0.1279118691396005 -0.8502556516995452 89 47 19
0.18469971562849505 0.1312391106297289 -0.8552974759276555 94 56 26
0.1839622838090973 0.1322037027162168 -0.8589637085507489 94 61 34
0.18480144587644032 0.13141611599178404 -0.8615994949632843 94 64 39
0.18389516178548748 0.1325687267835755 -0.8653840222908922 96 70 46
0.1815137593420639 0.13536160083604842 -0.8701515824726884 97 71 47
0.1861708070893384 0.13032923357709597 -0.8702547617992961 94 70 47
0.18469583541855578 0.13211461064149702 -0.8744273142857761 94 68 48
0.17567019572524156 0.1422975473360683 -0.8836660997233761 92 68 48
0.18346575668937262 0.13377375496622562 -0.881643848594358 92 68 49
0.1837624890796057 0.13358946141594044 -0.8846441123302919 92 68 50
0.17948549329962707 0.13849323617821574 -0.890742728700095 91 67 49
0.18177556259075095 0.1360917683205906 -0.892399771260968 91 65 48
0.180750447453431 0.13737860476498845 -0.8963093983006929 90 64 47
0.17946213635433308 0.13895864330026214 -0.9004062858166457 89 62 45
0.17809350176310842 0.1406284539530615 -0.9045667158921791 86 60 38
0.1773139466212198 0.14164299700462507 -0.9083293404216205 87 60 35
0.1741640067831405 0.1452963947911904 -0.9137396029479217 100 71 45
0.1732075138720393 0.14650871472238064 -0.9176427606922559 109 80 56
0.1735977944147139 0.14622186299228676 -0.9206128045381251 115 85 62
0.17452134866446234 0.14534120057568864 -0.9232091362273358 106 78 55
0.17513406755431285 0.14480655424195046 -0.9260209889656205 97 70 48
0.17532434992228568 0.14474232647125607 -0.9291294786324618 92 65 45
0.17319479098897705 0.14726208783416467 -0.9338812630047295 85 58 40
0.1737314610950471 0.1468123384283535 -0.936751132966144 70 41 26
0.17121617333310235 0.14976267768599127 -0.9417965332757086 64 34 22
0.17512643414014317 0.14570244024619292 -0.9455092832177872 65 35 20
0.1723601154493343 0.14893349770555625 -0.9507567380276433 77 49 35
0.18031978909080354 0.14021062209968949 -0.9482607144191127 89 64 51
0.18151280707536643 0.13902853553401143 -0.9506381076829222 86 63 51
0.18258917667966518 0.1379762876154757 -0.9530961138586466 87 67 56
0.18484412377006615 0.13560986905067035 -0.954688631401654 89 70 61
0.18954860148003858 0.1305117273316227 -0.95447402400145 92 73 65
0.18612870937668194 0.13447234606437714 -0.9602188950030532 93 74 66
0.18541084885220158 0.13542039573453724 -0.9639866915412707 92 73 64
0.1857980534642185 0.1351361359323852 -0.9669405981168082 95 75 66
0.1902849690015343 0.13027868130681175 -0.9668439279492412 94 74 65
0.18713345731666933 0.13408939126403063 -0.9756707206137039 93 75 65
0.19011810878705693 0.13105419267143814 -0.9799081837219923 94 76 66
0.1927564697160933 0.128257121570464 -0.9811504724411638 92 74 64
0.1954968918696093 0.12534558823593905 -0.9823033426633823 91 71 62
0.19914211596530434 0.12142344515782895 -0.9827541834346729 93 73 64
0.19978155278313942 0.12085627972903495 -0.9854865363903523 97 77 68
0.20866641749427675 0.11108260650406411 -0.9818903220354559 98 78 69
0.21282846537149974 0.10658073472134172 -0.9818859900359437 98 78 69
0.21562566605933342 0.10360220167794146 -0.9829161733310178 97 77 68
0.22097341868698495 0.09806351799074686 -0.9883051351931625 95 73 65
0.22323687270612796 0.09567934678782081 -0.9897099000424671 90 68 58
0.22325331003876853 0.09609473791785207 -0.9992203297029032 82 48 30
0.22586785186833885 0.09331711508937003 -1.0003239811602072 79 41 22
0.22677565045701348 0.09244684068647616 -1.0027742362731835 79 39 16
0.22799593188736106 0.09122708206963302 -1.0049719487914919 79 39 14
0.22332911229050414 0.09658943554277323 -1.011881707392636 78 38 13
0.22361832913158516 0.09655618023274079 -1.018019609221745 78 38 12
0.22665184088704982 0.09330852684045535 -1.0187528211362373 78 38 12
0.23331720029100067 0.08599775700257972 -1.0165240918243479 78 38 12
0.23373835487999114 0.08567079578186793 -1.0193466808700127 78 39 13
0.2325881509560691 0.08710186142535085 -1.023452437166383 80 41 14
0.23790218138220978 0.08130027289333722 -1.0222684077369122 83 44 16
0.23315306530583352 0.08675862549601804 -1.0293315730816035 87 50 20
0.23341168589071204 0.08661370246377623 -1.0322911919851738 91 56 26
0.2278180327141614 0.09301916547540112 -1.0400933414849216 95 60 33
0.22789930448489454 0.09307350358501332 -1.043216320133082 97 64 37
0.2282399033700958 0.09283757886058322 -1.0461246973875176 99 68 40
0.2344869593013422 0.08598851492953762 -1.044099462444517 100 70 45
0.2345963589296563 0.08601076759923347 -1.0471859440151476 105 75 51
0.23443564082257182 0.08633557463464422 -1.0505006478452255 108 78 55
0.23241088462036352 0.0887482327396431 -1.0553896858142595 107 78 55
0.23210625961908854 0.08923469431264397 -1.058836225874998 104 76 53
0.2331030185725067 0.08826343942004526 -1.0611819537055274 105 77 54
0.2334127048439893 0.0880617977826749 -1.0641089486871342 103 75 52
0.2323996617667402 0.0893422618189872 -1.0681653421358834 100 72 50
0.2318329456790813 0.09012289297560538 -1.0718466218869631 97 71 48
0.2318031120435122 0.09030204228285854 -1.0750714627006415 96 70 47
0.225386047677965 0.09764039140882527 -1.0838019731316455 88 62 40
0.221376368957573 0.10228176591139851 -1.0904874603326478 75 49 31
0.22033496161062754 0.10359649307336632 -1.0946225488100836 70 43 29
0.22037624259856597 0.10369763250614025 -1.0978234090642678 56 32 18
0.22019764324651325 0.10404540192883763 -1.101217635861686 56 32 20
0.22364365954095056 0.10032846659251429 -1.1014433108665613 60 34 22
0.22767912400838336 0.09594967089775605 -1.1011351895731831 64 37 24
0.23022649086319538 0.09323916899044109 -1.102117304802701 69 40 26
0.23255119957538184 0.0907779126646878 -1.1032842485023515 64 37 20
0.23091429179553802 0.09276085149356521 -1.1079488559005952 66 36 16
0.23241278056408807 0.09122617628979103 -1.1098390321572293 74 38 16
0.2335767817900351 0.09006657338561101 -1.1120210025509267 83 44 17
0.23539432159084434 0.08817330357363137 -1.113614588481089 88 52 19
0.23682879386340533 0.08670963650527008 -1.1155435784230217 95 61 32
0.23826577115789505 0.08524289014059674 -1.1174644478737967 98 65 37
0.23909976387400683 0.08445282432356935 -1.119923048075897 97 66 38
0.24006481566745477 0.08351548562108292 -1.1222604701508265 98 67 41
0.24111346923127644 0.08248411622263796 -1.124518700054651 98 68 43
0.23665857548440913 0.087633212046893 -1.1317789009164092 98 68 42
0.235505312713847 0.0890752469259826 -1.1360528530531604 96 67 42
0.23965981424746152 0.0845555815471413 -1.1354786518159616 95 66 41
0.2398552079470265 0.08448262220230073 -1.1385168148586549 93 66 40
0.23728417546492575 0.08751782029353444 -1.1441015569098032 92 66 42
0.235937987921428 0.08917744523642501 -1.1485714056857395 88 65 43
0.2338882547668709 0.09162809713645945 -1.1537014858193113 76 56 40
0.23227708509709977 0.09358643810094938 -1.1584372397330696 87 72 59
0.23193193118799174 0.09412224765732223 -1.1620047955640325 111 103 91
0.0723663551805748 0.20437304299566458 0.11003652573428782 180 173 170
0.0789579240028304 0.19742826316152007 0.10642313124279568 134 108 96
0.08227448497904562 0.1939987492928415 0.10317135267542596 131 94 69
0.08579219474379057 0.1903526609788961 0.09991217685721432 122 86 58
0.08587134028169174 0.19039871111561868 0.09700351300056521 97 61 31
0.088008748817895 0.18823419586952042 0.09389649223356836 76 39 16
0.08968251136019484 0.186567341893538 0.09084062804954261 75 37 16
0.09219660354310011 0.18399753561121582 0.08771356429847675 75 39 17
0.09268918122454041 0.18359904086069084 0.08477658157573148 76 41 19
0.09530273283527792 0.18092172623634237 0.08165519273813861 73 38 16
0.09758423434021926 0.1786007589591571 0.07857184722259697 72 37 16
0.10178643110316779 0.17421543295397846 0.07533750345298136 71 36 16
0.10529394136824889 0.17057593436574792 0.07217592520717264 69 34 14
0.10570007284141338 0.1702691660731296 0.06927198634419741 69 34 14
0.10395328468072254 0.17227654000532447 0.06653311226040366 69 34 13
0.10231015277098536 0.17417288862941235 0.06377758455844779 71 36 14
0.09930615551066355 0.1775326696521581 0.061111831391952205 72 37 15
0.09794463272334991 0.179127137763252 0.05831662566781651 69 34 12
0.097309619439344 0.17994073383859374 0.05546477667022995 69 32 13
0.09830592402371735 0.17900023427929587 0.05250148178077834 69 32 13
0.09619635067719703 0.18139990320787233 0.049738569076553364 69 32 13
0.09717593885535916 0.18047742813085987 0.04677531046703465 69 32 13
0.09961457848467369 0.1779853678654132 0.043728340488509425 68 31 12
0.09403961884749962 0.18411367598866724 0.041148207036026486 65 28 9
0.09331040914958925 0.1850297588930137 0.038276209094835624 63 26 7
0.09361397596966356 0.18483481952882075 0.035345077086050496 65 28 9
0.09433343609811189 0.1841923596622794 0.032392745762800705 70 33 14
0.09387466660998597 0.18481778775035995 0.029499183885195804 71 34 15
0.09404576921393946 0.1847654669026906 0.026573013745549465 70 33 14
0.09329113206680092 0.1857096030852981 0.023686989846592572 70 33 15
0.09407927953658875 0.18499321769510702 0.020731483982029522 70 33 15
0.09474572949584387 0.18440775738488438 0.017782781069948225 70 33 15
0.09552745005265148 0.1836981263917044 0.01483117253050362 68 31 10
0.09603091938518532 0.1832880142277495 0.01189136544381876 67 31 7
0.09574746654146545 0.18372526259277677 0.00897848240585909 72 36 11
0.0954522375676598 0.18417531481633362 0.006063273273552838 77 41 15
0.09528456269329406 0.18448811001189874 0.0031416264585665335 80 44 20
0.09500718993082617 0.18491916423478932 0.0002207231874888707 77 41 17
0.09506424566429938 0.1849900800398419 -0.0027110766049771176 76 40 16
0.0950521204121304 0.1851355820555876 -0.005642543435524491 75 38 14
0.09479842850395852 0.18554142508133525 -0.008570641742612163 73 35 12
0.09536998110575276 0.18505815592195146 -0.01151621616849766 70 32 11
0.0965496525857003 0.18391951228961265 -0.014470422901078592 71 33 12
0.09697878686486008 0.18358957930650394 -0.017410673706973023 71 35 13
0.09539311151414223 0.18543124834876096 -0.020327325246445448 69 33 11
0.0949843470862443 0.18600467186227704 -0.023263352394586483 67 31 9
0.09520842657512649 0.1858960202130373 -0.0262071603191378 63 27 7
0.09536854479067311 0.18585634919719385 -0.02915114651679996 60 24 7
0.0966023632315923 0.18465902396748132 -0.03209888336612055 54 21 6
0.09824520961988945 0.18302045738520206 -0.03504293574390645 52 21 8
0.09301616306942503 0.18879243070143087 -0.037992311795252476 52 23 8
0.10037203584433421 0.18099241073260808 -0.04091828622482001 53 24 8
0.09989253498174444 0.18164238889471535 -0.04386042481179409 54 25 9
0.09248402806540834 0.18976697677656937 -0.04686282871372454 53 24 8
0.0973285271577363 0.18467433937860922 -0.04977209182459061 52 23 6
0.09648695363603516 0.18571560832039055 -0.05273304782134286 54 25 8
0.09719954944426643 0.18508013747570862 -0.05567623429596894 54 26 7
0.09799396612581962 0.18435629808753853 -0.058616386290924444 53 26 11
0.09835973648636381 0.18409496939614933 -0.06156274386555643 80 60 51
0.10902493353821727 0.17271731980461275 -0.0642889839799609 73 54 47
0.11484922696217344 0.1665629533242757 -0.06708382855300336 74 47 37
0.11979406979147281 0.1613568732619037 -0.0698771607864245 84 53 39
0.12936661609578218 0.15115374985019403 -0.07252077094099667 103 77 61
0.1316072691016684 0.14886511908906425 -0.07534484419459239 119 99 86
0.13598499756175464 0.14426846916258218 -0.07809131076014017 101 79 67
0.1437336031593352 0.13603076474955014 -0.08070335915221223 94 71 58
0.14215856619617226 0.13786121572690133 -0.08362562961386608 69 42 29
0.1390165269704021 0.14138458183182637 -0.08661740174518276 68 40 25
0.1407183614480533 0.13967623778715796 -0.08942492250987301 71 41 23
0.14146591411783035 0.13899853981512836 -0.09226779896650279 75 49 32
0.14025741441873604 0.14043409675921595 -0.09519806263592885 100 80 68
0.14534397128611173 0.1350680887692321 -0.09783398819611529 95 74 65
0.15031783709932944 0.1298229041727189 -0.10045448680361403 91 65 54
0.15902861480060454 0.12053827120419461 -0.10285909047464716 96 67 55
0.1626394231130036 0.11676405858626994 -0.10550438598657345 107 76 63
0.16487594335997374 0.11447466976083359 -0.108213025708848 109 80 67
0.1666221986684404 0.11271487899814547 -0.11094206022141088 107 76 65
0.1694755176717701 0.10975794417168452 -0.11359709346233285 127 100 89
0.17121956693979926 0.1079998563221541 -0.11631116438860656 142 119 107
0.17338645066636463 0.10578426715620212 -0.11899118562739885 138 113 96
0.18004236300214035 0.098713818370099 -0.12135864451173917 116 84 62
0.1807215108329877 0.09810604135177774 -0.1241164427929487 96 59 30
0.18494493477522833 0.09366465729956736 -0.1266165684755448 90 51 22
0.18423387623315785 0.09456018386679513 -0.1294668050066362 83 45 19
0.18404478180023232 0.09489124936373144 -0.1322815886905031 77 41 19
0.18492268032793924 0.09406802160846517 -0.13501441462671182 72 38 18
0.18605702992801643 0.09296719710716886 -0.13772393150181347 69 36 16
0.18631871227252614 0.09281053543684903 -0.14050257853300027 68 37 19
0.1864683056730651 0.0927751896456179 -0.14329107343177497 68 39 25
0.18569872485732108 0.09373471644052919 -0.14616107317458854 69 43 30
0.18511124617267122 0.09449735195915751 -0.14901952626046092 69 46 33
0.18273106289396712 0.09720080841639403 -0.15204753607305047 68 47 36
0.184079250895317 0.09586839804771487 -0.15473506198614334 66 47 35
0.18189790950268697 0.09835727806588732 -0.15775963012849215 65 45 34
0.177609473994371 0.10312827350912587 -0.16100406766494824 64 45 35
0.1784430449642793 0.1023534571319439 -0.1637504145187162 63 44 36
0.18100822497965663 0.09970316049008054 -0.16631521430388566 63 44 37
0.17422764450489256 0.10743194652947177 -0.17554510778646976 63 44 37
0.17332751384898115 0.10853572148053812 -0.1784919180567067 62 45 37
0.17399870543606633 0.10793716621843655 -0.1812639312583088 63 46 38
0.17349116440510057 0.10861585450417048 -0.18417226814017867 64 47 39
0.15588633777142644 0.1279543148588409 -0.19201549639380996 65 48 40
0.15630926548625934 0.1276266251335261 -0.19485724889726957 64 47 39
0.15843749095507761 0.12545030428493162 -0.1974837267970862 64 47 39
0.15855002043696687 0.12545891771909298 -0.20036057699941906 63 46 38
0.15560949720372044 0.12877782880275185 -0.20363679366429704 63 46 38
0.15114283123936714 0.13375227226384923 -0.2071303415846239 62 45 37
0.15056293972656398 0.13451268905109295 -0.2101207922313153 63 46 38
0.15194962109335558 0.13314044488050158 -0.2128454075007677 64 47 39
0.153658782306442 0.13141820643083293 -0.21552025026722157 63 46 38
0.15122589722068416 0.134188787266826 -0.21877612081891434 62 45 37
0.15199991241859398 0.13348090676724877 -0.22158254541540753 61 44 36
0.15101118553855852 0.13468543699862537 -0.2246448556876003 62 45 37
0.15305847497120942 0.1325959750106524 -0.22726207080116065 63 46 38
0.1531431520966897 0.13263591552763968 -0.2301675328905211 63 45 37
0.15441161876594728 0.1313911803227068 -0.23289286218918942 64 45 38
0.1567514096652612 0.1289834719406601 -0.235447481715136 63 45 36
0.15416657411387458 0.13192088638524493 -0.23876927401421408 63 45 35
0.14944288490564694 0.1371807791384942 -0.2424463007487783 62 43 36
0.14760858907193522 0.13930476551788176 -0.24567768191113826 62 44 35
0.14598413759901566 0.14120135175744186 -0.2488843882294382 62 42 32
0.14708709728158695 0.14013669677443366 -0.25164526690197975 61 41 30
0.14422790831920185 0.14337471033153815 -0.2550722157233311 60 40 29
0.14445989900810607 0.14325609255718283 -0.25798425576100625 61 41 30
0.1359166155402378 0.15266910050897772 -0.2624196629743517 64 42 31
0.13914560676532992 0.14929580960992286 -0.2648256542561449 66 43 33
0.14791258319212672 0.13990548488739823 -0.26623212450650224 67 43 33
0.14625787064156 0.14183656404397452 -0.2694800249262497 67 43 33
0.1454012320995716 0.1429008646432702 -0.2725912060971865 66 42 32
0.14372604698081637 0.14485492795973687 -0.2758591972823214 64 40 28
0.1434685827883108 0.14526861632764765 -0.2788709163331082 64 40 28
0.14266586446241705 0.14627506872695017 -0.2819886635315732 66 42 30
0.13878858530127947 0.15062384455343886 -0.28570129831012303 65 41 29
0.14127502689719093 0.14805538279622113 -0.2881980810602918 60 36 24
0.14439082956518154 0.14480222204775012 -0.29056142357099607 56 32 20
0.1437496587705072 0.14563353147622926 -0.29365839919992776 64 40 27
0.1463035782394618 0.14299061500400162 -0.2961177709558161 68 42 29
0.13212878958293472 0.15854021938177873 -0.3019669931532102 73 52 41
0.1337760526855781 0.156884225917988 -0.3046307060265695 70 51 42
0.13479562673613144 0.15591072176683268 -0.30741885716209694 81 60 50
0.13593148490201384 0.1548105771410323 -0.31017943491775135 87 65 51
0.1382162704821147 0.15246029648701195 -0.31269227825631973 88 62 45
0.13737946368750212 0.15350605641198467 -0.3158664349788913 80 47 29
0.13619929817807647 0.15492568640581125 -0.31912049379697294 74 40 21
0.13600917449658717 0.15526821165417218 -0.3221643873481365 76 43 25
0.13575061225747218 0.15568533201832377 -0.3252258674821401 78 47 29
0.1447110356768629 0.1460680363792291 -0.32622574463497694 79 49 31
0.1271996804579037 0.16526529454511613 -0.33317449447296155 75 49 32
0.12660050402084866 0.16605443979664594 -0.3363405448755304 59 37 26
0.12338813139052998 0.16968896806099273 -0.3401141387752811 33 16 9
0.12368361727415839 0.1695045954250592 -0.343086282171361 48 30 22
0.12394921172400691 0.16935278327627695 -0.34606566613629475 75 52 40
0.12421707719294037 0.16919851317940987 -0.3490448509445168 76 51 35
0.12627642543087195 0.16709298552809995 -0.35159428268480875 72 49 33
0.12366871526446487 0.17007091857844978 -0.3552669782587945 75 49 36
0.1256780864326597 0.16801960500385094 -0.35782352356126473 71 45 32
