ply
format ascii 1.0
element vertex 675
property float x
property float y
property float z
property uchar diffuse_red
property uchar diffuse_green
property uchar diffuse_blue
end_header
0.00810863086330052 0.0686959287855864 -0.08089077580126637 81 60 50
0.0034930003818967534 0.06471365797091586 -0.08335683019514237 79 57 46
0.00822704215970331 0.06862872467957175 -0.08693892253967211 69 45 33
0.0020989376626731754 0.06336951267356059 -0.08920307204660283 68 42 29
0.0017888102765436717 0.06302424469121687 -0.0921723560756291 68 41 28
0.0007389107013436036 0.062054276405412986 -0.09504759497981632 76 52 39
0.0014858100457238732 0.0626015940214073 -0.09815198341799919 71 49 38
-0.0039814098701251785 0.05790197650053812 -0.10044563424195554 67 45 33
-0.01217049390586801 0.050904904809776365 -0.10235635558525923 65 41 29
-0.013985812254955415 0.04928961218078638 -0.10509700687087181 80 54 43
-0.020264002283773286 0.04390705291136699 -0.10721966560879442 74 46 35
-0.0300175577269059 0.035591538505075834 -0.1088349944653309 88 62 51
-0.034499319730149955 0.0317267875655691 -0.11115660285589749 92 67 56
-0.03606873775112556 0.03032053503398148 -0.11387837001539254 89 62 51
-0.03713614380219914 0.02933809545264337 -0.11666795603870844 117 96 83
-0.03823946546337186 0.02832543080833779 -0.11944922860277984 133 112 101
-0.038197001165873885 0.028279714236890477 -0.12239818659232343 124 100 87
-0.03911644075349449 0.027422318954875253 -0.1252031882708664 98 66 47
-0.04057498296921599 0.026110134763361485 -0.1279231985926328 78 39 15
-0.041495791849940136 0.025251749557274356 -0.1307220227491689 74 36 11
-0.04306760192282599 0.023844235894136295 -0.13341610409794633 74 36 15
-0.04246756791294963 0.024268948833787107 -0.1364507383566815 72 36 16
-0.04299043190464128 0.02374638847759932 -0.13930807391085717 67 33 12
-0.04163935657618544 0.024804428598111605 -0.1424702765105684 59 28 8
-0.04237208727469978 0.024104810911254507 -0.1452949958418695 61 34 20
-0.04583869565669119 0.02109965164055965 -0.14766101826909855 61 38 27
-0.046368630524050436 0.020571294989281032 -0.15051115097267248 59 41 34
-0.04638730944905088 0.02047406871326766 -0.15344790984170625 65 50 42
-0.03715894429555289 0.02817366844790413 -0.15798731984428854 67 53 44
-0.0319346208181666 0.032496328246066665 -0.1618635819088645 66 52 43
-0.032741585281042804 0.03173362385585146 -0.16469329885821538 65 50 41
-0.03828070772569303 0.026899639167908405 -0.16963535270710092 66 49 41
-0.032931438411157025 0.03132637308858857 -0.17357932729646336 66 49 41
-0.015707519053572365 0.04525956777361678 -0.19783555086834162 63 46 38
-0.014209102287457316 0.04643822747957668 -0.20115370524424997 63 46 38
-0.01811572544644475 0.04306352906010657 -0.20339049854592234 62 45 37
-0.016439852945832903 0.04439156206259032 -0.20674850090722283 60 43 35
-0.013853119544515874 0.04648657016432852 -0.21030171870367753 61 44 36
-0.012885340851450468 0.047217732720390745 -0.21353076642156368 62 45 37
-0.01272909833490904 0.047265302759576036 -0.21659498380131362 63 46 38
-0.013434335847060962 0.04616674000344854 -0.23465641939127216 67 49 39
-0.01588635103357843 0.04401847017233873 -0.23714721472771855 68 50 40
-0.0006890499038677209 0.056726156613890896 -0.24361378624730912 67 49 39
0.0029171052170459955 0.05916418975708589 -0.265981729567794 66 44 33
0.01037196868711833 0.06509231093448307 -0.28017709286665704 66 44 33
0.011087966175893804 0.06560844747941832 -0.2834610757828123 65 43 32
0.012131901536463124 0.06640025608616977 -0.28683203126936097 64 42 31
0.008120576015839251 0.06294081399625075 -0.2889230071648249 63 41 30
0.01019026348856085 0.06459512173198038 -0.29255775824790703 60 39 28
0.011446765450806834 0.06556542220931405 -0.29599217794210714 58 37 26
0.012019830317866242 0.06596094029195676 -0.2992550700489188 57 34 23
0.012145150120049741 0.06597993810871451 -0.30240410635014014 61 42 32
0.008243403804322022 0.0624410949178507 -0.310713098163648 91 69 57
0.008843385655637456 0.06259987560021024 -0.32334199769020855 81 47 23
0.00704551173138869 0.06100275190989253 -0.3259608102781307 79 44 22
0.0076828265919303 0.06145180835998931 -0.329257760888534 82 52 31
0.01257701977756226 0.06547708328394183 -0.3337634484372556 68 42 28
0.01599379955174754 0.06826062911611225 -0.3378694314724091 44 24 15
0.02059281798520493 0.07203684643534469 -0.34233028419858946 40 20 14
0.024898401764476663 0.07556602878852134 -0.3467265612334825 59 39 30
0.026645163000297886 0.07694552454325648 -0.3503966513371287 61 39 28
0.02738307926453519 0.07747751104205526 -0.35377938020186445 60 39 29
0.03004231752275846 0.07962287639830007 -0.3577340266530998 60 38 27
0.03128062071464116 0.08057469898710418 -0.36127835158957666 64 40 30
0.028425005006048984 0.07808879181343541 -0.3636029854939627 65 43 32
0.027625413738555746 0.07732944299023016 -0.3665372265899888 49 32 23
0.025756244429534045 0.07567217542031486 -0.36914475726925855 50 33 26
0.024564085795822976 0.07458343518796498 -0.37195288572630947 65 44 36
0.023331752811546355 0.0734610698666861 -0.374745077303942 74 49 37
0.021416244167215145 0.07176536014197141 -0.37732185244955657 82 56 43
0.020674362845825633 0.07105489153039182 -0.3802581230950949 77 50 37
0.022844410144634397 0.07278836848769407 -0.38410696575479897 75 47 33
0.0177572504198181 0.06843120995075798 -0.3856725046428711 76 49 33
0.012542419771197633 0.06396746207596718 -0.3871777071357171 84 60 44
0.00938138706382767 0.06122761557921169 -0.3893202639128552 76 51 37
0.006713430158117359 0.05890180602618549 -0.39160996558398903 66 37 21
0.005539396847240308 0.05782964391271399 -0.39437449245631884 70 38 25
0.004068740526871603 0.056508734581747946 -0.3970386705820086 72 40 27
-0.005967287253195827 0.04800273266913853 -0.39688439970165973 73 41 28
-0.005208499456992921 0.0485526634797951 -0.4002582583173293 69 39 26
-0.02003022669756186 0.03594844008809536 -0.40155019726231306 68 36 25
-0.023481985142516176 0.03296781244053998 -0.40348540434499086 83 56 43
-0.023924600009849778 0.03251095638648204 -0.4064273479524488 108 85 73
-0.02444165307931205 0.03199169645895851 -0.40934339463055225 118 92 80
-0.024958354093934973 0.031472754605866744 -0.4122587361741776 103 76 58
-0.03072804731366622 0.02654968620779969 -0.4133602407260781 90 53 31
-0.033987360363085056 0.023731824760790006 -0.4153106836761687 85 45 19
-0.02631712133453315 0.030076461593256075 -0.42106664407586153 79 39 12
-0.026274415432890295 0.03002651433022286 -0.4241756543639383 76 35 13
-0.030645192730149963 0.026277247167882663 -0.4257260865310453 76 38 14
-0.03025678877531305 0.026517207668995825 -0.4289518185830422 77 40 14
-0.03237527821817019 0.02465615733989572 -0.43128388871654905 75 44 22
-0.03147077406272983 0.02532859289943422 -0.43469595079270246 79 54 36
0.05706834433794339 0.09879744901396423 -0.4927872191674363 91 70 54
0.058177731749782274 0.09963546561210222 -0.4964935221030872 90 70 53
0.059391085075661876 0.10056037728310661 -0.5002454776358982 91 71 54
0.06044904632862469 0.1013549886831364 -0.5039444635213272 97 74 57
0.06136447351531721 0.10203009291917256 -0.5075944537185967 100 75 58
0.06731199514360921 0.10691816069693137 -0.5131971221054518 100 75 58
0.06482493136440313 0.10446874578856025 -0.525481971814746 104 79 60
0.06531440861089545 0.10478653609690669 -0.5289919573847847 106 82 62
0.06580441244298643 0.10510467026219555 -0.5325056478016685 106 82 63
0.06479635155492106 0.10389295430364226 -0.5453842601819263 107 81 64
0.06513780667032332 0.10408650003248629 -0.5488482697968281 109 83 66
0.060501939508818506 0.10011620253304233 -0.5502630763742312 109 83 65
0.060179997122988604 0.09975495583829375 -0.5534474171376561 107 81 63
0.05977468220001568 0.09932397182627378 -0.5565971060144953 105 79 61
0.060725019639216796 0.10002682399583845 -0.560314031996761 103 77 58
0.061499843598434786 0.10058274078384616 -0.5639625699649776 102 78 60
0.061246213707020866 0.1002784783675311 -0.5671809323823486 105 81 64
0.059440687829083474 0.09867651800900275 -0.5697401351846749 105 81 64
0.0597344276316715 0.09883000216031451 -0.5731897219526843 106 82 64
0.06247497216376455 0.1010291305925377 -0.5776922087308982 107 83 64
0.05867341564663181 0.0977585771081648 -0.5793858932941701 106 82 63
0.06188029608525257 0.1003472040185042 -0.5841027768078298 108 84 65
0.062324967511133214 0.10062647975699616 -0.5876315425306959 111 87 66
0.06259394114384419 0.10075880742544921 -0.5910867384512254 111 85 65
0.06286317908400807 0.10089128421917924 -0.5945446406688464 113 86 66
0.06313268098779068 0.10102390975743468 -0.5980052524018602 112 83 64
0.0635861439013185 0.10131019326737485 -0.6015501537349657 112 85 63
0.06788286411241135 0.10480783484920168 -0.6068133348611462 115 87 66
0.06786299606722199 0.1046982136736136 -0.6101609646525916 116 89 67
0.06809890585148617 0.10480225396674817 -0.6136251864273542 116 89 67
0.06865852769021079 0.10517666468376344 -0.6172383822306597 115 88 66
0.06859427248243313 0.1047500061676567 -0.6306677778156037 114 86 67
0.06863898148234629 0.10469399840503484 -0.6340567653450648 116 87 69
0.06754981024856795 0.10369106966883834 -0.6369197053296243 118 89 70
0.06741450803843912 0.10348472504360198 -0.6402254212972769 115 85 66
0.06727929125652812 0.10327842716539001 -0.643532064395199 112 82 63
0.05944693746192553 0.0966457853106509 -0.6432080280567033 107 78 59
0.06010810669115253 0.097104747876316 -0.6468774267400242 107 77 57
0.05953471619009032 0.09653300728470086 -0.6499633584444386 110 80 60
0.05893404662751922 0.09593852385012436 -0.6530352515221064 108 78 57
0.05552466814321315 0.0929997540002647 -0.6547568151379596 102 74 52
0.05418695037315699 0.09179035799822456 -0.6574648325614889 99 71 50
0.05177851012253115 0.08968751836231817 -0.6596496425546693 97 69 49
0.052091680798559484 0.08985605943742717 -0.6631504657205534 94 66 47
0.047577081764393625 0.0859961237770789 -0.664293568745589 92 63 44
0.04124633706215036 0.0805290715203691 -0.6678569858653297 90 63 44
0.052526453591176414 0.08984711008012886 -0.6767766246320064 88 61 43
0.054422606977335974 0.09133581019276582 -0.6810773198961926 87 60 43
0.05322707712237153 0.09024539447670525 -0.6838427532216567 88 61 44
0.04280559308380258 0.0814600347842485 -0.681974549990104 87 60 43
0.0477248445202412 0.08547013378919874 -0.6877945786639 86 56 38
0.044789001559992214 0.08292888290815452 -0.689661423571604 84 54 33
0.04134493116657545 0.07996413822619954 -0.6912587519642942 81 51 31
0.035574455775222294 0.07496763371885073 -0.6949861815094022 75 47 30
0.031708417259864716 0.07165213786460643 -0.6963285319221786 75 46 30
0.02890790629140233 0.06922533785814966 -0.698206452971457 74 46 29
0.02886626019592403 0.06909858695602408 -0.7015058218731488 75 47 29
0.03732146704295111 0.0760541596042286 -0.7092354046368274 74 47 28
0.036573098326064604 0.0753377990952112 -0.7121857755313726 75 47 28
0.0389391416454065 0.07721706209192283 -0.716771206206321 75 48 29
0.04277232567096931 0.08031863909792242 -0.7221425869287529 76 48 27
0.0411837037691337 0.0789017921223726 -0.7246590397585424 76 48 27
0.04185335777251406 0.07936675286416658 -0.7283716192866544 76 49 28
0.03419100941619138 0.07288963800290571 -0.7276374167364816 77 49 29
0.027513498871419156 0.06723387828216446 -0.7273997427071707 77 48 30
0.02329370209922524 0.06362627246800463 -0.7284582079642778 76 47 29
0.02274770107497004 0.06307935898672722 -0.7314863483929249 75 45 27
0.024336563467054984 0.06431065681711465 -0.7356725827094097 73 45 24
0.02079060891114752 0.06126510276347367 -0.7370683606321448 71 42 22
0.02341645977787471 0.06335985766880212 -0.7418276357680951 70 40 19
0.02315923176162671 0.06305338138117497 -0.7450157873306666 72 40 21
0.022700752194804844 0.06257931614407805 -0.7480932745832803 76 44 25
0.02409660043396858 0.06364922779973838 -0.7521970734710096 78 46 27
0.011007980053067287 0.0526596539535379 -0.74825604875776 79 47 28
0.00827454701429857 0.05010921159007129 -0.7566479215622758 83 51 31
0.009389265083740689 0.050945378915848605 -0.7605840614946671 85 53 33
0.008949831646115111 0.050487906545333264 -0.7636455899553362 84 52 32
0.012906495283161623 0.053136042891398894 -0.7891571024591557 77 46 26
-0.006654924876226639 0.035859767903989134 -0.8140089682485089 82 50 32
-0.009113779368035396 0.03372464503532145 -0.815816100580316 82 50 32
-0.01016285690312406 0.032761377335048164 -0.8184747094073433 82 49 31
-0.007483823840584408 0.034896218126332465 -0.8234148066095546 85 53 36
-0.008516298901269523 0.03394669370302422 -0.8260855095743358 87 56 38
-0.012841770745158146 0.030261210763449703 -0.8267206229019786 86 55 35
-0.016786890528436307 0.02689221447228468 -0.827573736964668 82 49 29
-0.03226920357427471 0.013216000252428528 -0.8473345523233332 90 49 19
-0.030219157700906496 0.014827358342831234 -0.8519180961322916 93 55 26
-0.029651151570891474 0.015208134500128562 -0.8555581458866004 95 59 32
-0.027548521819121916 0.01686264849736606 -0.860193426181128 96 63 38
-0.02890573503988722 0.01564515853710044 -0.8625969806179783 93 63 39
-0.03103164632937637 0.013789814873343964 -0.8644960376825052 91 61 38
-0.03440070604259726 0.010721601472999512 -0.8721221024430903 80 54 38
-0.03171730984145603 0.012857254170208332 -0.8771664068026881 76 52 38
-0.024463859454016898 0.01878404227870839 -0.885247009994933 73 50 36
-0.017146587315059594 0.024762841753766113 -0.8934036683704126 69 46 32
-0.0029110651133423954 0.03647951300126684 -0.9062012588403842 66 43 29
-0.006328629217348683 0.03355192071047357 -0.9072690284244765 63 40 26
-0.008956202002171829 0.031279923483101116 -0.9088526522144645 55 33 19
-0.010896715532955487 0.029578010366962962 -0.9108881670383888 55 32 18
-0.012421988061678643 0.028220643208615975 -0.9131967306625756 61 35 22
-0.012815592677146728 0.027801813323491215 -0.9162661652122757 71 45 31
-0.009773165158154629 0.030231969749876922 -0.9216693240747496 76 50 35
-0.00893641806991502 0.030833010069586456 -0.9255843625802551 78 51 34
-0.006767626175800429 0.03253820311720573 -0.9304153847302808 80 53 36
-0.015472604755798619 0.02522914015575621 -0.9277985491260499 81 54 35
-0.013487666554960115 0.026781990410215437 -0.9325011086463382 82 55 35
-0.019433168200514883 0.02176149952162469 -0.9317385843751723 79 51 31
-0.019526414621704652 0.021591916211646384 -0.9350046385673303 70 41 20
-0.021217892072812883 0.020097825977681116 -0.9371611391974826 66 35 15
-0.020986667801305134 0.020197156212546447 -0.9406519501377155 62 30 10
-0.019222478359621056 0.02156661718608506 -0.9452174042339254 62 29 10
-0.01839573017232614 0.022159121267318505 -0.9491345155318406 65 32 11
-0.020625641555301527 0.020219141653328082 -0.9509053563170314 69 37 17
-0.020825394264217367 0.01996119003833631 -0.9541011871406638 75 45 24
-0.02275977076248205 0.018266360006535365 -0.9560688986496206 78 50 30
-0.0304143426599129 0.01137344314513758 -0.9705763805588267 91 73 63
-0.03419889117625677 0.008147995418905887 -0.9711628883582972 92 74 64
-0.03753165330842753 0.00529698725177373 -0.9720619886738129 93 75 65
-0.041177491307953784 0.0021871954360066503 -0.9727194668001171 95 77 67
-0.05785102332769834 -0.012522739625691684 -0.9933318506898573 78 63 56
-0.05527714069971705 -0.01048491066819425 -0.9985551029319589 73 59 50
-0.06153925863878497 -0.015755089591336632 -0.9971144212479489 70 52 42
-0.06387095832676366 -0.017774193259164253 -0.9986258318562029 69 45 34
-0.0663000378350158 -0.019873568710404008 -1.0000541181561047 64 36 22
-0.06748205467480112 -0.020941555366420464 -1.0024236974204475 57 29 13
-0.06421873859176915 -0.018334123662611987 -1.0081888562946604 57 28 12
-0.06374620064153996 -0.018034325757593547 -1.011829766473007 57 28 12
-0.06651004947735725 -0.02040999944734327 -1.0129846453448084 57 28 12
-0.06895682434082719 -0.022523275619675792 -1.0143730785960543 59 30 12
-0.07536054710040122 -0.02790681235514749 -1.0126899420818634 59 30 12
-0.07528105786763013 -0.027931435731107075 -1.016010669788531 59 30 12
-0.07324037704066488 -0.02633537712667608 -1.020859725196734 59 31 11
-0.07303142415205606 -0.026253244384036888 -1.0242896254424338 64 35 13
-0.07227913112172671 -0.025722229806700733 -1.028147327045162 71 40 18
-0.07364276681984407 -0.026939558078347935 -1.0303485313781713 75 43 20
-0.07506464180286791 -0.028204869274260178 -1.032499131799896 81 51 28
-0.07642937106261741 -0.029422834279766483 -1.0346898510118028 85 59 40
-0.07718165592115694 -0.03013477419934251 -1.0373608834085837 86 63 47
-0.07817895898770502 -0.03104903495361907 -1.0398353342449786 84 63 46
-0.07204703851400404 -0.026075207126180194 -1.04798570800766 83 62 45
-0.0735447177945889 -0.027402975433788043 -1.050070532583926 81 60 43
-0.07323851838996034 -0.02724100564629478 -1.0535951653214009 80 58 44
-0.07382520694793794 -0.027998309386763356 -1.0629700353414007 79 60 45
-0.07433068032510123 -0.028506612605483192 -1.0658450385739027 79 60 47
-0.07286636195823504 -0.027388921415052697 -1.0703198250412718 79 61 47
-0.07388258947053361 -0.028318874630066992 -1.0727814678400887 76 59 48
-0.07316144799690827 -0.027814843325315322 -1.0766596507809314 63 49 40
-0.060062070735146036 -0.017095645913879146 -1.0906860401439527 51 36 29
-0.062405100639903094 -0.019121218913752194 -1.0920842058247757 44 29 22
-0.06697616572987819 -0.022984967019652497 -1.0916371212373612 42 27 20
-0.06698977714877125 -0.023087946919375046 -1.0949365492121839 51 37 29
-0.06663932372975338 -0.022890609855243785 -1.0985390840364528 40 27 19
-0.06686865416306713 -0.02317164851770573 -1.1016629616882871 45 31 22
-0.06143057523550938 -0.01877776013064697 -1.1095095372814343 48 33 23
-0.06584484998169166 -0.02251099946328279 -1.1091506832397635 46 31 21
-0.07408636846782847 -0.02940025102694277 -1.1055664428778613 47 31 19
-0.0728653141582768 -0.028484804467850233 -1.1098955717932315 55 34 19
-0.07035952336705424 -0.02651012781913213 -1.1153141204091341 67 40 21
-0.07123360961524507 -0.027322731576232953 -1.1178905982420697 78 50 29
-0.07224227710159523 -0.02824622719208361 -1.120350548571385 85 59 36
-0.07501316815241572 -0.030622473325391156 -1.1213106048497483 87 65 43
-0.07510381991268021 -0.030788896265417753 -1.1245420124637016 87 66 46
-0.07468047675120366 -0.03053165962897987 -1.1282134290990162 87 66 45
-0.07570122440351917 -0.03146479987324936 -1.1306517643994998 82 61 42
-0.07859395495589866 -0.03394069926925547 -1.1314796345248668 81 60 43
-0.07974964765906693 -0.03498475141871664 -1.1337910336889265 80 60 41
-0.08272929107124842 -0.03753172448405388 -1.134524145432847 79 60 40
-0.07914072891513 -0.03466624473023404 -1.140929855188628 80 61 44
-0.07756297934060255 -0.03345801995128535 -1.145608622802045 79 62 44
-0.07133122930509138 -0.028415802913626886 -1.1543458474245998 74 58 42
-0.06792851526298097 -0.02570497022088912 -1.160645215890218 85 75 61
-0.06043992243194485 -0.01962895640358564 -1.1705360976499517 116 110 98
-0.07470170235546214 -0.0315611900591521 -1.1647133930124045 170 169 164
-0.07013014040837705 -0.0278885931960801 -1.17207315437525 181 181 179
-0.07696116443857595 -0.03360634354052486 -1.169375116489369 189 189 185
-0.08282091529512735 -0.03852350224099409 -1.1675077816738444 193 194 189
0.05623378566257843 0.11856698666996465 0.10082987466847192 116 86 67
0.053437630119282924 0.11610533493891803 0.09779049212524932 112 80 59
0.04467327511866547 0.10856795878063445 0.09476923444349086 108 76 56
0.039927727251821116 0.10444928637798437 0.09176721087952253 106 78 57
0.0317886610938042 0.09744524059837656 0.08880040709675113 102 73 53
0.03030404002806772 0.09585406689811841 0.0768304436851969 100 73 56
0.026750469771770445 0.09275081358553677 0.0738863165371983 98 71 54
0.02438933455547928 0.09066156966404032 0.07093452941404596 90 64 47
0.02080906217973375 0.08753624660637907 0.068013785799673 82 56 39
0.012659205794662391 0.08052725462298421 0.06520119535124969 77 50 33
0.014217802214064011 0.08177049298161508 0.06219745332612961 74 47 29
0.015573961437315303 0.08284148636056039 0.059191413413578656 72 48 30
0.016731483341694373 0.0837434963355974 0.05618415473771206 89 66 52
0.017312597888650586 0.08415554172163267 0.05318767518857911 80 60 48
-0.008317622539118427 0.06132756232197794 0.015710085635904456 84 46 22
-0.011329331919787588 0.058689715461689496 0.012931034943569345 83 44 19
-0.016234015559501096 0.05444511640166688 0.010272524922887634 80 42 17
-0.02075721807525873 0.05052485103561157 0.0076091626160529995 80 43 17
-0.022545945895205723 0.04892618127594929 0.0047928045132552225 79 42 16
-0.02313206963364057 0.048348428848370546 0.0019053248325204106 77 40 15
-0.019166518933060768 0.05163387408649588 -0.0012812216094997219 72 37 14
-0.017524790031764284 0.05294667271739478 -0.00432678960062804 70 37 16
-0.015145837552227474 0.054884888441254366 -0.007431569408155549 64 33 14
-0.011909184750082881 0.0575506349081298 -0.010608580485889146 58 30 13
-0.01284248792906268 0.05667770924769529 -0.013491742224270045 58 31 14
-0.013916340244930266 0.055685599675671354 -0.0163618039646225 60 34 18
-0.017689615986344685 0.052403351781476384 -0.019018931882833916 61 36 20
-0.013336238184039211 0.0560157814529405 -0.022310438436891816 64 40 28
-0.00955728071062317 0.05914042325295259 -0.025573429396270508 64 41 29
-0.008356017376578498 0.06007809620509324 -0.028636852903544865 59 39 28
-0.0069438940345300584 0.061194455109864425 -0.03172432869637064 45 28 19
-0.0059518334256464835 0.06195435469866151 -0.0347818133648551 36 19 12
0.004287690169690085 0.07047456954038912 -0.04166850778436608 22 13 10
0.024121487574805707 0.08712762626340848 -0.04955813896410256 14 10 7
0.028038838609155986 0.09036565830265789 -0.052978562550159695 16 11 8
0.027747865787629195 0.09003535306312842 -0.055996950887357275 22 16 13
0.02634477320791069 0.08876223414334361 -0.058902572741865535 25 17 15
0.021804215939047085 0.08482958761614057 -0.061479201313413265 26 18 16
0.017851124817100314 0.08139536667428854 -0.0641010498129273 26 18 16
0.01522388393027855 0.07908532723157369 -0.06685095551401855 19 12 9
0.010966996351795488 0.07539434552492555 -0.0694133337804892 19 14 11
0.007423167221699278 0.0723081011123096 -0.07203952582172868 28 17 14
0.006427019565582247 0.07138119721964531 -0.07494186437291958 55 39 32
0.007385861534736804 0.07211098286133928 -0.07806713728409925 76 59 49
0.0046517311374400586 0.06971148646874073 -0.08076392837708415 84 63 52
0.001040995314322557 0.06656953335551241 -0.08334644269369851 70 46 36
0.0027081685723485474 0.06789946032627965 -0.08655649646147484 63 36 26
-3.1749742309628015e-05 0.06549566007126464 -0.08923072716354834 63 36 24
-0.0011505896483441913 0.06446534835357774 -0.09209853583157716 61 35 21
-0.0042038870054440375 0.061796541601461655 -0.09471676998990644 70 44 29
-0.0032144448037080553 0.06255221683637083 -0.09784704607808052 75 53 42
-0.0074832730935469535 0.05885430519525072 -0.10029184549524242 62 39 28
-0.016129363076226838 0.051449784700038234 -0.10213716222842524 65 41 29
-0.016661633995011003 0.05091721262550096 -0.10504737971433431 77 51 39
-0.023689669445523597 0.04488420424315999 -0.10706457059535439 75 47 36
-0.03316385947457153 0.03678072044719089 -0.10871406736209144 85 58 46
-0.037341527829118384 0.03316263055988647 -0.11107554804717247 90 64 51
-0.037675262308304425 0.03279928503833198 -0.11397255805024532 88 60 50
-0.04036272106430814 0.03044338059808919 -0.11652737209325277 117 95 82
-0.041745551863058575 0.02919210752443014 -0.11926489780732484 146 126 115
-0.0422261468826025 0.02870464722167302 -0.12213287166572022 127 104 91
-0.04266877843477774 0.028249337748898908 -0.12500590428717423 94 62 44
-0.04383213218820355 0.027184069084971736 -0.12776787298865092 79 39 17
-0.04477883819341583 0.02630223952888436 -0.13056007428366934 80 42 17
-0.04671562216633061 0.024582649550005387 -0.1331939076150365 74 36 15
-0.04587005838497164 0.025217583284471143 -0.13626464820809928 72 35 15
-0.04811339396982994 0.02323882031311001 -0.1388415203526153 69 34 14
-0.046230991843217585 0.024750899055411182 -0.1420847411199979 65 34 14
-0.04742168876719985 0.023662874423250647 -0.1448284643544134 65 38 24
-0.0476646103283036 0.023376718934399417 -0.14772731242541043 63 41 30
-0.04736759318513611 0.02354728826787253 -0.15071790418070888 61 42 36
-0.044418517350760967 0.02596101049918703 -0.15416559804187763 64 50 41
-0.050895619385465 0.020401846526393565 -0.15599142252513704 64 50 41
-0.03657658302918773 0.032431291140150385 -0.16144141183575378 64 50 41
-0.044207507794240625 0.025815543940222514 -0.16600810782641826 66 49 42
-0.03945561905029952 0.029752499986230266 -0.16982534025937854 65 48 41
-0.03689624188310432 0.031835107083324155 -0.17326060306456662 65 48 41
-0.027158159194542546 0.03949341909491751 -0.1960157379965759 65 48 40
-0.025800978487535414 0.04055799695070184 -0.19928725759175359 63 46 38
-0.02571772456847475 0.04054590836443091 -0.20230856157860092 61 44 36
-0.019096349899641 0.046058188819601956 -0.20666362949990572 62 45 37
-0.014212526061954361 0.05010164342549116 -0.2106892618993294 61 44 36
-0.017244808410976954 0.04745665217132472 -0.2130909642308808 61 44 36
-0.02086705224275595 0.044313571181046826 -0.2153578552819114 62 45 37
-0.01389439171882393 0.0497872489405191 -0.23200908278738663 63 44 37
-0.015888499787960017 0.048019864803001674 -0.23460783535943197 65 47 37
-0.005470264640989861 0.05656558852579185 -0.2461046114589986 66 48 37
-0.0011669711434489083 0.060114489219903575 -0.25015891820824354 66 46 35
-0.002269740276117642 0.058761734297689674 -0.2652764196000899 66 44 33
-0.0032612984423994254 0.057840504099100395 -0.2681142454243356 68 46 35
-0.005485446670931968 0.055710503145520805 -0.2767978007482537 66 44 33
0.0008465214493910689 0.06096816556762067 -0.28146136912590003 66 44 33
0.0026612798592249576 0.06241430384069826 -0.2850109651053994 65 43 32
0.003557935866433673 0.06308573049000873 -0.2883354856314592 60 38 27
0.004985909478818253 0.06420518688244714 -0.2918014045784384 56 34 23
0.005589198933527231 0.06462887119235391 -0.2950610856295725 59 38 27
0.0074017488463677394 0.06607232727000267 -0.2986399751963522 56 33 23
0.00696321782566213 0.06561713468314614 -0.30163585750274274 52 32 23
0.006803012029616404 0.06505482316711286 -0.3171633335596137 84 52 32
0.007252377869840676 0.06534808533079683 -0.3204049085148497 80 46 22
0.006887286362866174 0.06495472379743017 -0.32342384434255167 78 43 20
0.0037957365658094905 0.062263287658497396 -0.3256810506228603 80 45 23
0.000977403871653612 0.05980243826677274 -0.3280037370911447 84 51 32
0.0074817357161302556 0.06519871201945321 -0.3329585672128817 70 44 30
0.012964483201683752 0.06973331312521455 -0.33764987106511535 46 24 16
0.018344655573854368 0.07418082186697128 -0.34233562146722574 37 18 12
0.01849023563607184 0.07421702754585592 -0.3455288347976424 55 36 27
0.02364546542795601 0.07847401723637733 -0.350185257035118 60 40 30
0.014394512571782134 0.0705933961087287 -0.3506324457347614 58 39 29
0.025157496979445956 0.07957408995921816 -0.35696327443667336 58 37 26
0.030040110745618936 0.0836000702806575 -0.36158825143747486 65 41 31
0.02517176954334177 0.07941208658994969 -0.3633099545677017 66 42 32
0.023145731403045655 0.07761857041681419 -0.365871317065185 51 33 25
0.021601652334077445 0.0762311534850269 -0.3685722138609734 42 24 18
0.02097628910031732 0.07561756609083978 -0.37154934935250417 59 38 31
0.019925674184800332 0.07464591332703044 -0.3743941780244023 79 54 43
0.019345058101444337 0.07407009622164012 -0.3773818524921357 86 60 47
0.017992243119754614 0.07284413654919455 -0.38012726494465465 78 51 38
0.01922882415158493 0.07379835016640246 -0.38368264925933354 71 43 29
0.013075182108968825 0.0685308515678784 -0.3849053732346919 70 43 27
0.008741142999213553 0.06479576393338529 -0.3866836348721798 68 43 28
0.005544559119705875 0.06201858150101469 -0.3888100058825752 77 53 38
0.0020619498621945176 0.05900098177355589 -0.390832138431976 64 36 20
0.002298031613198956 0.05911351237839657 -0.39404907128046507 67 35 22
-0.0007750177701681404 0.05644109628050844 -0.39618656917224027 70 38 25
-0.0014805451574165657 0.05576130662244325 -0.39909150843700436 74 42 29
-0.010283766331703095 0.04826766627508763 -0.3993140168024937 64 35 21
-0.022585478487892406 0.03774640960298124 -0.401431408271828 73 42 31
-0.025745004829447783 0.03500335562351569 -0.4034626807708894 77 50 38
-0.026558708952515865 0.03423400839101681 -0.4062782708808487 113 90 77
-0.026771689657102887 0.03397003150085556 -0.40929693072380047 108 82 70
-0.026727130120791392 0.03392266427440838 -0.41240451264019273 101 74 57
-0.030482786494064273 0.03067904264140337 -0.414200067489153 90 54 33
-0.03217077081549278 0.02917473429563043 -0.41670027964785644 81 42 15
-0.027774043123080905 0.03278749882712872 -0.42132335628393064 79 39 12
-0.028975926738939145 0.031691912485231725 -0.42399589922488956 75 34 12
-0.03427732934110654 0.02714942235496466 -0.42521350120334994 72 32 9
-0.03313229616771501 0.028027501016711108 -0.4287058129656397 76 38 12
-0.03503567598235756 0.02634255971097274 -0.4311123395610951 79 46 25
-0.038111525395315704 0.023672152925432746 -0.4330898113093985 81 53 36
0.04972905240377799 0.09679850816561283 -0.4908920695775144 86 63 46
0.050918054873716145 0.0977075577586876 -0.49461861248003436 80 57 41
0.051719789823278475 0.09829109424506544 -0.49820391847884093 77 54 38
0.05276455882788135 0.099078654312017 -0.5018871820744296 82 57 42
0.05316749174046763 0.09932693285559732 -0.5053288534933706 87 62 48
0.060680418948577924 0.10554688563818815 -0.5115292598934162 89 64 50
0.06104969494708176 0.10576631554423124 -0.5149790192496796 92 67 53
0.061419372244599424 0.10598600057806518 -0.518431920006653 92 67 50
0.061418015279459115 0.10589403234762844 -0.5217416621926214 91 66 48
0.058837354782737855 0.10363623701464354 -0.5240314321060937 91 66 49
0.05535183093557462 0.10061895835649035 -0.5259515157939639 90 65 48
0.056113522685149936 0.10116785172183043 -0.5295581269836054 91 66 49
0.05701304538065087 0.10183232752404828 -0.5332248354675276 91 67 49
0.05221072158668422 0.09771025767665864 -0.5345907209291767 92 68 50
0.0523556106470157 0.09774134521533742 -0.5379490462935812 92 70 49
0.051122534675218934 0.09661580692764835 -0.5407462847087003 90 68 47
0.05110882144911785 0.09651375166197544 -0.5440406280523342 93 71 50
0.051395455202212365 0.09666371467973446 -0.5474603545509648 95 72 53
0.05108432588884411 0.09631198773313183 -0.5506346449585747 95 72 54
0.053818555930805895 0.09851561728035903 -0.5550793602932405 94 71 53
0.05367443472168047 0.09830383380939081 -0.5583303468091393 93 71 52
0.053591402914156455 0.09814328070479725 -0.5616078987824785 95 71 48
0.05417115469294628 0.09853872363657541 -0.5651672155161099 96 72 49
0.05475156561135598 0.09893461259172065 -0.5687307090398804 96 72 49
0.0556818205947152 0.09962384672619054 -0.5724477432907454 97 73 50
0.054448875582455966 0.09849854808835955 -0.5752403071318745 98 73 51
0.05430075433031861 0.09828318675492255 -0.5784976951185848 98 73 51
0.053506924218430174 0.09752628984210847 -0.5814755912529652 99 74 52
0.0537682127937088 0.0976542426544612 -0.5849118272019785 100 74 51
0.054075349439627884 0.09782056979097839 -0.588370714590049 102 75 52
0.05397805015240456 0.09764771859648642 -0.5916542055908434 106 77 55
0.05428295415228061 0.09781204651507167 -0.5951167466952946 108 78 56
0.05440889152480559 0.09782626390466011 -0.5985024383390182 110 80 56
0.05714366011394312 0.10002736705718042 -0.6030559228416178 111 81 57
0.05718828717349039 0.09997316666823138 -0.6064146342321876 112 82 58
0.057450862789745566 0.10010159841799386 -0.6098733113032186 111 81 57
0.058001356996578865 0.10047126645381951 -0.6134650649239575 110 80 56
0.058525111475994165 0.10081842092430829 -0.617048444370411 109 79 54
0.059353582815370384 0.10142082405371214 -0.6207749341059484 108 78 53
0.05994781470520896 0.1018268133224948 -0.6243987461138295 108 78 54
0.05635541641615105 0.09872482586373646 -0.6260931347714301 110 80 56
0.056034186200733596 0.09836385338567033 -0.6292912698719013 110 80 56
0.05716723929697651 0.09922121362105486 -0.6331673076481629 111 81 57
0.05694620982946971 0.0989440891168408 -0.6364156374718647 110 79 55
0.05659233944675027 0.09855567780341476 -0.6396019973572185 108 78 54
0.05661763783973846 0.09848485221538017 -0.6429674620498335 109 79 55
0.05674569998122461 0.09850005038517615 -0.6463832731930205 108 77 55
0.057485003095510495 0.09902708476479097 -0.6500925304698569 109 77 56
0.05345391768203578 0.0955592511307035 -0.6515217095074822 106 75 51
0.05325219416227382 0.0952983481504289 -0.6547772938285019 101 70 45
0.053703324968273985 0.09558405454323234 -0.6583489517881175 97 66 43
0.046899875717467954 0.08979593724894501 -0.6584028207503566 94 63 40
0.043368525288611515 0.08674787840329987 -0.6600241488543226 90 59 37
0.04122810219058305 0.08486455390782481 -0.6623128562655625 87 56 33
0.03971696401566971 0.083325302499464 -0.6715685123142748 86 57 39
0.03468914973772323 0.07902615931347248 -0.6723980530537066 84 55 37
0.03586041329941596 0.07991504491905992 -0.6763096011634556 81 52 34
0.030095239073766086 0.07499965461041866 -0.6767415009320653 79 50 32
0.035217074653619396 0.07919402003955038 -0.6826451157389474 78 48 31
0.04258644735950165 0.08526811109165389 -0.6897115408168114 76 45 29
0.03940088183969338 0.08251126817114521 -0.6914381838161497 75 44 28
0.03573721585542142 0.07935482270049045 -0.6929081292974697 73 43 25
0.03703018138841298 0.08034478934640077 -0.6969083105757229 71 42 24
0.03441583789546036 0.0780664911824431 -0.6989011948544492 71 42 24
0.030433831373595968 0.07464463132860903 -0.7001762112476888 71 42 24
0.03081890550118707 0.07487531007063271 -0.7037057194785212 72 43 25
0.03758904852447158 0.08044523540904419 -0.7105714751381293 74 44 26
0.03629937726185184 0.079275004779066 -0.7132431780477368 74 45 27
0.03817499221510444 0.08075139175143252 -0.7175768035293016 76 46 28
0.039828868583171445 0.08204213248871133 -0.7218028283003801 76 46 26
0.03693932244406961 0.07953440818602342 -0.7236263851940883 76 45 25
0.03438434211143873 0.07730665898176262 -0.7256171583774845 75 45 24
0.028686360234625993 0.07245204882038758 -0.725916760544542 76 45 26
0.024374114617325096 0.06875628263106777 -0.7269375038309576 75 44 26
0.019211465884442003 0.06435026909861506 -0.7274823191103564 74 43 25
0.018061865979352762 0.0632984803860958 -0.7301793538235615 72 41 23
0.017656966719620817 0.06286908044680335 -0.7332777448296961 70 40 19
0.016945548145166037 0.06218357141617383 -0.7362085111427461 71 40 20
0.01612952328656339 0.061410707979286105 -0.7390803113040738 72 40 20
0.01666221578149646 0.06176468468505053 -0.7426921161722331 72 39 20
0.019605822787527732 0.0641326066150119 -0.7476394892699109 72 40 20
0.01917176952721096 0.06367868202261866 -0.7507279622799418 71 39 19
0.008296589645292854 0.05450362604336785 -0.7480028392149031 70 37 17
0.00589651315416663 0.0522269737826168 -0.7565776570774514 79 44 25
0.006444895172691242 0.05259416090157279 -0.7601943540448194 80 45 26
0.006473019870868096 0.052526843594824964 -0.7635195692598755 81 47 26
0.006270890091542941 0.05226724137631956 -0.7667151536158331 80 47 26
0.0032935803339034647 0.049690766407535454 -0.7683238207422927 81 46 26
0.005882761257179431 0.051397507918993904 -0.7863814682175894 75 43 21
-0.003987537910470851 0.042979230968863816 -0.7872249612624324 80 48 27
-0.0007388324436365251 0.04559927553379359 -0.7924412023851231 84 52 31
-0.013856668666851812 0.034023192325904325 -0.8077035364569974 84 49 31
-0.00790563605655635 0.038895379660845594 -0.8146074794853614 80 45 26
-0.012731634726155003 0.03478063904862344 -0.814972367507739 80 45 26
-0.012735193925126079 0.03468722573871928 -0.8182665104188284 83 48 29
-0.010080150828293069 0.03681026326950608 -0.8231937595897307 82 47 28
-0.015986363872476567 0.031795894255081045 -0.8228609961198631 82 49 29
-0.019455646904039933 0.028813586132774002 -0.8240100077650762 81 47 26
-0.022484512398615444 0.026198756504193232 -0.825418378663652 79 43 22
-0.03364279767288951 0.016092221882930302 -0.8478654405293254 92 51 21
-0.03174912602959458 0.01757975644833705 -0.8523525163253359 93 56 26
-0.03236597153158992 0.01697612179172306 -0.8552309571824073 95 59 32
-0.033367995879949985 0.016051747323032953 -0.8578589425878478 96 63 37
-0.03363201117896983 0.015742020355602487 -0.860962988643419 96 66 40
-0.038704462154885794 0.01115942970043958 -0.8707391823409971 79 53 38
-0.03329200605165851 0.01557517048841435 -0.8775834657046355 75 51 37
-0.028713799296246886 0.01929580787514175 -0.8839006360029185 72 49 35
-0.029611779026603627 0.01845797658222066 -0.886599742352364 69 46 32
-0.016350206456078445 0.0294044468802077 -0.8987393994274372 67 44 30
-0.013161629503987582 0.031966660165873406 -0.9041994329491416 61 38 24
-0.012225470098221475 0.03265415261795443 -0.9081629704895922 56 34 20
-0.01272354222946892 0.03214811938549263 -0.9111660782999309 55 33 19
-0.016958179513221414 0.028533278949869456 -0.9116431902892366 60 34 21
-0.017590125022939357 0.027916140399419295 -0.9145457090314254 68 42 28
-0.012425483540788429 0.03212109700016545 -0.9213902372911803 74 48 33
-0.012918337270284921 0.03161937571336007 -0.9243979568645808 77 51 34
-0.009020822001274242 0.03476939100978929 -0.9304112977306621 80 53 36
-0.020525914920438856 0.025108616112401616 -0.9258620743211471 79 52 35
-0.020940035540023036 0.0246728372049963 -0.9289071017188902 78 51 32
-0.022748009812608314 0.023077978577444647 -0.9309879542656686 75 46 27
-0.021995598562109628 0.02361228936969441 -0.9348383511253929 67 39 18
-0.021581312806749173 0.023865332791895247 -0.9384582844680677 65 34 14
-0.02208336928348753 0.023356448799340054 -0.9414417809128577 64 31 12
-0.02609448205029352 0.019930415150926667 -0.9419666673765517 64 31 12
-0.023146374992959823 0.022289788317022954 -0.9473650964437439 67 32 12
-0.02534689274495408 0.02036920458719385 -0.9491488924080593 69 35 14
-0.020589187708406634 0.024232119236353128 -0.9558448779626351 72 39 19
-0.019224676237351315 0.025274391651163297 -0.9601565665306295 73 43 23
-0.023064051903363567 0.021991929527747908 -0.9607725148988921 77 50 32
-0.0372708930172132 0.009640383964991991 -0.9705394426083546 91 73 65
-0.03974876594433274 0.007491255160747223 -0.9720550757711487 95 77 67
-0.04021838401231735 0.007010296301700941 -0.9750263699920149 97 80 70
-0.061062979814216475 -0.01119996099630445 -0.992556253759009 82 68 62
-0.05908198075694658 -0.00964609870418992 -0.9973330023597087 79 65 57
-0.06473654421339631 -0.014428356225462513 -0.9963415923951316 69 52 42
-0.06724023009677323 -0.01659561297831251 -0.9977177448097434 67 44 33
-0.069807509347268 -0.018815358844574068 -0.9990355883806602 62 34 20
-0.07114329498141876 -0.020013187069277183 -1.0012836242895589 56 28 11
-0.0680991490375019 -0.017577602783959784 -1.0068815644678835 55 26 10
-0.06769311081959763 -0.017330664297292256 -1.0104683338809675 55 26 10
-0.06751957812730229 -0.017276658193989533 -1.0138792909752692 55 26 10
-0.07261658580234717 -0.021593801215980063 -1.0132199607057093 57 28 10
-0.0803326612183928 -0.02808229090749955 -1.0105091961697157 58 29 11
-0.078927671467684 -0.0270065022750327 -1.014854136573253 59 30 12
-0.07593453215032044 -0.024614105763613177 -1.020444946115631 59 31 12
-0.0755983729866074 -0.0244250082713815 -1.0239736115729594 63 34 13
-0.0757938964470381 -0.02467677439269563 -1.0270883921937346 70 38 18
-0.07603893262791801 -0.02496960083552021 -1.0301648152209921 74 42 20
-0.07640837980497253 -0.025365561917727153 -1.0331434737826803 78 48 24
-0.0776365227741286 -0.02647324111605981 -1.0354427479252926 83 55 34
-0.07865501959460908 -0.027407056177754102 -1.0379041790683297 84 60 43
-0.07940560082618736 -0.02811875753186876 -1.0405755544366817 82 61 43
-0.07465677809610215 -0.024273296533383767 -1.0476323061286485 81 60 43
-0.07475274479972721 -0.02444282679490699 -1.0508360727367385 80 59 42
-0.07434010173278971 -0.024190987345658763 -1.0544489645879898 80 58 44
-0.07651182160482654 -0.026260375744562234 -1.0625486711780792 79 60 45
-0.07674293612573695 -0.026541902137884807 -1.0656448091834436 79 60 46
-0.07436949695554887 -0.024666309007885107 -1.0708609821723298 78 59 46
-0.07338324197819265 -0.023939855051115885 -1.0749574366370112 77 60 49
-0.06578119187637312 -0.017735096600534253 -1.0844742651322004 65 50 42
-0.06271341207352649 -0.015285831961607169 -1.0903062314282372 53 38 31
-0.06499254727523263 -0.017264044561623962 -1.0917533168573907 42 27 21
-0.06950219810559452 -0.021088655420833352 -1.091350605632172 39 25 18
-0.06992952499848432 -0.02153323885373809 -1.094307143827956 40 27 20
-0.0669648533639064 -0.019170000855579683 -1.100078192305583 38 25 17
-0.06597168179020846 -0.01843901043617638 -1.1042237171483713 42 28 20
-0.0635316985762169 -0.016510736154109557 -1.1095826661284676 46 32 23
-0.06922972649108028 -0.02131770415167762 -1.1081445102664842 46 32 22
-0.06935540289541543 -0.021512752948714478 -1.1113573554037655 47 31 20
-0.07291459424495135 -0.02454891687274413 -1.1116821480166152 54 33 20
-0.07559134718937727 -0.02685454654552545 -1.1127365474813777 65 40 23
-0.07530334629692677 -0.026707044028038307 -1.116288326581044 75 47 26
-0.07603133631852567 -0.02740011603922554 -1.1189810405023284 81 55 30
-0.07543342406806659 -0.026996344096725994 -1.1227997485657057 84 62 40
-0.07848058007269156 -0.029607676135705335 -1.1235136736683173 84 63 45
-0.07616373542218507 -0.02778221567626693 -1.12880260922039 85 64 44
-0.07830353148052507 -0.029642797190483627 -1.1302818800063772 84 63 44
-0.08042175199577035 -0.03148530630480398 -1.1317713033015306 82 61 43
-0.08253814784965277 -0.033326078732486386 -1.1332539940576911 82 60 42
-0.0880173323614484 -0.03794705793434934 -1.1318212083893862 81 60 41
-0.08552851559136788 -0.03597975291164787 -1.1372714306005025 80 60 43
-0.0781259071100841 -0.03004165059554087 -1.1503242536650518 69 54 38
-0.0719680055956155 -0.025042819107763126 -1.1590252082233328 79 69 54
-0.06575391366209919 -0.0199983714961562 -1.1678054804826865 107 101 88
-0.07703866714434601 -0.029507838569770767 -1.1645719587672665 166 165 159
-0.07867708939559685 -0.03095302872972444 -1.1664539347644827 180 179 175
-0.08280268238851625 -0.03445307848279974 -1.1661276615420433 188 189 184
-0.0849303601990055 -0.03630199125975851 -1.167557307624323 193 194 189
0.05408152726511426 0.1208495594495978 0.10383253057238173 117 90 74
0.05133669996754897 0.11842521499029124 0.10078918680673432 110 79 60
0.0467108628818663 0.11439636596943223 0.09775432491998927 107 73 52
0.04226266842319413 0.11051951543717145 0.09473592913129497 107 75 54
0.036453953191173956 0.10548253306862296 0.09173819935022133 105 74 54
0.038867790285921924 0.10737794391935142 0.08570451863167311 107 77 57
0.04170036071841155 0.10971188199887978 0.08266373766985274 107 79 60
0.04202514819072972 0.10990679782594878 0.07963871559855662 106 80 62
0.039584486073774655 0.10774335970180214 0.07664748939504995 96 72 54
0.03159841143434207 0.10085149217801867 0.07374815972500356 88 66 49
0.02413468728320993 0.09440582484020704 0.0708698274194756 89 64 46
0.016940255812297144 0.08819051589683632 0.06801425761864996 89 63 46
0.01116169944769383 0.08318304815830926 0.06515588621049276 80 53 36
0.00942196826653563 0.08161926820363799 0.062226399918762616 78 51 33
0.009761421249735867 0.08182803861128304 0.059250823264385084 77 51 33
0.011922017202053159 0.08358907497910073 0.05622388374349145 79 54 38
0.012135822612447944 0.08369051455102683 0.053243232075703875 91 71 57
0.007306908770291047 0.07941342006736289 0.047447401892256456 94 65 53
-0.011070825881502738 0.06287298673744421 0.015714969296403435 82 42 17
-0.014302258628660115 0.06004106615774403 0.012949901187424569 80 40 15
-0.018946298002186536 0.05600656093691676 0.010278499391097928 75 38 11
-0.024043800125720178 0.05158639969842451 0.007651423724507268 75 38 12
-0.028482533528419774 0.04772765048624582 0.005002277265438358 74 38 12
-0.026311752217403103 0.04949657457359955 0.001945824775661366 70 36 11
-0.018002189018894603 0.05649136184186979 -0.001525906292215854 64 31 8
-0.01848895910414616 0.055997115187006036 -0.004433234429655592 61 30 10
-0.01571355219394535 0.05827972669606717 -0.007568224456900738 55 26 10
-0.016698556774112822 0.05736126082850493 -0.010444749948905853 54 26 12
-0.01691461913908126 0.0570973257795733 -0.013375481333483978 56 29 14
-0.017652575392492063 0.0563892163788603 -0.016266969799539545 60 34 19
-0.018954793440502733 0.05520096120562167 -0.01911282187537025 60 36 20
-0.01458829600670039 0.0588366317185172 -0.02240754520274047 62 38 26
-0.0122955444960756 0.06070724744544907 -0.02555103157252422 63 39 28
-0.011606609358830615 0.06121298057039959 -0.028570379869906883 58 38 27
-0.011461096228867367 0.06125626606586701 -0.03154706582618259 41 25 16
-0.011670744427639986 0.06099735235166433 -0.03449439140495776 36 19 12
0.004608140819042782 0.07468349846112482 -0.04192235611384126 21 13 10
0.019625232506274855 0.08721041423002368 -0.05239726653583706 11 10 8
0.02352463616854985 0.0904440945919165 -0.05582088484373831 15 12 11
0.020047929925510015 0.08740495233086733 -0.058511326345681264 21 14 14
0.019509982404336747 0.0868650022382154 -0.06149385753188011 17 11 10
0.013528198188826432 0.08169642851576991 -0.06390041288607654 21 15 14
0.011246552805847423 0.07967432635235383 -0.06668271631084285 21 13 11
0.004704561225490039 0.07403051759044348 -0.06899018724088715 20 12 12
0.001556495915632873 0.07127253273100734 -0.07165169689735433 27 15 13
0.0022823701105157065 0.07180785132984464 -0.0747420292679565 51 34 29
0.0031064873512528443 0.07242656209351842 -0.07784787378698241 78 60 50
0.0038226513902681544 0.0729533965817733 -0.08094557437227151 76 56 45
-0.0015140910076529568 0.06833589880131129 -0.0833235921009849 65 42 32
-7.140905856006102e-05 0.06948024794379568 -0.08650579596674611 63 37 27
-0.0024051782604876115 0.06741530011567073 -0.08922836979300947 60 33 22
-0.0034364350194989526 0.06645733330075207 -0.09210644500097018 58 32 18
-0.006634831885148018 0.06365811326883081 -0.0947052257725321 66 40 25
-0.006271094875972515 0.06388561271185307 -0.09775399999615009 79 56 45
-0.01400325541891001 0.0572351625998726 -0.09974042276723712 60 37 29
-0.019150383591836583 0.05278149363283603 -0.10204244217098417 64 39 28
-0.02044972407906449 0.05159682257597653 -0.10484672277543976 75 46 32
-0.028292811063961334 0.04485408041689236 -0.10674692543730234 72 45 30
-0.037507701037190484 0.03694703891039859 -0.10842553990203097 92 68 54
-0.04067891863578846 0.034173729947942794 -0.11092404477481925 83 56 45
-0.041702715384273274 0.03322437493897208 -0.1137193786483106 97 69 58
-0.04375439056787005 0.03140225400500815 -0.11636222361805715 116 96 86
-0.04479593326218193 0.030438042182879144 -0.11914715053825199 141 122 113
-0.045435611747557204 0.029815117485078115 -0.12198924943195016 125 102 91
-0.046017849473467466 0.02924099643344637 -0.12483872808402359 96 64 49
-0.0477072897609425 0.027726943183856878 -0.12751705048986653 83 42 19
-0.050165269923213684 0.02556062890644312 -0.1300702412926202 87 46 22
-0.052837108644692724 0.023213016901208947 -0.1325810881422558 79 42 20
-0.04949676325762353 0.025968735370338173 -0.13604210142314546 72 36 16
-0.04984180294977944 0.025596144388681862 -0.13892211113646863 68 34 16
-0.051287371175309675 0.02428956177865728 -0.141621878860188 64 33 16
-0.049935988145750794 0.025356664872986483 -0.144780400796808 65 38 23
-0.050675031838399234 0.02464971344674722 -0.1475951044206843 67 45 33
-0.04854045086921789 0.026381123040477232 -0.1508956810045157 61 42 34
-0.046313318689953614 0.028190791225370507 -0.1542219943958283 64 49 40
-0.05380612303238313 0.02175373314554546 -0.1558700334159308 65 50 42
-0.05753812322508814 0.01850794338866011 -0.15814998970799657 65 50 43
-0.05904646772651143 0.017148847200815318 -0.16081138216044613 64 49 42
