ply
format ascii 1.0
element vertex 697
property float x
property float y
property float z
property uchar diffuse_red
property uchar diffuse_green
property uchar diffuse_blue
end_header
0.08507975936725892 0.26184214409055884 -0.32507713097287044 91 57 33
0.021632506257286695 0.2440147004663934 -0.3494543040957478 90 69 58
0.020307897477240273 0.24373498346367836 -0.35279334177933125 89 68 54
0.020073395100722313 0.24376830319987858 -0.3559197654066702 89 67 52
0.042541436836997966 0.25031588727770165 -0.35446418355000975 81 58 44
0.03976038034257148 0.24961757367171333 -0.3580762473871872 82 59 46
0.04294360539510867 0.2506303371771349 -0.3604749777105584 84 65 52
0.049734887552011636 0.2527767898476622 -0.36515683784775543 64 45 37
0.05060829862928421 0.25332518105370716 -0.3740939338501566 75 51 41
0.05752911523971995 0.25550655794677735 -0.3786809614712392 74 50 38
0.06477932037817466 0.2576821642324724 -0.38013228524845516 73 49 39
0.07021211619910477 0.2593366262594012 -0.3819609065608904 74 50 40
0.060481590886041194 0.2566493696158763 -0.38713276653605067 78 54 44
0.05974021437026724 0.25653626713542027 -0.390331503761543 74 50 40
0.08739475795249299 0.26484325043633766 -0.39612874486406413 69 46 36
0.10636298072894898 0.27036553337068253 -0.39473487228680565 76 53 43
0.1425597463970012 0.2819547994953072 -0.42424622629249104 81 40 18
0.1362978799866989 0.28026434259980537 -0.42876402340285397 84 50 27
0.13134087196635422 0.27894670518948933 -0.4329696069600079 88 59 37
0.1294705470958185 0.2785096899954143 -0.4363970404078954 92 63 43
0.021026750902249435 0.2567733861269653 -0.7453747897605995 109 91 80
0.02534658533386584 0.25809026611464325 -0.7468701380998565 102 83 70
0.0313521956941228 0.2598789446914821 -0.7476605101057044 95 76 59
0.03525122845796204 0.26107699784194505 -0.7492994859005804 95 73 56
0.131523685066551 0.292709231869311 -0.8525283883386832 101 67 40
0.12799919545457505 0.2918342118342018 -0.8574110709908077 104 76 50
0.12759673864021448 0.29182548077477977 -0.860759368674973 109 83 61
0.1271941328295731 0.29181680382936453 -0.8641106610372886 108 82 62
0.12517147063383427 0.29135911985517576 -0.8682740656339628 105 79 62
0.12390961203452015 0.29111258048319266 -0.8720647796939518 102 76 59
0.12360239411199177 0.29113076567844265 -0.8753812592173006 98 73 52
0.12022738322942755 0.2902991329716554 -0.8802489506734438 99 74 55
0.12185537640553723 0.29085368502499653 -0.8825957350762271 101 76 57
0.1206690168934625 0.2906287344681664 -0.886368919598685 98 73 53
0.11659870522634222 0.2896055013056485 -0.891618997662915 92 66 47
0.1150880344304008 0.2892913201195812 -0.8955747683465002 91 62 42
0.11639264887855494 0.2897564949938385 -0.8980912760538534 89 58 38
0.11424065440283478 0.28926515107259054 -0.9023863899770441 88 55 34
0.11051763780633311 0.2883395086614724 -0.907503265643996 89 54 32
0.10943106221620139 0.2881435250945499 -0.9112665638710905 104 73 48
0.10994874135344962 0.2883913226903197 -0.9141997683976562 116 86 61
0.10996488115562009 0.28850045457303686 -0.9173947479881465 118 88 64
0.10994920094654861 0.288600839391955 -0.9206078826027294 115 85 60
0.109482913119511 0.2885767537117174 -0.9240596855599043 110 83 58
0.10893214631376652 0.288529432125741 -0.927559280724753 103 75 54
0.10918739786822564 0.28870486836391274 -0.9306354157835792 87 60 46
0.11176866643098332 0.28952269646826945 -0.9324758991397823 73 47 34
0.11387192359762516 0.29020828972483537 -0.9345636081145123 66 39 28
0.11691455877624166 0.2911530038440104 -0.936142695269282 66 39 28
0.1157085074934169 0.2909248054408623 -0.9399933826927919 69 42 31
0.11392868297463078 0.2905384743075038 -0.9441589790582343 75 49 38
0.11551229211937894 0.29108029163773835 -0.9465147466031005 75 52 41
0.11083613818383826 0.28989542251923256 -0.9522606130114172 74 52 41
0.13442592556166022 0.29712980558939217 -0.9617471486858818 82 64 57
0.13715393798313613 0.29798514524908926 -0.9634173822376637 81 64 56
0.13034535460038724 0.2962148902953826 -0.9704044524227405 90 72 63
0.13266489994018263 0.2969578263534966 -0.9723040870871824 100 81 71
0.13488700378891488 0.29767372644319184 -0.9742516633529884 100 80 71
0.1374859264215322 0.29849308274204533 -0.9759803198826484 94 74 65
0.1367034068296022 0.29838210364779433 -0.9796136561302887 93 73 64
0.13770681445738764 0.2987623880390001 -0.9822380185864392 95 75 66
0.14614216621519238 0.3011859145920275 -0.9806300402588963 95 75 66
0.1500528255270175 0.30236476147477925 -0.9815767614064446 96 76 67
0.18076432494350153 0.31213521694267254 -1.0047009899285941 93 49 19
0.1820076713665083 0.31257849598347265 -1.0070977847293865 94 49 18
0.18678455823090553 0.31398982885982313 -1.0073778803596318 89 45 14
0.18855452325408367 0.3145769577524332 -1.0094462581858428 88 43 14
0.1888232800669495 0.3147527889813526 -1.0124131560652938 86 42 16
0.18584904700656762 0.3140406714966446 -1.0173381742558552 77 34 10
0.18635174097665697 0.3142807709297665 -1.0201703978397496 75 33 10
0.18621873807124795 0.31434687485287544 -1.0233883483930764 77 33 11
0.18749791659758783 0.31479946249010426 -1.0257481308027785 76 33 10
0.18928499954171152 0.3153908959062703 -1.0277944676934287 75 34 10
0.1895618472205943 0.31556909660014965 -1.0307611977656919 81 43 17
0.19053899008140981 0.31593881182425243 -1.0332980438170212 86 51 25
0.1906525537246157 0.3160723627485186 -1.036365149515536 87 55 31
0.19112834484254496 0.31630495869021136 -1.039209413771865 91 60 37
0.19616464554616636 0.3177838172625042 -1.0392256580732286 96 65 44
0.1951001320707343 0.317595292404808 -1.0430190323217792 104 74 53
0.1945467742554296 0.3175465688690919 -1.046498997513473 100 71 49
0.19509216395453963 0.3177980233673744 -1.0492951806600868 101 71 50
0.19429277809252143 0.31768229129994585 -1.0529345723454269 101 72 48
0.19209941371493094 0.3171861830691125 -1.0574555255870348 101 73 50
0.19301674219503523 0.3175393427379934 -1.0600230385879483 98 72 49
0.18980932221654034 0.3167669827615017 -1.0651991978537847 94 68 48
0.18941317654546122 0.31676195968212467 -1.0686042812024419 89 65 47
0.19046225641905984 0.31715119804501934 -1.0710923780981727 84 60 48
0.1834664562873914 0.31534672048518736 -1.0787139483960344 66 42 30
0.17842378173921813 0.31407558493309207 -1.0851123116849448 58 34 23
0.17262142374576353 0.31259804993817514 -1.0920185277690928 56 34 26
0.17092998831625766 0.3122414688304608 -1.096300569210046 38 16 10
0.17518906467647616 0.3135062686201201 -1.0967478331990779 54 31 24
0.18029247218101835 0.3150005808933429 -1.0966341761951095 60 41 33
0.18774358247090372 0.3171336426879249 -1.0949785774468193 53 31 24
0.187675292165344 0.3172186685284943 -1.0981942797478585 47 22 13
0.19115666336368714 0.3182699493722179 -1.099093404567295 51 24 12
0.18961062357019573 0.31795273278696984 -1.1032740180180343 74 45 29
0.1877077253467308 0.31753866127674685 -1.107696267175551 91 61 40
0.18727782998530995 0.31752554572131225 -1.1111568746227296 94 65 43
0.187933961093562 0.3178078802509023 -1.1139032822792874 96 67 44
0.18770012350152165 0.31784821038686095 -1.1172382865097121 96 67 45
0.18948894664317048 0.31843844274977173 -1.119232232016406 97 69 47
0.19025078394787542 0.31874940399438684 -1.1219051359439371 96 69 46
0.19219844798717045 0.31938252551884966 -1.1237847379217234 96 71 47
0.1919030697294669 0.31940613867809536 -1.1271609770628457 94 70 46
0.19199285181309433 0.3195344437023561 -1.1302811764061456 94 70 46
0.18801743822947897 0.3185589692481025 -1.1361403797308711 93 69 45
0.18591256051500926 0.31809181895004807 -1.1407526595406337 93 68 46
0.18415118718147358 0.3177182044814224 -1.145141690409536 84 62 42
0.18057862070354186 0.316853392360659 -1.1507686888589799 78 62 46
0.17811647726080326 0.31629030768988914 -1.1556544368137036 92 81 70
0.17852127066641513 0.31650516033092857 -1.1585934837391136 115 108 99
0.17916226660991036 0.31678406481265253 -1.161370883305576 143 138 132
0.1802338576958699 0.31717967871418673 -1.1638518713540298 163 159 155
0.1809160963140126 0.3174696820575283 -1.1665984430524234 174 172 169
0.1802879581438074 0.3174045643462988 -1.1702484625358924 181 180 178
0.027892571912646574 0.22824479364341274 0.0962905885825667 119 91 72
0.06321143000401001 0.2396293679836633 0.06670455968271968 92 57 38
0.06308095786901405 0.23968244839261874 0.06388120248806164 84 49 29
0.062507101812261 0.23960440935700794 0.061065529358037975 86 51 31
0.04896319390994626 0.2356899866602516 0.05849999871401902 102 67 44
0.11466163970434129 0.2570058136666307 -0.0008127540718964772 78 40 20
0.11589430530747602 0.25745915721026025 -0.0035718830733664567 74 35 16
0.11763607510724186 0.25806242199538537 -0.006320313400798982 69 31 12
0.1177829349302542 0.2581956993892962 -0.009092471364493065 68 31 12
0.11522084782883138 0.2575310964304446 -0.011916982571748981 67 32 12
0.11506157366082738 0.2575744059896376 -0.014701204047771171 67 33 13
0.11481083833419868 0.2575908415517699 -0.017489182537143266 68 37 19
0.11374974106856704 0.2573687772262159 -0.02029837897465138 71 42 26
0.11094989911821318 0.2566350724497961 -0.0231560101411051 74 48 29
0.11054668541407171 0.2566070005211712 -0.02595935099842688 74 45 30
0.10838178296452994 0.2560606462481028 -0.02881514397209435 64 36 23
0.06690949987155434 0.24413655138456752 -0.03858552562032637 35 16 10
0.05891518220395997 0.24253403895458328 -0.06192394889844032 23 17 17
0.05173676758514722 0.2405199586330119 -0.0651519072263873 20 12 11
0.06101262953647395 0.24343110440025484 -0.07049283988987319 27 15 10
0.0759501183108252 0.24790878017058082 -0.07261037929319747 49 30 22
0.08874287736844103 0.2518480972701226 -0.07764663857428375 85 63 48
0.09673425498445176 0.254468998015221 -0.08572755524183948 91 66 46
0.08253767782246663 0.25039908262002963 -0.08943828093903244 83 58 38
0.10668210909586394 0.25802877454817946 -0.10494883523531563 77 40 24
0.12686776662893354 0.2640315489560502 -0.10632771680644246 81 44 28
0.14387433974968314 0.2692819452759282 -0.11343918518761908 118 83 66
0.15751898531417524 0.2738132213416544 -0.1289720544528746 88 45 18
0.15485203546598028 0.2731234436713147 -0.13197464009465482 82 41 16
0.15692642435436632 0.2738196729805106 -0.13456240487638427 77 39 14
0.15396493476412618 0.2730442138646021 -0.13760369380914922 73 36 13
0.15177896461668788 0.2724956713066778 -0.14058371775541384 71 37 16
0.1515286914623824 0.2725128180478315 -0.1433894137556586 70 41 24
0.15001643283333305 0.2721614654598529 -0.14631813751492936 69 46 33
0.14838699155055785 0.271776091637852 -0.14926432884156912 67 47 35
0.1428060847860774 0.2702372985478296 -0.15260829407471316 68 48 37
0.14399334388902418 0.270674733813715 -0.15529017386751298 68 49 38
0.14381153808481123 0.2707125311159003 -0.15810948214775894 69 51 39
0.14660277775575076 0.2716179072710067 -0.160622019672949 70 50 39
0.14719378613828898 0.2718811339519738 -0.16335883358009018 70 50 41
0.14833382943514817 0.27230448948271363 -0.16603629251846902 70 51 43
0.15276604762678425 0.2736878984063314 -0.1683539480965457 69 51 42
0.14656170611695388 0.2719693926740461 -0.17183051722243337 68 51 41
0.14014606100460414 0.2701899658552377 -0.17535171427623697 67 50 40
0.14209789454639138 0.2708502386890743 -0.17794617531925963 67 50 40
0.13878135894728105 0.2699749719536053 -0.18114123973139104 67 50 42
0.13955017797185343 0.2702904871198687 -0.18387205822538086 67 50 42
0.1337686880059423 0.2686976625443084 -0.18737548792800054 66 49 41
0.12510841431189576 0.26626695074954865 -0.19124330572514514 66 48 41
0.12432775835464874 0.26613193041188304 -0.19418407624450965 67 48 42
0.11511950859246539 0.26354313108698624 -0.19816454021575236 67 48 42
0.11840018017298212 0.2645911378521699 -0.2006206300680568 66 47 41
0.11852846964576308 0.2647212794972455 -0.20346509034932125 66 48 38
0.11921577656396978 0.2650141344907315 -0.20623903775148017 68 50 40
0.11020860423624712 0.26248618492319387 -0.2102657188084713 68 50 40
0.10853124359584645 0.262091566661289 -0.2133629422438426 69 50 41
0.11225008069905375 0.26326672071565943 -0.21575175158239399 69 49 41
0.1129339143520326 0.26355891712422375 -0.218536999449499 69 49 41
0.10713885436978077 0.2619672859005558 -0.22220068324554493 69 49 41
0.09915746245806781 0.25974071715478486 -0.22618449262135937 68 48 37
0.10408530528071436 0.2612671585314052 -0.2284017425575538 67 47 36
0.10426217010288202 0.26141247997944644 -0.2312721641778055 67 47 36
0.10229895247967177 0.2609360222036531 -0.23444752041916 69 49 37
0.11161327311025104 0.2637359250503056 -0.23600938591831036 70 51 37
0.10265349319437589 0.26122724429888744 -0.24019883830834193 70 51 37
0.10186980679160101 0.2610938348200664 -0.2432168375738893 70 48 35
0.09142970959697198 0.2581568833011557 -0.24767333120232266 71 48 37
0.08761402320587665 0.257144066796621 -0.2511698922530639 71 47 36
0.0881097397592098 0.25738302513054184 -0.25402563803531203 73 49 36
0.08886197471822821 0.25769641276665944 -0.2568417655448996 73 50 36
0.090674844200843 0.25831749051404335 -0.25949238648852574 76 50 37
0.09798778624190103 0.26053388955112716 -0.26127704460314094 76 50 36
0.0934304016627572 0.25930682862754384 -0.2649177729114538 77 49 34
0.09147022074068584 0.2588334160002977 -0.268159368436601 76 49 34
0.08921804735458282 0.2582755961444048 -0.271455769294671 77 49 35
0.0874282109524718 0.2578520739449244 -0.2746853787116684 77 49 35
0.08472672342439505 0.25716456853688874 -0.27807225301087113 76 48 34
0.08342683246309207 0.25688352614417126 -0.2812360937147588 78 49 35
0.0826773473761892 0.25676212413266797 -0.28431304822313097 78 49 35
0.08261589136690073 0.25684014015124235 -0.2872771144709634 73 44 30
0.0817977589530195 0.256699065556538 -0.29037224114247406 73 44 30
0.07470210695714039 0.25474042149897214 -0.2945560404022043 79 50 33
0.0745397422118274 0.255562372095129 -0.3213705803262579 92 58 34
0.08868458026812066 0.2598434971787026 -0.3246413062313872 88 53 31
0.05244622739002109 0.2501569032170908 -0.35576291912406743 77 55 40
0.05236237121625062 0.2502310960632692 -0.358812943277684 76 58 42
0.0523757406085107 0.25033338726665527 -0.36184450422106457 74 56 44
0.0549509150467859 0.25137135326619237 -0.37041011455010237 65 43 33
0.05665950892261708 0.25196230810744547 -0.3730809359375784 72 48 38
0.05906300502604241 0.2527533848767753 -0.3755980312258883 74 50 38
0.06397925888098294 0.2542682498212671 -0.37756387224603505 74 50 38
0.0644573000401385 0.2545040940909688 -0.38048444594545344 72 48 38
0.06834972813484466 0.2557233534066338 -0.3826533987080196 71 47 37
0.08442224780856131 0.26093607036344035 -0.3971019487750806 71 47 37
0.10417609390604578 0.26671565186776 -0.3955296189153712 76 52 42
0.14178708996671563 0.27876475051802163 -0.42474487074742706 81 39 17
0.14295205721410237 0.2791939230978615 -0.4273748716226871 84 48 26
0.13820338194291892 0.2779267138720744 -0.4315184752163948 88 56 35
0.1318832060726412 0.2762093664281512 -0.4360846797007648 88 58 38
0.022924581393584255 0.2538618192043527 -0.7385753349429839 101 80 68
0.029951638504807428 0.2559491570611743 -0.7389827365821429 97 76 62
0.033645506833508844 0.2570959388686706 -0.7407241307986078 94 72 57
0.037744299493738365 0.258356504610868 -0.7422887572231884 93 71 55
0.04100415260616347 0.2593802085514082 -0.7441851130013392 92 70 50
0.04463896970009787 0.2605092566725464 -0.7459171363593023 93 69 49
0.0487420982759032 0.2617698846630798 -0.7474442308844611 90 63 47
0.04613121202897974 0.26113891764928376 -0.7517495993154409 86 60 46
0.04803072081337551 0.26188311171898604 -0.7574070778055728 86 60 47
0.13453736638617442 0.2904718739958258 -0.8515881194148569 102 68 39
0.13454546030651832 0.29057591391276505 -0.8547215851719205 102 74 47
0.1345538586790651 0.2906800862341432 -0.8578563623077899 102 76 52
0.1345921882372787 0.2907926569832447 -0.8609776955097717 102 76 54
0.12915439384747138 0.2893777140369299 -0.8668373131179631 102 77 57
0.13191703123824142 0.290250473283176 -0.8686046504130903 100 75 55
0.13268914027173986 0.2905679369729603 -0.8713655991498656 97 73 50
0.128184962777891 0.2894144576604384 -0.8767904263752133 95 69 47
0.12498267589496155 0.2886244067622195 -0.8815728302791311 98 72 51
0.12370802624948589 0.2883719308203549 -0.8853875928457124 96 71 52
0.12281318781469537 0.28822546738154675 -0.8890145215488902 94 68 50
0.11873281294491725 0.28719183885215216 -0.8942778301820551 92 63 45
0.11776910240493824 0.2870266836167276 -0.8979552097027135 92 61 42
0.11668275849985343 0.28682754398417326 -0.9017007861457637 89 56 36
0.11486260762724057 0.28642430740470615 -0.9058315343045182 86 50 30
0.1130104273663117 0.2860124162078984 -0.9099869198603326 94 63 39
0.1127476628055723 0.2860430544176774 -0.9133221548606703 108 78 51
0.11423181123818518 0.28655976207610373 -0.9157463895058904 113 83 57
0.11313752410995509 0.2863591783316501 -0.9195197222998049 109 79 52
0.11387427067123003 0.286667950738512 -0.9223345045789 100 73 45
0.11175148138535945 0.28618166375994825 -0.9266587465760907 99 72 50
0.11518679432561414 0.28724064401689503 -0.9280460830884854 89 62 47
0.1153407042013309 0.28738734258901505 -0.931167813422125 75 49 36
0.1146633266088441 0.287303098469117 -0.934734110944367 65 38 27
0.11711081330047529 0.28808704957574105 -0.9366312996294268 65 38 27
0.1178750712903357 0.28840327399036614 -0.9394254802601633 68 41 30
0.11409803340427499 0.2874584442836372 -0.9446661385449926 69 43 32
0.10729454947613425 0.2856739035422236 -0.9515584844217159 73 50 39
0.10660415930049617 0.28558696081055235 -0.955159991455184 74 53 42
0.1059005504008331 0.285496480226025 -0.9587727133520046 78 58 49
0.116090989187253 0.2884286281498647 -0.9564396866903213 84 65 57
0.12085032017635433 0.2898531234894917 -0.9570475943557273 82 63 56
0.13370269735272405 0.2938318773570319 -0.9627570805426049 80 62 55
0.13487839371209503 0.2942612002007756 -0.9652940935427883 78 61 54
0.13997351428067029 0.29577625954578857 -0.9656384908387619 84 65 58
0.12979683986551746 0.29316473883050387 -0.9777298570852622 95 75 66
0.13217921373189676 0.29392829631939377 -0.9795908324897236 91 71 62
0.13637213468063064 0.2951927895168153 -0.9804200902621117 92 72 63
0.1394660770355798 0.2961527057042684 -0.9818596955694908 94 74 65
0.1394947425659332 0.29626419090652467 -0.9850354950709684 94 74 65
0.18570807251727423 0.3103661799178128 -0.9992634687820717 86 42 17
0.18599596095262527 0.3105471248635977 -1.0022218524573305 93 49 19
0.18586911492786992 0.3106136993048502 -1.0054281808792467 98 55 21
0.18960537578716943 0.3117455702755218 -1.0063242246987938 96 51 18
0.19172485183507296 0.3124313241049573 -1.0081788449732836 88 42 11
0.19187862323333407 0.31257507527013384 -1.0112109792106438 85 40 12
0.18915232452985398 0.31192520235322063 -1.0159836503977473 81 36 10
0.18949132617935302 0.31212021776396354 -1.0189107082189224 79 35 10
0.19022687141022743 0.3124244698605125 -1.0215970789377857 80 36 11
0.19095341942856575 0.31272620619931907 -1.0242877615397947 80 36 10
0.1912790274797121 0.31291751427426967 -1.0272224008958577 81 38 12
0.1930443179366655 0.3135051370818259 -1.02927465044406 83 42 15
0.19283802018098944 0.3135499935955825 -1.0325344066699125 90 51 24
0.19239329755417817 0.31352932023427027 -1.0359434869449724 87 54 27
0.19719912474539292 0.31495314410123115 -1.0361076457208258 87 54 31
0.197647231535016 0.31517792210275203 -1.0389594541241554 91 58 38
0.1977275503012541 0.3153015633066098 -1.0420399995509404 92 61 40
0.1971744212825725 0.3152510991420126 -1.0455171019427434 95 65 42
0.19654617849626438 0.31518010434348487 -1.049044761977295 95 65 42
0.195104573089521 0.31488572376232793 -1.0530868456660594 93 63 41
0.19414443794166486 0.31472384192068964 -1.0568325989699903 94 65 44
0.19365299597379373 0.3146908634229279 -1.0602874446012718 96 67 48
0.19243176451845478 0.31445757911881106 -1.0642077732868347 94 66 50
0.19137058561778972 0.3142684336159463 -1.0680324600809528 91 66 49
0.19193885815269363 0.31452674745098774 -1.0708246961296095 87 63 51
0.1870780461291009 0.3132950867352269 -1.0770843966117463 77 52 42
0.18336457326830408 0.3123788625994819 -1.0826284906527959 60 35 27
0.17803795802753883 0.3110206137983163 -1.0892241737910793 58 35 27
0.17367012496549128 0.3099260073315057 -1.0952232578546617 39 17 10
0.17673520895442774 0.3108700852146849 -1.0964372061231307 49 25 17
0.18189260250574935 0.31238743489765847 -1.0962856080011205 59 40 30
0.18899867934252773 0.3144383154552548 -1.094850217141826 55 35 29
0.18741231921067492 0.31410648160435234 -1.0990548404875167 43 19 12
0.1920375752201386 0.3154766317130642 -1.0992074096309328 48 19 10
0.19337371724100763 0.31594538392821664 -1.101500032284114 58 27 15
0.19053503369710745 0.3152707843898972 -1.106533031125096 81 50 32
0.1911836555630494 0.3155513358557775 -1.1092796927158453 88 57 36
0.19172857299481216 0.315803473362018 -1.112094037448063 91 61 36
0.195781580228376 0.317015625642471 -1.1125828654965166 93 63 38
0.19699129663360349 0.31744941192971265 -1.1149479328057947 92 62 38
0.19815632351047652 0.3178708784046656 -1.1173398446282718 91 63 39
0.19559033182476632 0.3172718899787216 -1.122222499651097 93 66 42
0.197275509952951 0.3178356211193962 -1.1242671803576256 93 68 45
0.19606615442892622 0.31760794614747423 -1.1282523666269113 92 68 44
0.19501614640108747 0.3174240166785575 -1.1321362023325328 92 68 44
0.1925191718450371 0.31684489341055877 -1.1370032567684465 92 67 45
0.1876833746943637 0.3156272001952864 -1.1434659157460658 88 64 44
0.18514314988263927 0.3150371078142437 -1.1483883556572916 77 58 42
0.18220883459398407 0.31433976195569946 -1.1535902967554665 81 67 54
0.18194217402232332 0.31437108977836287 -1.1569822378301957 102 94 84
0.1831522503839142 0.3148055601547092 -1.1593651176050825 129 122 116
0.18358790808040476 0.3150286125970173 -1.1622770036313492 155 150 146
0.1844479080114027 0.3153674316042828 -1.1648965622548677 171 167 165
0.18838851217270858 0.3165464571360655 -1.1653869435689055 178 176 174
0.028938704697578962 0.2254194017875149 0.09908114506728347 130 98 77
0.033119732759106305 0.22675791095273035 0.09605018570766503 124 90 70
0.06272054764926602 0.23648946001476373 0.06666825333440489 92 58 39
0.062116719903809084 0.23640090487158424 0.06385338792039888 84 49 29
0.06286584089979476 0.23671490951798993 0.06100697453140311 88 54 33
0.054064500720286096 0.2341883895639798 0.05834774421607869 103 70 46
0.10571370784764195 0.2508007206555628 0.01850178236463091 96 58 30
0.10332701924626503 0.2501822936477587 0.015709702383825706 89 48 24
0.1211557488580381 0.2556495123117516 0.010251034449151052 82 41 17
0.12321769323918658 0.2563499279989367 0.0075047215170213 80 42 18
0.12527612215064401 0.25704913550106945 0.004763526353675475 78 41 18
0.12733057494441802 0.2577469986850052 0.002027430848054835 77 41 18
0.12560674954955678 0.2573249033875187 -0.0007522139905054501 79 42 21
0.12692552222327258 0.25780462253184117 -0.003494507162737699 77 39 20
0.12667151418605324 0.2578182712307786 -0.006259081139794932 71 34 15
0.11313613808081174 0.25389768762676723 -0.009258563940337451 69 32 13
0.11141123995239637 0.2534764861934121 -0.012075848930817284 69 33 14
0.11005355930347252 0.2531642400696416 -0.014892148551785458 68 33 14
0.11289977169128143 0.25409684513962766 -0.017620615993893866 69 38 20
0.1160145137882849 0.25510869746599074 -0.02033510807233782 71 41 25
0.11850769234553801 0.25593630963476727 -0.023056885978169583 74 47 29
0.11161218864520339 0.25407533998826487 -0.0288184526930434 67 37 26
0.06789767672044514 0.24151036788625077 -0.04152181124251343 25 14 9
0.04606887173360842 0.23543028937369298 -0.053896062244919885 21 13 13
0.05432674023503815 0.2379635163596693 -0.0564533855825532 23 16 14
0.06058726106657304 0.23990598869098112 -0.05907408989451535 22 14 15
0.06449497143655591 0.2411530307616818 -0.061783721478312154 21 13 13
0.06038077964068499 0.24012415846251128 -0.06775107157207111 19 12 11
0.06726071249270382 0.24224806462172968 -0.07029718053623245 28 14 13
0.07798867863998478 0.24550695969100922 -0.07262361520913127 46 27 21
0.08918359257033479 0.24890259697653588 -0.07489279552099064 75 53 41
0.09096847914966433 0.24952098439187578 -0.07764532287482212 85 62 48
0.09857925282268343 0.2520405714263562 -0.0857423527085722 84 58 41
0.08526961575214494 0.248208128498248 -0.08939833350557251 75 49 31
0.0909883158131014 0.25026204655271334 -0.1004725163216638 73 38 24
0.1143694314573556 0.2573323633435573 -0.10454004631958133 78 41 25
0.15738400119656282 0.27097983196724745 -0.13189846384717727 79 38 13
0.15729694696922458 0.2710434871127827 -0.13467719560256494 74 37 14
0.15536268202047565 0.2705643803739276 -0.13762591525199647 70 34 12
0.15413005032141752 0.27029165335159105 -0.14051690973351133 69 34 14
0.15306760147444054 0.27006908399746377 -0.1433970005640276 70 40 22
0.1512213439870671 0.2696164579001392 -0.14635692215330656 69 46 32
0.15145016811793677 0.26977340874536315 -0.1491215470306971 67 48 36
0.1488871203188275 0.26911068580065967 -0.15216345494126876 68 48 37
0.15116965621952963 0.269870676146289 -0.15472672674622465 67 50 37
0.15237597228254743 0.2703146064814444 -0.15739410747246502 67 50 38
0.14691469034229498 0.26880187708064385 -0.16075163709528348 68 50 39
0.145205826945301 0.26839068572228697 -0.163731968921959 67 50 40
0.14602815007067615 0.2687222161421511 -0.16644797222439675 67 49 39
0.14692668246574847 0.26907605453189937 -0.16915434078893754 67 49 40
0.14298408805564583 0.2680102268042299 -0.172392888247972 67 50 40
0.13856336732658042 0.2668046628060925 -0.175698739120571 67 50 41
0.13388386477119607 0.26552373464463713 -0.1790493049960466 67 50 41
0.13822066637699085 0.2668858857728921 -0.18137883479664801 65 48 40
0.14142409892094637 0.26800630291226174 -0.1866469501175262 65 48 40
0.13821267825711278 0.2671564022167015 -0.18985198974420045 66 49 41
0.1366210318853791 0.26678127398085677 -0.19287188240424472 66 48 41
0.11114175562339786 0.2594113477941058 -0.1988368299003883 66 47 40
0.1283248082417288 0.2645346786573791 -0.19956793566815695 65 46 40
0.11591844682380881 0.2610870233516962 -0.20684754842575623 66 47 39
0.10573380899520801 0.2581991496519616 -0.2110343561435121 68 50 40
0.10311083168291121 0.25752469734368694 -0.21426434053737856 68 50 40
0.10909833920364848 0.259369298943879 -0.21636207903476748 68 49 40
0.1084143987346832 0.259262135255789 -0.21933741823659877 68 50 41
0.10480828460467193 0.258300591051735 -0.22271317636535998 68 50 41
0.09994008174175359 0.25697047062262296 -0.22627526706096132 69 49 40
0.10213163776310397 0.2577045593006167 -0.228872706050712 67 47 38
0.10270295088922501 0.2579649283599994 -0.23169230110361524 66 46 37
0.10437165296079623 0.2585459487863324 -0.2343552674963854 66 46 36
0.11506598665463 0.26176375272851726 -0.2357157577666057 67 47 35
0.1146094929533584 0.26172326104530996 -0.23866525485618426 67 48 36
0.08626412504220173 0.25382119893223354 -0.2545195053968902 69 45 35
0.08676537761395892 0.25406204696802503 -0.2573786071571317 70 46 34
0.08761709668011024 0.2544051503492604 -0.26018305627707705 73 48 36
0.09525244788886883 0.25672728819002005 -0.26192279300227245 74 48 36
0.09748097246506823 0.2574715501794489 -0.2644954341031142 74 47 34
0.09507967877974594 0.25686538556416905 -0.26780285308946133 74 47 33
0.09300347870161023 0.25635430675988485 -0.27106682613478505 74 46 32
0.09211339237908266 0.2561892810333324 -0.27414526099258874 72 44 30
0.09148398728231451 0.25610037514643175 -0.2771849409187449 75 47 33
0.08939598854581685 0.25558649810562784 -0.28047075782701986 77 48 36
0.0881809750930592 0.2553272513806625 -0.28361795692593794 75 46 34
0.0882329129146463 0.2554372714992007 -0.28655545698928386 73 44 32
0.08742509154682836 0.2552969031834319 -0.28964140183695103 71 41 28
0.07819287457652632 0.252703288073802 -0.2941880211903477 73 43 27
0.09433263553369349 0.2584475993939891 -0.3238149166096585 87 53 31
0.059719888522289405 0.24916466778799395 -0.35454944454042747 74 51 37
0.06361247038224185 0.2503915373957939 -0.3567721357486399 70 48 35
0.06265696618391363 0.2502115092436961 -0.35998759581417455 70 49 36
0.055765714952986434 0.2483098537373355 -0.36444667757354726 62 40 31
0.059343819080180805 0.24944524638873314 -0.3667270403763713 52 33 24
0.06161781042486308 0.2502021618350213 -0.3692735778553452 62 43 34
0.06623120281548517 0.2516370977847283 -0.3713141876430597 68 47 37
0.06560977860783657 0.2515542413704108 -0.3744681568647633 71 48 37
0.0684931049251917 0.25248718739808 -0.3768651919403869 74 50 37
0.06765916796253854 0.2523427902588835 -0.3800667069675058 72 48 38
0.0733859300327285 0.25409915178155656 -0.3818274586080738 73 49 39
0.06827537051454766 0.2527159673783714 -0.38597532140136986 74 50 40
0.06426135685932441 0.2516509203210437 -0.38989626445478187 79 55 45
0.10871534211229873 0.2650013416815189 -0.3947665915268363 74 46 37
0.10251169430437637 0.26330228733553174 -0.3991799141086615 73 46 35
0.11234723438180305 0.2662428158517944 -0.39984510937361023 72 44 33
0.11898138733385843 0.26825660294563913 -0.4012369751466107 68 38 27
0.14650260080401611 0.27715308258324345 -0.4238543095634154 79 39 17
0.14161251631869853 0.27583594838361264 -0.4280212705130397 83 47 24
0.14073228145298816 0.27567633811369524 -0.4311770704581724 84 52 31
0.13296983537456142 0.2735315152145485 -0.43611419447507155 86 56 36
0.025718179963204486 0.25121105457591764 -0.7314285965594901 100 80 68
0.032732805383806136 0.25330674755818866 -0.7318574420453937 94 74 59
0.03595911970569552 0.2543266420853596 -0.7337934637426632 94 71 54
0.04221426493128075 0.25620559579530183 -0.7344914517775947 94 71 53
0.04200586889561573 0.25625036314366945 -0.7378019283778451 92 67 50
0.04595835078530554 0.25747530372930744 -0.7394127216354466 91 66 48
0.04445024389122547 0.25715143393568624 -0.7432543416612566 89 64 46
0.04805041898289818 0.25827601394337907 -0.744995579234872 88 62 44
0.12042674769951857 0.28271919893112407 -0.8369813386003808 101 78 68
0.11747192627957274 0.2820914982503734 -0.8447210328831074 97 66 48
0.13969282042267683 0.2888433033842354 -0.8495906557052779 99 64 35
0.13802319660862597 0.2884751893219723 -0.8535469306734229 100 69 43
0.13803240752233825 0.28857872929626893 -0.8566769669798081 99 71 49
0.13509802287091732 0.2878559245941804 -0.8612753467012586 100 74 52
0.13394610673650786 0.28763381545574385 -0.864994202641437 104 76 54
0.13340934157145845 0.2875845146839327 -0.8684099096989174 103 76 55
0.1388773652508617 0.28922009247135055 -0.8688046973888599 99 73 51
0.13360545528973564 0.28784239452985116 -0.8746098212132486 98 72 49
0.12714707853256318 0.2861325955061895 -0.8810369463886553 97 72 50
0.12533273320760682 0.2857257671563196 -0.8851248061855866 95 73 51
0.12384193363695421 0.28540989859564225 -0.8890553710349992 95 71 51
0.12516188012674578 0.285882058747737 -0.8915521401713713 91 64 45
0.12203957798920398 0.28510927631535105 -0.8963304420813121 93 62 44
0.11998004924039499 0.2846346579793103 -0.900572880743727 89 56 38
0.11862306877196327 0.28435711749100573 -0.9044603386548508 83 48 28
0.11729107698254805 0.284086779896649 -0.9083411663058648 91 58 35
0.11686220124451033 0.2840695148949771 -0.9117573422185283 106 75 49
0.11615896850800385 0.28397554460065483 -0.9153201222307591 107 78 51
0.11822804056484926 0.284657625299833 -0.9174314491257507 110 82 53
0.11851233682065293 0.28484009140169425 -0.9204771263379586 105 78 52
0.11722925954940444 0.28458407299320476 -0.9243517989513427 101 73 51
0.11834532352807035 0.28499931630648395 -0.9269601546433925 94 67 50
0.11651346360088544 0.284590084994433 -0.9311348061971741 83 55 43
0.11701436120835675 0.28483334191493737 -0.934071975011356 68 40 31
0.11849395280578089 0.28535017220488645 -0.9364845619228691 66 38 28
0.11818278947173247 0.2853664011259217 -0.9398559598549219 65 38 26
0.11288770635266002 0.28399009723352947 -0.9459179184811416 68 42 29
0.11359719275813254 0.28429191773467777 -0.948751261868143 72 46 34
0.11077533896680297 0.28360737861554824 -0.9535007736780372 71 49 38
0.10839216069078292 0.2830457148610886 -0.9580230048912532 82 63 53
0.1388240815410519 0.29215812231234484 -0.9605216165239141 80 61 55
0.14142494334099304 0.2929859155966587 -0.9622566756471226 80 60 55
0.145633863927298 0.2942617603188686 -0.9630848623889514 83 63 56
0.1496340256576047 0.29547897884005725 -0.9640164973436428 88 69 61
0.1898355186377047 0.3084870190209175 -0.9974442304217122 81 39 15
0.19178277003876132 0.3091282270859178 -0.9994090852662088 85 42 13
0.1903832964778766 0.3088403338649128 -1.0033666807671644 93 48 16
0.19153196812910578 0.309259770522926 -1.0058047476810856 96 51 18
0.19362436859620172 0.30994095301781144 -1.0076732050567314 94 49 17
0.19560192111743718 0.310590081381895 -1.0096047489009843 88 42 12
0.19450756018906995 0.31038710231536565 -1.0133872006616214 85 39 12
0.19274696287970944 0.30999957424086294 -1.0175790258217259 82 37 12
0.19322531943085766 0.3102329603937306 -1.0204174315781886 81 36 11
0.19387400526781576 0.31051354580330676 -1.0231517255003588 80 36 9
0.19406761224702834 0.3106680050217627 -1.0261635248867584 81 36 10
0.1957597736254916 0.3112376389175129 -1.0282567527421378 87 45 17
0.19508917179395657 0.31115269840839527 -1.0317992014605535 90 53 25
0.1946065219770798 0.31111993234549523 -1.0352296178729716 89 54 27
0.19412324184660842 0.311087097420031 -1.0386637046830713 86 52 28
0.19368037210635003 0.31106555377133166 -1.0420759886173265 89 56 35
0.1991054210788863 0.3126679884911161 -1.0418377117725734 88 56 33
0.2021994660916115 0.31362489154883944 -1.0430367594643457 91 59 36
0.19932693432961274 0.31293100269842594 -1.0479629788746312 95 63 41
0.19750691542158694 0.3125285860301179 -1.052240105724481 94 62 42
0.1970558437283061 0.31250494994961847 -1.055663003752726 90 61 41
0.1980984276809548 0.3128943265805066 -1.0581453450550102 89 60 42
0.19705896063667844 0.31270818389616833 -1.0619446986249819 89 61 43
0.194584136815668 0.31212558898003895 -1.066661565703787 88 62 44
0.1932362187594945 0.3118546611674851 -1.0706708337298882 85 61 49
0.1912420579648339 0.3114054460643866 -1.075099652523507 78 54 45
0.18710475706913898 0.31036469532557065 -1.080911136039759 63 38 29
0.18112832934435108 0.3088167246761764 -1.087921690324427 62 38 28
0.17774415710447314 0.3079850481753224 -1.0932845636831583 48 25 16
0.17607903737080693 0.3076282279895416 -1.0975500069272282 43 21 13
0.18197014737085587 0.30935649040620217 -1.0969237514548305 53 32 22
0.18870450485854143 0.3113167125429245 -1.0957290008984228 52 30 24
0.19072299900307477 0.31197559321074475 -1.0975860612046173 43 19 12
0.1940584419576422 0.312997407158579 -1.0985760187068538 42 16 9
0.19707465195695612 0.3139308703298294 -1.0997645369547693 48 21 11
0.19352554063403032 0.31305454214708495 -1.1052609516123844 64 35 21
0.19186454275522374 0.3126989606108694 -1.109526870476875 77 47 27
0.19283649547580417 0.31306898590958054 -1.1120592464226795 87 57 33
0.1965427781518681 0.3141920705770831 -1.1127762315236764 94 64 39
0.1984986903630669 0.314832756918127 -1.114645074137603 93 63 39
0.19761067778803285 0.31469028719952985 -1.118404763144688 93 63 39
0.19680930072041908 0.3145718199394432 -1.1221113495383666 94 66 42
0.19937400844255632 0.31537982630699535 -1.1235651981811625 94 69 45
0.19916394275273874 0.3154241391801516 -1.126876949820438 93 68 45
0.19883889293539045 0.3154368976270219 -1.1302685587305814 92 67 45
0.19635264420660412 0.31485538220494275 -1.1351242290341863 93 68 46
0.19197427976734732 0.3137539668737273 -1.141273568766038 92 67 47
0.18917566695570975 0.31308739232976457 -1.1463667064677052 83 60 43
0.1866579136918217 0.31249839336055735 -1.1512803388596242 76 59 45
0.18541623791520243 0.3122603813667976 -1.1553325803666363 93 83 71
0.18629012827455566 0.31260374771305094 -1.157940877576978 119 111 103
0.18707874279513043 0.31292363808696494 -1.1606060949390353 146 141 136
0.18733937830377462 0.31309850344779216 -1.163633811848943 167 163 161
0.18969339104559507 0.31384809443180683 -1.1652154967208994 174 173 171
0.01637097914314871 0.21833020518542207 0.10821505358267404 166 160 157
0.060069747849767624 0.2326987194890675 0.06668384982681255 93 60 40
0.05859669683905176 0.23234867363972983 0.06388305523010043 91 56 36
0.056340879642234776 0.2317646918921434 0.06109292112816076 91 58 36
0.05415194372607346 0.23120097221943847 0.058293303787332176 107 76 52
0.10788148269669205 0.24859832927693087 0.0156537737934989 84 43 19
0.12940588666174407 0.25528302355453875 0.007480033568519683 75 39 15
0.1299324421234159 0.2555280173978688 0.004732033706956688 75 39 15
0.11385069258577113 0.25100053312128323 -0.0037652727983245315 76 39 20
0.11238171129616853 0.2506518602466872 -0.006571024247084101 73 36 17
0.1121664553860479 0.25067680782164103 -0.009360528437936083 72 35 16
0.11116684278502231 0.25046822655194906 -0.012166949649549879 71 34 15
0.10846771833234956 0.24975373567183654 -0.015012875229193902 70 35 16
0.11029900381432212 0.25038830756244657 -0.017767669056917665 69 36 18
0.1103883983664809 0.25050424296202967 -0.020559464750687064 72 40 23
0.1131572777286564 0.2514176562539153 -0.023284302683506036 73 44 26
0.11678957502419342 0.2525877546094863 -0.025978541528771704 75 43 29
0.07116020318209051 0.23946754553621183 -0.04151183369764406 22 13 7
0.06843588292963562 0.23874930170320635 -0.04447555277704757 18 9 9
0.05927446802482929 0.23611817876241992 -0.047692464546676486 17 8 9
0.04569895803314805 0.23217630271009965 -0.051113067121970154 19 10 11
0.05039866389214518 0.23366564092950196 -0.05382923482796982 20 11 12
0.05483448234202 0.23507615975150684 -0.0565432303176622 20 13 10
0.05963601420145977 0.2365948985759566 -0.059228540356403694 19 11 12
0.06315275099837961 0.23773166103708362 -0.06195874748347242 19 11 12
0.06007404601294845 0.2369098355653223 -0.06499048795909407 18 12 12
0.07221184012460977 0.24060558594791534 -0.06729125668843278 18 11 11
0.07916052607033791 0.2427599641542706 -0.0698164314846406 26 13 13
0.08766556908090595 0.24537555741681474 -0.07224036138949577 45 25 20
0.0941887736096252 0.2474023011308321 -0.07474485369471376 78 56 45
0.10580382141781125 0.2512102955603045 -0.0854356840439073 82 55 38
0.09035105004979399 0.24671964228411933 -0.08921410047317502 79 50 32
0.08104037528292732 0.2442348979066324 -0.09840260372667986 74 45 32
0.11681139614088212 0.25510476205096894 -0.10450132479531082 81 44 28
0.1561736010574618 0.2677353589561212 -0.1321517819654907 77 36 11
0.15614211997788074 0.2678147531004603 -0.13492890075669658 71 34 12
0.1564919866757395 0.2680068801241188 -0.137672555763872 67 32 10
0.1563330935320701 0.2680486968416344 -0.14046359954825383 64 29 9
0.15696942414466225 0.26832548078903307 -0.1431812826428658 68 37 18
0.15483487768792858 0.2677838564109271 -0.14616432097799567 68 44 31
0.15432163929493506 0.26772126277588204 -0.14899709727145086 68 48 37
0.15437613517243215 0.26782638507346485 -0.1517764271590593 68 48 37
0.15741111113146605 0.2688113783904974 -0.15425638509244383 67 49 37
0.15830723450986603 0.26916482371420974 -0.15694696165074495 66 50 37
0.14825661932826528 0.2662878582286855 -0.1607742550919763 66 49 39
0.1463157818923067 0.2658047212829119 -0.16377857159948228 66 49 39
0.14784634140064634 0.2663458710313167 -0.1664183026392291 65 48 38
0.14878703632423876 0.2667129276067901 -0.16911857839650704 65 48 38
0.1459845506293078 0.2659760860035404 -0.17223019640585593 65 48 38
0.1432343170194983 0.26525497659411357 -0.1753461618540818 65 48 40
0.13782808845182695 0.26375122092870157 -0.17877373175213634 66 49 41
0.1368344378567931 0.2635486267611872 -0.18171176699349864 65 48 40
0.13384026048783193 0.26275663872762384 -0.18488777611525978 65 48 40
0.13531780759944206 0.2634636368024883 -0.1932096961126533 65 48 40
0.1308718484549174 0.2622449719368343 -0.1965911240278077 65 46 39
0.1304031298891043 0.2621978413204534 -0.199492001455644 65 46 39
0.11486313200324039 0.2577140595820206 -0.20429951688572665 65 46 39
0.10237559918691214 0.2542228087429883 -0.21165950588765622 66 48 38
0.1008823009516514 0.2538759362282775 -0.21474854303112084 67 49 39
0.10473289724301763 0.2551013197001401 -0.21713437578970352 68 50 40
0.1025342591894106 0.2548250842447263 -0.22901642745462744 68 48 39
0.10417064572239104 0.2553987990268526 -0.23168693163848056 66 46 37
0.10863663256356412 0.2568039248435421 -0.23395065398017673 66 46 36
0.10982319293697726 0.25724507402545915 -0.2366734753051639 66 46 35
0.11292759226306794 0.2582495428893611 -0.23911458777275582 65 45 34
0.11189157384082107 0.25803762479984 -0.24215645256264492 65 45 34
0.09741466694506819 0.25387873537922745 -0.2472029934265768 66 45 34
0.09101225294107106 0.252092160167297 -0.2510829852188018 67 45 34
0.09250868722994587 0.25271868750682225 -0.2567116645204999 67 43 33
0.09619589214872559 0.2538943713772953 -0.25906809819020926 70 46 34
0.09519075325738147 0.2536929491773308 -0.2621500217697602 73 47 35
0.09550351434148091 0.25387828669177714 -0.2650276596828813 73 47 34
0.09786943464478198 0.25466583433061557 -0.26757691681847934 74 46 33
0.0943781136140921 0.25373553004088145 -0.2710670368101243 73 45 32
0.09371852938087309 0.2536358963990346 -0.27410727529845735 72 44 30
0.09019076210413379 0.2526955687169286 -0.2776240748985133 73 45 31
0.09111094866900477 0.2530593316829401 -0.28041275882935185 75 47 35
0.09144601628220037 0.25325157570682644 -0.28329820801682004 73 45 33
0.09231864236334082 0.2536013290335109 -0.28609263081622993 73 43 32
0.08945806166597906 0.2528574222368918 -0.2895255239106663 74 44 30
0.08819228292253622 0.2525809563887152 -0.2926930597107968 77 47 32
0.0916492991124401 0.25463201673972335 -0.324577927846143 85 51 30
0.0920746807864869 0.25485101215464645 -0.3274571102288632 85 56 36
0.06561120997955842 0.2477900605433993 -0.35361612202596254 75 52 38
0.06353798398906943 0.24728137248624002 -0.35705697081194976 70 46 34
0.06496675540663502 0.2477948141852863 -0.3597801450925961 67 45 32
0.06186168097789583 0.24698542993487727 -0.3634471520410969 68 44 35
0.0645084822315983 0.24785418672114112 -0.36591470979194074 46 27 18
0.06734387542576441 0.24877771106045282 -0.3683349588981373 55 38 30
0.07216748717454323 0.25028071971860344 -0.3703221701944036 59 40 32
0.07158543542095469 0.25020733226869674 -0.37345964365166473 70 48 37
0.07301986873424542 0.250721817965245 -0.37616262373989895 74 49 37
0.0712997483015122 0.2503168689556665 -0.37955231435452313 68 44 34
0.07521257447583367 0.2515534525013772 -0.3817076070241636 68 44 34
0.07198618162567834 0.2507098442377524 -0.3854365483078097 70 46 36
0.06629162186110268 0.24914771326555785 -0.38972955055598496 76 52 42
0.06196439452938401 0.24798441835418591 -0.39373458611109513 67 45 34
0.10816895987675296 0.261819171784184 -0.39518181447014183 69 40 31
0.11053394337060468 0.2626021653541502 -0.3975973745193704 70 42 30
0.10504122225416757 0.26109912659758866 -0.40185468928302265 69 40 27
0.11229172388733946 0.26330307476291964 -0.40311315555218163 69 37 25
0.15002358220651751 0.27520740178101466 -0.4232651433350474 79 40 18
0.14775386379944705 0.2746418136393908 -0.42676034292082543 78 42 20
0.1424437938448468 0.27319415470235275 -0.43104495062305725 81 49 28
0.13514816343291058 0.2711709692109688 -0.43586157562878086 86 56 36
0.02920589423349814 0.24876838669927545 -0.7240232659762919 93 71 60
0.03630557835388709 0.2509002048110574 -0.7244333934851114 96 73 62
0.038814667016531405 0.25172015245353896 -0.7266597179331068 93 70 57
0.041714521125643785 0.2526514577391659 -0.7287216597000236 94 71 55
0.045296082571889794 0.25377712047906986 -0.7304996186008489 91 68 51
0.04953305818864006 0.2550895221093275 -0.73200072314027 87 63 45
0.05127033078549625 0.2556881075347861 -0.734507455777911 87 61 44
0.053640616902545596 0.25646717118883156 -0.7367506020032626 88 62 45
0.052825782647919726 0.25633736450266614 -0.7402961978182361 86 60 43
0.05420982368704957 0.25683487324003407 -0.7429385374653419 85 59 42
0.05560827605489588 0.25733638663466013 -0.7455716186352567 82 56 39
0.05268891347551299 0.25681255968731814 -0.7564367959272894 81 55 42
0.12279506293593506 0.28028967991212284 -0.8363786595437991 94 73 62
0.1267728568181522 0.28171731419326274 -0.8439031907323834 87 53 34
0.13006785965307405 0.2827498808894273 -0.8454440483154162 80 42 18
0.13474654008267867 0.28417337607428095 -0.846297041970131 78 41 14
0.1401684213410918 0.28580649757091536 -0.8467696487582325 97 62 34
0.14249781324789068 0.2865649604265269 -0.8487501538765243 107 74 46
0.14165252382452337 0.28642606267515996 -0.8522956697237153 100 69 43
0.14154777501658233 0.28649653829602706 -0.8554777177453425 98 67 46
0.14144284387209966 0.28656702190755545 -0.8586617176267456 99 71 49
0.13674341605827892 0.2853399713377148 -0.8641467359422197 103 74 52
0.1355400846143481 0.2851006830646027 -0.8678942214389787 103 74 54
0.13431583222128773 0.2848556730636728 -0.8716580200222317 100 73 52
0.13336623313492255 0.2846883718087125 -0.8752887631876572 98 72 49
0.1326908759089211 0.2845986165102542 -0.8787851996788945 96 71 49
0.12907426557751175 0.2836791422619923 -0.8837835100202309 98 75 53
0.1292490655544269 0.2838296185930151 -0.8868584958293342 97 74 53
0.12735079129568805 0.28339546292038575 -0.890997554186847 93 66 45
0.12629419299717287 0.2831988980268022 -0.8947117257912743 87 56 37
0.12493454438197527 0.28291706834906916 -0.8985876742619678 85 53 34
0.12271435680726037 0.2823928948994227 -0.9029159135669391 84 49 29
0.12155586477564254 0.2821682066447893 -0.9067015244408124 87 53 30
0.12063254007269884 0.2820099553661945 -0.9103700858596617 101 69 44
0.11986304634317398 0.28189518980221373 -0.9139629264190964 109 80 52
0.11410302185412052 0.28037509399039784 -0.9201817439110656 108 81 53
0.11897975978518843 0.2818506939160892 -0.9208157904514446 106 78 54
0.11899151546484353 0.28195623232262446 -0.9240070723598549 103 75 53
0.11886806710456038 0.2820237643510592 -0.9272715929180946 99 72 52
0.11856499765144085 0.28204081436123835 -0.9306337303314677 85 58 45
0.11838847816529882 0.2820935516673784 -0.9339308704271367 72 43 34
0.11970146820571592 0.2825653327919614 -0.9364316969726714 67 40 29
0.12008850423415066 0.28277660985945396 -0.9394273847015004 65 39 26
0.12202475990277113 0.2834234841706895 -0.9415871793898617 65 39 26
0.12451433694568603 0.2842257306054867 -0.9434419704373341 67 41 28
0.12419751279246574 0.2842389892197375 -0.9468139077015274 74 50 38
0.1329490096745199 0.2870043868276415 -0.9516229876607928 78 59 52
0.12848506344829025 0.28585281566738563 -0.9572708506785935 76 58 51
0.1350961312249687 0.28791329564037427 -0.9600104233885122 80 62 55
0.1361388403360018 0.2883079721202156 -0.9626223885367869 80 61 55
0.13951246040868337 0.289356618149438 -0.9639323589513988 80 59 54
0.14309154672859617 0.2904625652751934 -0.9651167595986944 84 63 57
0.14640027121408186 0.2914923178422369 -0.9664415195075589 88 68 60
0.1484486111883053 0.29216829867369465 -0.9684655071714918 89 69 60
0.14068781410807102 0.29009396449893365 -0.9760241798844365 91 71 62
0.19599187535803364 0.3071860162303721 -0.9944178377463442 79 38 13
0.1956495512398347 0.307189959020965 -0.9977364132155292 83 39 12
0.19407511856820314 0.3068498363381449 -1.0017938791736378 91 46 16
0.19198093760281182 0.30636479889347606 -1.0061700609011917 95 50 17
0.19380351027215947 0.3069736274496596 -1.0082009852008986 95 51 16
0.1960803490541409 0.30770909831845467 -1.0099528824138384 91 47 13
0.19670360795881864 0.3079828583077581 -1.0126979940785155 87 42 11
0.19717153458580844 0.30821325152438234 -1.015536560020423 87 40 13
0.19759057752695808 0.308430001203934 -1.0184046664746487 83 38 11
0.1942183019059476 0.3075893041131231 -1.0235863327680128 81 36 9
0.19612985952303197 0.308222467639261 -1.0255478158647249 79 33 7
0.1968969451361839 0.30853638232132946 -1.0282063994450201 84 41 14
0.19651549618206965 0.3085301164172606 -1.0315708606345417 91 53 25
0.19563805082617475 0.3083857199229752 -1.0352445313915482 90 54 27
