ply
format ascii 1.0
element vertex 886
property float x
property float y
property float z
property float nx
property float ny
property float nz
property uchar diffuse_red
property uchar diffuse_green
property uchar diffuse_blue
property uchar class
property uchar detection
end_header
0.1412 0.1529 -0.2681 0.988 -0.055 0.141 50 34 22 0 0
0.1402 0.1537 -0.2829 0.961 -0.152 -0.231 50 30 19 0 0
0.1429 0.1538 -0.3119 0.944 -0.287 0.162 52 23 11 0 0
0.1416 0.1544 -0.3180 0.828 -0.559 -0.048 51 24 9 0 0
0.1448 0.1535 -0.3204 0.918 -0.291 -0.269 53 27 12 0 0
0.1852 0.1444 -0.4126 0.704 -0.657 0.270 77 37 14 0 0
0.1862 0.1444 -0.4211 0.941 -0.321 -0.108 74 38 14 0 0
0.1874 0.1444 -0.4325 0.844 -0.259 0.469 77 49 31 0 0
0.1072 0.1698 -0.4690 0.962 -0.144 -0.231 66 39 22 0 0
0.1073 0.1699 -0.4721 0.998 0.000 -0.065 66 39 20 0 0
0.1047 0.1731 -0.5437 0.960 -0.252 -0.125 72 40 19 0 0
0.1054 0.1731 -0.5497 0.969 -0.171 0.176 73 37 18 0 0
0.1055 0.1731 -0.5528 0.986 -0.161 0.031 72 37 17 0 0
0.1098 0.1734 -0.5982 0.954 0.210 0.212 67 34 12 0 0
0.1085 0.1740 -0.6049 0.907 -0.397 0.143 74 42 19 0 0
0.1083 0.1741 -0.6081 0.994 -0.106 0.041 71 38 17 0 0
0.1158 0.1720 -0.6120 0.898 0.095 0.430 73 41 20 0 0
0.1082 0.1746 -0.6206 0.974 0.136 0.181 61 28 10 0 0
0.1082 0.1750 -0.6332 0.976 0.107 -0.190 65 32 13 0 0
0.1075 0.1755 -0.6428 0.999 -0.011 0.033 53 21 7 0 0
0.1073 0.1757 -0.6460 0.991 -0.112 0.073 53 21 8 0 0
0.1076 0.1757 -0.6491 0.994 0.045 0.100 53 21 9 0 0
0.1074 0.1759 -0.6523 0.999 -0.039 -0.037 52 22 9 0 0
0.1069 0.1769 -0.6777 0.833 -0.554 0.012 49 21 7 0 0
0.1453 0.1675 -0.7452 0.453 -0.886 0.094 53 24 10 0 0
0.1416 0.1700 -0.7876 0.952 0.284 0.112 52 23 9 0 0
0.1755 0.1610 -0.8232 0.825 -0.463 0.323 57 28 14 0 0
0.1819 0.1594 -0.8359 0.913 -0.368 0.176 56 27 13 0 0
0.1850 0.1587 -0.8407 0.848 -0.266 0.460 58 26 11 0 0
0.1906 0.1570 -0.8413 0.725 -0.674 -0.144 58 25 10 0 0
0.1922 0.1569 -0.8529 0.950 -0.187 -0.248 78 40 13 0 0
0.1914 0.1573 -0.8564 0.989 -0.021 -0.144 87 50 23 0 0
0.1909 0.1575 -0.8598 0.989 -0.021 -0.144 92 60 36 0 0
0.1890 0.1584 -0.8700 0.977 -0.149 -0.155 90 62 41 0 0
0.1787 0.1636 -0.9316 0.871 -0.471 0.140 67 38 23 0 0
0.1791 0.1636 -0.9346 0.971 -0.239 -0.006 54 26 14 0 0
0.1793 0.1637 -0.9408 0.982 -0.188 0.000 47 20 10 0 0
0.2293 0.1501 -0.9864 0.744 -0.400 0.535 93 73 63 0 0
0.2345 0.1491 -1.0022 0.946 -0.320 0.051 69 31 10 0 0
0.2454 0.1464 -1.0208 0.883 -0.460 0.095 71 34 8 0 0
0.2459 0.1463 -1.0236 0.943 -0.326 0.065 70 33 7 0 0
0.2466 0.1462 -1.0263 0.920 -0.356 0.165 72 35 9 0 0
0.2490 0.1456 -1.0280 0.983 -0.086 0.163 76 36 11 0 0
0.2494 0.1455 -1.0308 0.983 -0.086 0.163 82 43 18 0 0
0.2507 0.1462 -1.0643 0.983 0.144 -0.112 88 60 37 0 0
0.2453 0.1487 -1.0894 0.951 -0.259 -0.168 36 19 10 0 0
0.2448 0.1490 -1.0929 0.951 -0.259 -0.168 41 21 13 0 0
0.2489 0.1481 -1.1029 0.993 -0.057 0.102 66 31 12 0 0
0.0878 0.1537 0.1026 0.904 -0.283 -0.321 89 47 22 0 0
0.0863 0.1542 0.0999 0.983 -0.183 -0.024 69 31 10 0 0
0.0869 0.1542 0.0941 0.915 -0.396 0.081 53 24 8 0 0
0.0850 0.1558 0.0628 0.945 -0.326 -0.031 56 25 7 0 0
0.0838 0.1573 0.0312 0.957 -0.231 0.175 51 19 5 0 0
0.0843 0.1572 0.0283 0.957 -0.231 0.175 52 20 6 0 0
0.0861 0.1578 -0.0064 0.979 -0.202 0.024 48 18 7 0 0
0.1276 0.1473 -0.0668 0.477 -0.608 0.634 78 58 51 0 0
0.1384 0.1448 -0.0893 0.912 -0.324 0.250 52 19 9 0 0
0.1675 0.1397 -0.2016 0.915 -0.077 -0.395 55 36 29 0 0
0.1442 0.1507 -0.3205 0.946 -0.181 0.270 52 26 11 0 0
0.1446 0.1507 -0.3234 0.962 -0.254 0.105 53 27 12 0 0
0.1456 0.1505 -0.3262 0.956 -0.285 0.069 55 29 14 0 0
0.1264 0.1567 -0.3412 0.872 0.473 -0.123 23 10 5 0 0
0.1404 0.1537 -0.3773 0.841 -0.444 0.309 42 18 10 0 0
0.1833 0.1419 -0.4100 0.793 -0.482 0.373 81 49 31 0 0
0.1844 0.1416 -0.4126 0.793 -0.482 0.373 73 32 12 0 0
0.1855 0.1416 -0.4212 0.846 -0.308 0.434 73 37 14 0 0
0.1850 0.1419 -0.4242 0.972 -0.233 -0.005 73 37 14 0 0
0.1863 0.1417 -0.4327 0.978 0.092 0.185 78 50 32 0 0
0.1068 0.1668 -0.4690 0.962 -0.144 -0.231 67 40 23 0 0
0.1046 0.1687 -0.5065 0.928 -0.130 0.348 56 27 13 0 0
0.1052 0.1687 -0.5094 0.943 -0.166 0.289 57 27 12 0 0
0.1094 0.1675 -0.5114 0.997 -0.081 0.003 56 26 11 0 0
0.1094 0.1676 -0.5145 0.997 -0.081 0.003 57 26 11 0 0
0.1100 0.1677 -0.5236 0.996 0.052 0.072 67 37 20 0 0
0.1041 0.1701 -0.5438 0.980 -0.199 -0.026 62 30 10 0 0
0.1082 0.1709 -0.6048 0.988 -0.030 0.154 65 32 14 0 0
0.1081 0.1711 -0.6111 0.985 -0.055 0.163 67 35 14 0 0
0.1091 0.1710 -0.6170 0.985 -0.055 0.163 62 30 10 0 0
0.1101 0.1709 -0.6230 0.985 -0.055 0.163 62 29 12 0 0
0.1083 0.1734 -0.6802 0.974 0.002 0.226 49 21 7 0 0
0.1065 0.1740 -0.6840 0.987 -0.143 -0.068 48 20 6 0 0
0.1698 0.1593 -0.8130 0.838 -0.473 0.271 57 28 14 0 0
0.1706 0.1591 -0.8157 0.838 -0.473 0.271 57 28 16 0 0
0.1852 0.1554 -0.8373 0.982 0.062 0.176 56 27 11 0 0
0.1898 0.1549 -0.8631 1.000 -0.016 0.005 90 61 39 0 0
0.1881 0.1556 -0.8702 0.989 -0.071 -0.133 91 63 43 0 0
0.1912 0.1548 -0.8718 0.972 -0.138 -0.192 88 61 40 0 0
0.1910 0.1549 -0.8750 0.898 -0.417 -0.143 84 56 36 0 0
0.1773 0.1611 -0.9384 0.904 -0.416 0.100 50 23 12 0 0
0.1945 0.1566 -0.9578 0.680 0.172 0.712 83 64 53 0 0
0.2254 0.1482 -0.9851 0.911 -0.043 0.411 101 83 76 0 0
0.2285 0.1474 -0.9896 0.866 -0.207 0.455 82 60 49 0 0
0.2414 0.1439 -1.0010 0.905 -0.410 0.116 69 31 10 0 0
0.2465 0.1432 -1.0260 0.984 -0.154 0.094 70 34 8 0 0
0.2507 0.1431 -1.0608 0.965 0.155 0.213 89 60 37 0 0
0.2473 0.1455 -1.1034 0.865 -0.387 0.318 63 29 12 0 0
0.2484 0.1453 -1.1059 0.886 -0.401 0.232 72 34 11 0 0
0.2510 0.1448 -1.1137 0.975 -0.194 0.111 86 48 17 0 0
0.0856 0.1515 0.0969 0.973 -0.155 0.171 59 26 11 0 0
0.0848 0.1529 0.0627 0.978 -0.204 0.039 53 21 8 0 0
0.0861 0.1529 0.0511 0.905 -0.312 0.289 51 21 7 0 0
0.0828 0.1565 -0.0297 0.958 -0.256 0.132 45 17 6 0 0
0.0824 0.1567 -0.0326 0.903 -0.354 0.241 42 15 6 0 0
0.1380 0.1418 -0.0837 0.987 -0.162 0.006 60 26 13 0 0
0.1374 0.1421 -0.0894 0.912 -0.324 0.250 51 20 9 0 0
0.1464 0.1395 -0.0920 0.958 -0.247 0.149 56 24 11 0 0
0.1432 0.1406 -0.0949 0.683 -0.162 0.712 93 66 57 0 0
0.1936 0.1264 -0.1237 0.999 -0.036 0.031 87 48 22 0 0
0.1951 0.1263 -0.1320 0.853 -0.507 0.128 70 33 12 0 0
0.1962 0.1260 -0.1347 0.945 -0.084 0.317 65 33 14 0 0
0.1968 0.1259 -0.1374 0.966 -0.215 0.145 65 34 12 0 0
0.1967 0.1264 -0.1513 0.806 -0.591 0.028 65 47 35 0 0
0.1968 0.1265 -0.1541 0.704 -0.704 0.096 64 46 36 0 0
0.1728 0.1349 -0.1926 0.658 -0.612 -0.438 55 38 31 0 0
0.1689 0.1363 -0.1987 0.939 -0.144 -0.313 55 38 31 0 0
0.1680 0.1367 -0.2016 0.939 -0.144 -0.313 54 37 30 0 0
0.1407 0.1474 -0.2799 0.945 -0.291 -0.146 47 27 18 0 0
0.1285 0.1530 -0.3408 0.872 0.473 -0.123 24 10 4 0 0
0.1827 0.1392 -0.4129 0.967 -0.173 0.186 69 29 7 0 0
0.1843 0.1390 -0.4213 0.836 -0.396 0.380 68 32 10 0 0
0.1843 0.1391 -0.4243 0.972 -0.233 -0.005 70 34 12 0 0
0.1851 0.1389 -0.4270 0.936 -0.119 -0.330 71 36 14 0 0
0.1870 0.1385 -0.4324 0.985 0.170 0.006 74 46 27 0 0
0.1875 0.1385 -0.4353 0.883 0.086 -0.461 76 49 32 0 0
0.1185 0.1600 -0.4631 0.623 0.133 -0.771 66 39 22 0 0
0.1097 0.1641 -0.5081 0.922 -0.127 0.366 56 24 9 0 0
0.1082 0.1647 -0.5116 0.943 -0.311 -0.121 59 27 12 0 0
0.1093 0.1658 -0.5546 0.973 -0.228 -0.047 71 36 14 0 0
0.1120 0.1657 -0.5755 0.909 -0.412 0.062 63 30 13 0 0
0.1132 0.1666 -0.6156 0.944 -0.316 0.099 66 33 16 0 0
0.1135 0.1666 -0.6186 0.944 -0.316 0.099 64 31 14 0 0
0.1138 0.1666 -0.6216 0.944 -0.316 0.099 65 32 15 0 0
0.1141 0.1666 -0.6246 0.944 -0.316 0.099 63 30 13 0 0
0.1685 0.1566 -0.8133 0.763 -0.597 0.246 55 27 13 0 0
0.1692 0.1564 -0.8161 0.763 -0.597 0.246 56 28 14 0 0
0.1696 0.1564 -0.8190 0.795 -0.481 0.369 58 29 15 0 0
0.1873 0.1518 -0.8391 0.876 -0.475 -0.087 58 27 12 0 0
0.1889 0.1516 -0.8477 0.878 -0.407 0.251 59 27 12 0 0
0.1898 0.1514 -0.8504 0.937 -0.174 0.304 63 27 10 0 0
0.1919 0.1516 -0.8743 0.917 -0.343 -0.204 86 59 40 0 0
0.1783 0.1567 -0.9060 0.990 0.054 -0.134 71 40 18 0 0
0.1776 0.1575 -0.9252 0.957 -0.290 -0.020 84 56 34 0 0
0.1768 0.1578 -0.9288 0.918 -0.382 0.110 80 50 32 0 0
0.1784 0.1577 -0.9375 0.911 -0.339 0.236 47 20 9 0 0
0.1969 0.1528 -0.9594 0.719 -0.331 0.611 82 66 57 0 0
0.2017 0.1516 -0.9663 0.727 -0.029 0.686 92 74 70 0 0
0.2452 0.1404 -1.0202 0.965 -0.231 0.128 71 33 10 0 0
0.2504 0.1419 -1.1136 0.975 -0.194 0.111 88 48 20 0 0
0.0854 0.1493 0.0740 0.860 -0.500 0.096 51 19 3 0 0
0.0854 0.1494 0.0711 0.885 -0.440 0.150 50 18 4 0 0
0.0857 0.1494 0.0682 0.893 -0.441 0.085 50 18 7 0 0
0.0829 0.1506 0.0569 0.850 -0.492 0.188 52 19 6 0 0
0.0836 0.1505 0.0540 0.870 -0.455 0.191 52 19 6 0 0
0.0851 0.1501 0.0511 0.905 -0.312 0.289 52 20 7 0 0
0.0829 0.1510 0.0425 0.938 -0.298 0.180 51 19 6 0 0
0.0826 0.1521 0.0137 0.897 -0.441 0.005 54 22 9 0 0
0.1371 0.1390 -0.0838 0.959 -0.283 -0.015 58 24 13 0 0
0.1449 0.1371 -0.0949 0.821 0.192 0.537 88 61 52 0 0
0.1928 0.1238 -0.1266 0.961 -0.034 0.274 85 42 13 0 0
0.1749 0.1309 -0.1811 0.821 -0.563 0.098 57 38 32 0 0
0.1260 0.1508 -0.3441 0.946 -0.005 0.325 39 21 14 0 0
0.1816 0.1371 -0.4306 0.956 -0.249 -0.157 72 40 18 0 0
0.1841 0.1364 -0.4330 0.969 -0.222 -0.109 73 46 25 0 0
0.1674 0.1418 -0.4457 0.385 -0.145 -0.911 75 47 28 0 0
0.1054 0.1614 -0.4814 0.965 -0.229 0.132 69 40 22 0 0
0.1082 0.1614 -0.5053 0.962 0.127 0.241 52 23 8 0 0
0.1085 0.1613 -0.5083 0.959 -0.282 0.004 55 23 10 0 0
0.1091 0.1621 -0.5359 0.937 -0.330 0.117 61 30 12 0 0
0.1085 0.1629 -0.5547 0.931 -0.359 0.071 69 37 15 0 0
0.1105 0.1656 -0.6570 0.909 -0.335 0.249 52 23 9 0 0
0.1375 0.1601 -0.7351 0.992 -0.112 0.056 51 21 10 0 0
0.1377 0.1602 -0.7381 0.992 -0.112 0.056 50 20 9 0 0
0.1383 0.1603 -0.7473 0.980 0.156 -0.124 48 20 8 0 0
0.1387 0.1602 -0.7503 0.997 0.076 -0.024 49 21 9 0 0
0.1386 0.1604 -0.7534 0.972 0.180 -0.150 49 21 9 0 0
0.1672 0.1537 -0.8105 0.891 0.436 0.123 55 27 13 0 0
0.1839 0.1497 -0.8404 0.907 -0.164 0.388 61 30 13 0 0
0.1835 0.1500 -0.8437 0.973 -0.197 0.121 61 28 12 0 0
0.1877 0.1490 -0.8511 0.881 -0.283 0.379 63 27 10 0 0
0.1888 0.1487 -0.8537 0.946 -0.203 0.251 70 32 10 0 0
0.1898 0.1485 -0.8563 0.997 -0.067 0.037 79 43 16 0 0
0.1866 0.1504 -0.8859 0.932 -0.157 -0.327 86 59 39 0 0
0.1861 0.1507 -0.8893 0.970 -0.238 -0.042 84 57 37 0 0
0.1972 0.1497 -0.9621 0.758 -0.329 0.563 86 69 61 0 0
0.2077 0.1469 -0.9722 0.909 0.159 0.385 102 87 80 0 0
0.2313 0.1408 -0.9998 0.720 -0.089 0.689 74 36 14 0 0
0.2382 0.1387 -0.9990 0.151 -0.826 0.544 73 35 12 0 0
0.2523 0.1358 -1.0373 0.994 -0.088 0.068 95 65 41 0 0
0.2506 0.1368 -1.0538 1.000 -0.027 0.016 97 67 43 0 0
0.2493 0.1390 -1.1076 0.954 -0.175 0.243 77 37 11 0 0
0.2498 0.1390 -1.1136 0.975 -0.194 0.111 85 46 17 0 0
0.0847 0.1456 0.0996 0.871 -0.343 0.352 74 36 14 0 0
0.0841 0.1467 0.0711 0.885 -0.440 0.150 56 24 7 0 0
0.0844 0.1467 0.0682 0.893 -0.441 0.085 53 21 6 0 0
0.0826 0.1482 0.0395 0.942 -0.321 0.099 51 19 6 0 0
0.1356 0.1365 -0.0839 0.983 -0.168 0.071 51 16 7 0 0
0.1355 0.1367 -0.0896 0.912 -0.343 0.227 55 25 12 0 0
0.1928 0.1210 -0.1266 0.958 -0.128 0.255 80 37 8 0 0
0.1916 0.1214 -0.1295 0.933 -0.299 0.200 77 37 11 0 0
0.1929 0.1211 -0.1322 0.979 -0.198 -0.038 71 34 11 0 0
0.1746 0.1280 -0.1783 0.782 -0.614 -0.106 59 40 33 0 0
0.1480 0.1388 -0.2701 0.944 -0.142 -0.299 50 32 20 0 0
0.1432 0.1419 -0.3205 0.969 -0.203 0.142 55 27 13 0 0
0.1588 0.1398 -0.3972 0.407 -0.229 0.884 50 20 9 0 0
0.1812 0.1337 -0.4160 0.977 -0.093 0.192 67 31 9 0 0
0.1820 0.1337 -0.4217 0.910 -0.334 0.246 69 33 11 0 0
0.1694 0.1381 -0.4421 0.425 -0.306 -0.852 83 57 39 0 0
0.1509 0.1438 -0.4494 0.340 -0.334 -0.879 73 45 27 0 0
0.1077 0.1583 -0.5022 0.983 0.087 0.161 54 25 9 0 0
0.1085 0.1584 -0.5144 0.976 -0.204 0.080 54 22 9 0 0
0.1094 0.1583 -0.5172 0.994 -0.005 0.112 51 20 7 0 0
0.1094 0.1587 -0.5326 0.980 -0.053 0.194 55 24 6 0 0
0.1090 0.1594 -0.5482 0.951 -0.305 0.057 63 31 10 0 0
0.1093 0.1594 -0.5512 0.920 -0.302 0.248 67 35 14 0 0
0.1071 0.1608 -0.5766 0.981 -0.144 0.130 60 27 10 0 0
0.1075 0.1608 -0.5796 0.981 -0.144 0.130 59 26 9 0 0
0.1087 0.1607 -0.5855 0.989 -0.050 0.142 63 30 11 0 0
0.1091 0.1606 -0.5885 0.989 -0.050 0.142 62 29 10 0 0
0.1090 0.1608 -0.5916 0.948 -0.310 0.076 62 29 10 0 0
0.1125 0.1608 -0.6248 0.941 -0.305 0.150 66 33 16 0 0
0.1129 0.1608 -0.6278 0.941 -0.305 0.150 60 29 11 0 0
0.1134 0.1607 -0.6308 0.941 -0.305 0.150 61 30 12 0 0
0.1139 0.1607 -0.6338 0.941 -0.305 0.150 62 31 13 0 0
0.1139 0.1617 -0.6650 0.836 -0.498 0.231 51 23 9 0 0
0.1148 0.1620 -0.6836 0.955 -0.294 -0.025 49 21 7 0 0
0.1286 0.1592 -0.7225 0.955 -0.231 0.185 51 23 11 0 0
0.1339 0.1580 -0.7331 0.763 0.341 0.549 51 21 10 0 0
0.1539 0.1534 -0.7752 0.911 -0.413 0.009 52 22 11 0 0
0.1539 0.1535 -0.7783 0.911 -0.413 0.009 55 25 14 0 0
0.1549 0.1533 -0.7810 0.813 -0.572 0.107 56 27 13 0 0
0.1579 0.1526 -0.7860 0.598 -0.683 0.419 53 24 10 0 0
0.1840 0.1465 -0.8370 0.781 -0.213 0.587 60 31 13 0 0
0.1879 0.1455 -0.8414 0.990 -0.093 0.106 61 28 11 0 0
0.1774 0.1506 -0.9026 0.957 -0.245 0.156 79 50 29 0 0
0.1779 0.1510 -0.9181 0.982 -0.160 0.104 92 64 43 0 0
0.1782 0.1510 -0.9211 0.982 -0.160 0.104 88 60 39 0 0
0.1775 0.1518 -0.9404 0.974 -0.094 0.208 43 16 7 0 0
0.1867 0.1493 -0.9484 0.870 -0.338 0.360 62 33 20 0 0
0.1891 0.1488 -0.9534 0.843 -0.353 0.406 71 44 33 0 0
0.2087 0.1437 -0.9744 0.905 0.012 0.425 91 74 68 0 0
0.2308 0.1375 -0.9873 0.544 -0.091 0.834 99 79 69 0 0
0.2325 0.1371 -0.9894 0.482 -0.098 0.871 83 56 45 0 0
0.2277 0.1387 -0.9952 0.812 -0.298 0.501 79 43 30 0 0
0.2350 0.1367 -1.0004 0.260 -0.952 0.163 74 36 13 0 0
0.2514 0.1330 -1.0344 0.964 -0.178 0.200 92 60 34 0 0
0.2507 0.1337 -1.0503 0.980 -0.195 0.047 93 63 39 0 0
0.2507 0.1338 -1.0534 0.995 -0.102 -0.009 99 69 45 0 0
0.2508 0.1338 -1.0564 0.889 -0.274 0.367 99 71 47 0 0
0.2481 0.1364 -1.1111 0.990 -0.085 0.116 82 43 15 0 0
0.2492 0.1363 -1.1167 0.987 -0.144 0.072 91 57 29 0 0
0.2497 0.1363 -1.1227 0.978 -0.209 0.003 95 63 39 0 0
0.2499 0.1365 -1.1288 0.947 -0.320 -0.034 90 60 36 0 0
0.2498 0.1366 -1.1320 0.978 -0.209 0.003 91 61 37 0 0
0.2498 0.1367 -1.1352 0.971 -0.221 0.090 91 62 38 0 0
0.0827 0.1432 0.0996 0.862 -0.407 0.302 72 34 11 0 0
0.0823 0.1440 0.0768 0.847 -0.522 0.103 60 29 11 0 0
0.0831 0.1440 0.0710 0.931 -0.313 0.189 57 26 8 0 0
0.0832 0.1440 0.0681 0.876 -0.479 0.055 58 27 9 0 0
0.0788 0.1468 0.0223 0.985 -0.150 0.081 49 17 4 0 0
0.0802 0.1466 0.0164 0.990 -0.052 0.132 52 23 9 0 0
0.0811 0.1466 0.0077 0.948 -0.235 -0.214 45 16 4 0 0
0.1914 0.1186 -0.1295 0.955 -0.177 0.240 75 35 12 0 0
0.1930 0.1182 -0.1322 0.919 -0.338 0.202 73 37 14 0 0
0.1932 0.1182 -0.1350 0.957 -0.291 -0.006 67 33 11 0 0
0.1932 0.1183 -0.1377 0.957 -0.291 -0.006 63 28 8 0 0
0.1695 0.1268 -0.1844 0.954 -0.265 -0.138 56 37 30 0 0
0.1696 0.1268 -0.1872 0.759 -0.328 -0.563 55 36 29 0 0
0.1479 0.1357 -0.2643 0.991 -0.087 -0.103 51 33 23 0 0
0.1473 0.1360 -0.2673 0.969 -0.137 -0.205 51 31 22 0 0
0.1427 0.1389 -0.3176 0.982 -0.184 0.033 55 27 12 0 0
0.1427 0.1390 -0.3206 0.969 -0.203 0.142 57 28 14 0 0
0.1484 0.1376 -0.3285 0.934 -0.317 0.166 63 37 21 0 0
0.1241 0.1453 -0.3473 0.938 -0.337 -0.086 41 22 12 0 0
0.1239 0.1455 -0.3503 0.938 -0.337 -0.086 41 21 11 0 0
0.1246 0.1454 -0.3532 0.962 -0.271 0.006 40 20 11 0 0
0.1353 0.1430 -0.3781 0.831 -0.496 0.253 42 17 12 0 0
0.1364 0.1428 -0.3808 0.975 -0.221 0.005 45 20 13 0 0
0.1805 0.1311 -0.4190 0.990 -0.126 0.064 68 33 11 0 0
0.1806 0.1311 -0.4219 0.960 -0.274 0.062 68 33 11 0 0
0.1159 0.1515 -0.4634 0.806 -0.329 -0.492 64 36 21 0 0
0.1077 0.1548 -0.4899 0.978 -0.185 0.094 56 29 10 0 0
0.1078 0.1548 -0.4929 0.932 -0.232 0.279 55 28 10 0 0
0.1086 0.1547 -0.4958 0.917 -0.156 0.366 60 33 15 0 0
0.1066 0.1555 -0.5024 0.991 0.137 -0.003 53 25 10 0 0
0.1083 0.1551 -0.5051 0.983 -0.159 -0.096 53 25 10 0 0
0.1078 0.1555 -0.5144 0.976 -0.204 0.080 55 25 10 0 0
0.1083 0.1554 -0.5174 0.964 -0.246 0.103 55 26 10 0 0
0.1105 0.1552 -0.5291 0.925 -0.306 0.223 54 22 8 0 0
0.1131 0.1557 -0.5685 0.968 -0.139 0.207 59 28 10 0 0
0.1095 0.1574 -0.5882 0.994 -0.111 0.012 61 28 11 0 0
0.1084 0.1579 -0.5947 0.954 -0.299 -0.024 62 30 12 0 0
0.1090 0.1583 -0.6133 0.972 -0.233 0.019 67 34 15 0 0
0.1122 0.1580 -0.6341 0.913 -0.267 0.308 59 27 11 0 0
0.1116 0.1585 -0.6437 0.997 -0.059 -0.057 57 25 10 0 0
0.1158 0.1578 -0.6611 0.964 -0.170 0.203 54 27 10 0 0
0.1135 0.1587 -0.6650 0.950 -0.232 0.208 53 26 9 0 0
0.1528 0.1506 -0.7754 0.765 -0.641 0.054 52 23 11 0 0
0.1529 0.1507 -0.7785 0.710 -0.695 0.116 53 24 12 0 0
0.1533 0.1507 -0.7815 0.764 -0.643 0.043 55 27 13 0 0
0.1729 0.1465 -0.8293 0.870 -0.110 0.481 58 29 15 0 0
0.1857 0.1431 -0.8421 0.981 -0.185 0.061 61 28 11 0 0
0.1773 0.1477 -0.9086 0.891 -0.348 -0.291 80 51 28 0 0
0.1776 0.1479 -0.9179 0.984 -0.174 -0.044 99 72 50 0 0
0.1758 0.1492 -0.9410 0.945 -0.272 0.181 48 19 10 0 0
0.1764 0.1491 -0.9438 0.941 -0.126 0.314 49 21 10 0 0
0.1837 0.1470 -0.9464 0.877 -0.082 0.473 56 28 16 0 0
0.1912 0.1452 -0.9582 0.840 -0.462 0.284 88 71 63 0 0
0.1931 0.1447 -0.9604 0.763 -0.198 0.615 84 68 63 0 0
0.1966 0.1438 -0.9648 0.716 -0.131 0.686 95 80 75 0 0
0.2274 0.1358 -0.9951 0.828 -0.286 0.482 80 49 35 0 0
0.2368 0.1331 -0.9991 0.662 -0.391 0.640 72 35 9 0 0
0.2383 0.1328 -1.0044 0.763 -0.372 0.528 70 32 10 0 0
0.2419 0.1319 -1.0086 0.727 -0.686 0.009 67 29 8 0 0
0.2506 0.1302 -1.0345 0.946 -0.216 0.242 90 60 34 0 0
0.2507 0.1307 -1.0499 0.987 -0.163 0.009 92 64 40 0 0
0.2488 0.1327 -1.0977 0.974 -0.154 -0.167 52 26 13 0 0
0.2480 0.1331 -1.1014 0.965 -0.152 -0.212 57 27 9 0 0
0.2478 0.1334 -1.1077 0.994 -0.086 -0.072 78 40 12 0 0
0.2481 0.1334 -1.1107 0.991 -0.069 0.117 82 46 14 0 0
0.2492 0.1334 -1.1225 0.987 -0.144 0.072 98 66 43 0 0
0.2491 0.1337 -1.1289 0.968 -0.250 -0.016 91 63 41 0 0
0.2492 0.1337 -1.1320 0.978 -0.209 0.003 90 62 40 0 0
0.2341 0.1394 -1.1703 0.652 -0.188 -0.735 138 134 125 0 0
0.0810 0.1406 0.0996 0.897 -0.412 0.159 69 31 8 0 0
0.0800 0.1414 0.0853 0.871 -0.491 0.023 56 25 7 0 0
0.0811 0.1413 0.0796 0.808 -0.563 0.173 57 26 8 0 0
0.0816 0.1412 0.0767 0.808 -0.563 0.173 56 25 7 0 0
0.0818 0.1414 0.0681 0.847 -0.531 0.043 57 26 8 0 0
0.0797 0.1426 0.0509 0.927 -0.339 0.158 58 27 9 0 0
0.0781 0.1432 0.0453 0.898 -0.440 -0.007 56 25 7 0 0
0.0783 0.1433 0.0424 0.943 -0.327 0.065 55 24 7 0 0
0.0785 0.1433 0.0395 0.947 -0.319 0.028 55 23 8 0 0
0.0807 0.1436 0.0105 0.984 -0.180 0.016 47 17 5 0 0
0.0772 0.1452 -0.0068 0.939 -0.328 -0.101 44 17 6 0 0
0.0790 0.1450 -0.0184 0.954 -0.237 -0.185 46 18 7 0 0
0.0790 0.1451 -0.0213 0.924 -0.382 0.029 46 20 8 0 0
0.0792 0.1451 -0.0242 0.920 -0.347 0.184 42 17 4 0 0
0.0766 0.1464 -0.0417 0.895 -0.398 0.202 35 14 2 0 0
0.0772 0.1463 -0.0447 0.895 -0.398 0.202 34 14 3 0 0
0.1337 0.1313 -0.0898 0.931 -0.228 0.284 50 20 9 0 0
0.1785 0.1191 -0.1191 0.864 -0.259 0.433 135 110 99 0 0
0.1913 0.1154 -0.1212 0.948 -0.318 -0.005 111 78 61 0 0
0.1912 0.1155 -0.1240 0.952 -0.294 -0.087 95 56 29 0 0
0.1724 0.1228 -0.1785 0.985 0.160 0.057 58 39 32 0 0
0.1682 0.1242 -0.1845 0.870 -0.447 -0.206 56 37 30 0 0
0.1681 0.1243 -0.1874 0.719 -0.482 -0.501 56 37 30 0 0
0.1463 0.1332 -0.2674 0.966 -0.152 -0.209 50 30 21 0 0
0.1457 0.1335 -0.2704 0.976 -0.110 -0.186 50 30 21 0 0
0.1441 0.1343 -0.2793 0.993 0.086 -0.077 50 30 21 0 0
0.1223 0.1428 -0.3476 0.985 -0.147 0.088 41 21 11 0 0
0.1239 0.1424 -0.3503 0.897 -0.431 -0.097 39 19 11 0 0
0.1238 0.1425 -0.3533 0.962 -0.271 0.006 38 18 10 0 0
0.1269 0.1420 -0.3647 0.739 -0.626 0.249 16 7 2 0 0
0.1358 0.1399 -0.3809 0.975 -0.221 0.005 42 19 11 0 0
0.1616 0.1330 -0.3994 0.606 0.068 0.793 58 26 14 0 0
0.1661 0.1317 -0.4014 0.815 -0.303 0.493 64 26 11 0 0
0.1806 0.1279 -0.4160 0.827 -0.561 -0.027 65 30 8 0 0
0.1795 0.1284 -0.4191 0.986 -0.160 -0.036 67 32 11 0 0
0.1641 0.1336 -0.4432 0.126 -0.743 -0.657 80 53 36 0 0
0.1482 0.1385 -0.4498 0.187 -0.683 -0.706 73 45 28 0 0
0.1073 0.1518 -0.4929 0.938 -0.256 0.233 56 29 10 0 0
0.1079 0.1518 -0.4958 0.932 -0.232 0.279 56 29 11 0 0
0.1078 0.1521 -0.5051 0.983 -0.159 -0.096 49 21 7 0 0
0.1067 0.1528 -0.5177 0.987 -0.046 -0.155 58 28 12 0 0
0.1082 0.1525 -0.5204 0.898 -0.295 0.326 60 29 11 0 0
0.1096 0.1521 -0.5231 0.848 -0.405 0.341 61 30 14 0 0
0.1100 0.1521 -0.5260 0.879 -0.359 0.314 59 27 12 0 0
0.1104 0.1522 -0.5321 0.970 -0.244 0.017 55 23 8 0 0
0.1112 0.1532 -0.5720 0.961 -0.277 0.023 66 34 15 0 0
0.1076 0.1549 -0.5917 0.954 -0.299 -0.024 61 28 11 0 0
0.1108 0.1540 -0.5939 0.977 -0.180 0.116 60 28 10 0 0
0.1111 0.1540 -0.5969 0.977 -0.180 0.116 58 27 9 0 0
0.1110 0.1542 -0.6000 0.982 -0.187 0.019 55 24 7 0 0
0.1080 0.1554 -0.6103 0.939 -0.341 0.037 65 32 13 0 0
0.1081 0.1554 -0.6134 0.939 -0.341 0.037 66 34 14 0 0
0.1104 0.1549 -0.6189 0.934 -0.316 0.167 59 26 10 0 0
0.1108 0.1554 -0.6375 0.923 -0.350 0.157 56 24 9 0 0
0.1112 0.1554 -0.6405 0.873 -0.414 0.257 56 24 9 0 0
0.1124 0.1552 -0.6464 0.949 -0.235 0.212 58 26 11 0 0
0.1136 0.1553 -0.6585 0.966 -0.235 0.109 55 26 12 0 0
0.1139 0.1553 -0.6615 0.966 -0.235 0.109 55 27 11 0 0
0.1110 0.1563 -0.6657 0.989 -0.136 0.055 54 27 11 0 0
0.1141 0.1557 -0.6772 0.958 -0.287 -0.014 53 25 11 0 0
0.1142 0.1568 -0.7117 0.966 0.187 -0.177 51 23 11 0 0
0.1231 0.1545 -0.7210 0.677 -0.484 0.555 48 20 8 0 0
0.1467 0.1490 -0.7652 0.539 -0.559 0.630 52 22 11 0 0
0.1498 0.1485 -0.7795 0.550 -0.825 0.129 50 22 10 0 0
0.1584 0.1464 -0.7916 0.762 -0.354 0.542 53 25 11 0 0
0.1844 0.1403 -0.8393 0.832 -0.176 0.526 65 32 15 0 0
0.1733 0.1458 -0.9103 0.992 0.084 0.098 76 48 26 0 0
0.1782 0.1455 -0.9457 1.000 0.024 0.006 50 22 10 0 0
0.1834 0.1440 -0.9462 0.877 -0.082 0.473 53 25 13 0 0
0.1863 0.1434 -0.9542 0.703 -0.536 0.468 74 47 34 0 0
0.2265 0.1330 -0.9952 0.828 -0.286 0.482 80 49 35 0 0
0.2349 0.1307 -0.9998 0.758 -0.608 0.238 72 35 9 0 0
0.2402 0.1294 -1.0092 0.825 -0.555 0.111 67 29 8 0 0
0.2500 0.1274 -1.0345 0.931 -0.216 0.294 88 58 32 0 0
0.2508 0.1272 -1.0371 0.955 -0.290 0.053 93 66 39 0 0
0.2403 0.1318 -1.0839 0.927 -0.143 0.347 68 44 27 0 0
0.2411 0.1316 -1.0865 0.909 -0.134 0.396 59 38 26 0 0
0.2471 0.1305 -1.1078 0.956 -0.291 0.026 78 40 13 0 0
0.2471 0.1306 -1.1109 0.916 -0.401 -0.006 81 45 12 0 0
0.2486 0.1303 -1.1131 0.961 -0.170 0.220 87 50 21 0 0
0.2484 0.1306 -1.1226 0.968 -0.250 -0.016 96 65 41 0 0
0.2484 0.1307 -1.1258 0.968 -0.250 -0.016 95 66 44 0 0
0.2486 0.1309 -1.1320 0.978 -0.209 0.003 88 60 37 0 0
0.2487 0.1309 -1.1350 0.989 -0.145 -0.009 87 59 35 0 0
0.2519 0.1300 -1.1361 0.951 -0.307 -0.037 87 60 37 0 0
0.2446 0.1326 -1.1503 0.905 -0.029 -0.425 81 58 41 0 0
0.2425 0.1334 -1.1548 0.905 -0.029 -0.425 64 45 31 0 0
0.0775 0.1403 0.0452 0.990 -0.035 -0.133 56 25 7 0 0
0.0791 0.1401 0.0393 0.976 -0.197 -0.098 55 23 8 0 0
0.0789 0.1410 0.0134 0.908 -0.392 0.149 48 19 5 0 0
0.0766 0.1423 -0.0098 0.970 -0.222 0.097 44 17 6 0 0
0.0782 0.1422 -0.0185 0.954 -0.237 -0.185 42 15 4 0 0
0.0796 0.1419 -0.0243 0.833 -0.547 0.081 38 15 3 0 0
0.0761 0.1434 -0.0389 0.903 -0.430 -0.021 36 14 3 0 0
0.0758 0.1436 -0.0418 0.926 -0.301 0.227 36 14 4 0 0
0.1330 0.1285 -0.0899 0.954 -0.212 0.210 50 20 9 0 0
0.1345 0.1281 -0.0927 0.941 -0.170 0.292 50 20 9 0 0
0.1912 0.1130 -0.1352 0.957 -0.288 -0.015 63 31 10 0 0
0.1898 0.1138 -0.1464 0.946 -0.158 -0.282 65 39 23 0 0
0.1705 0.1202 -0.1730 0.965 -0.074 -0.250 59 40 33 0 0
0.1645 0.1224 -0.1877 0.896 0.016 -0.443 57 38 31 0 0
0.1222 0.1398 -0.3475 0.911 0.360 -0.201 41 21 11 0 0
0.1257 0.1393 -0.3648 0.924 -0.165 0.346 17 8 3 0 0
0.1796 0.1253 -0.4161 0.836 -0.399 0.377 61 26 6 0 0
0.1488 0.1352 -0.4466 0.233 -0.596 -0.768 79 53 36 0 0
0.1060 0.1489 -0.4870 0.961 -0.277 -0.012 58 31 12 0 0
0.1056 0.1491 -0.4901 0.955 -0.275 0.112 57 30 11 0 0
0.1063 0.1490 -0.4930 0.874 -0.283 0.396 56 29 10 0 0
0.1069 0.1489 -0.4960 0.877 -0.308 0.368 54 27 9 0 0
0.1074 0.1491 -0.5051 0.947 -0.299 -0.120 49 21 7 0 0
0.1071 0.1493 -0.5082 0.983 -0.159 -0.096 49 21 7 0 0
0.1058 0.1497 -0.5116 0.989 -0.088 0.123 51 23 8 0 0
0.1093 0.1492 -0.5261 0.887 -0.351 0.300 60 29 12 0 0
0.1100 0.1491 -0.5290 0.892 -0.383 0.242 58 26 12 0 0
0.1098 0.1492 -0.5321 0.946 -0.297 0.128 57 25 11 0 0
0.1070 0.1505 -0.5452 0.994 -0.112 0.014 66 35 17 0 0
0.1073 0.1505 -0.5482 0.988 -0.129 0.085 65 34 16 0 0
0.1075 0.1505 -0.5513 0.988 -0.129 0.085 69 38 19 0 0
0.1066 0.1514 -0.5701 0.945 -0.327 -0.015 70 37 17 0 0
0.1067 0.1514 -0.5732 0.904 -0.421 0.082 69 37 17 0 0
0.1069 0.1519 -0.5887 0.942 -0.329 -0.065 62 29 12 0 0
0.1092 0.1518 -0.6067 0.991 -0.130 0.028 54 23 5 0 0
0.1075 0.1524 -0.6103 0.981 -0.182 0.061 59 28 10 0 0
0.1089 0.1521 -0.6161 0.991 -0.136 -0.011 58 26 9 0 0
0.1127 0.1516 -0.6336 0.792 -0.587 0.168 59 28 11 0 0
0.1093 0.1527 -0.6378 0.852 -0.517 0.086 59 27 12 0 0
0.1094 0.1529 -0.6441 0.743 -0.609 0.277 57 25 10 0 0
0.1132 0.1523 -0.6616 0.966 -0.235 0.109 54 26 12 0 0
0.1119 0.1532 -0.6777 0.928 -0.373 -0.002 52 24 10 0 0
0.1162 0.1522 -0.6856 0.960 -0.263 0.094 52 24 10 0 0
0.1165 0.1522 -0.6887 0.960 -0.263 0.094 52 24 10 0 0
0.1168 0.1522 -0.6917 0.960 -0.263 0.094 49 21 7 0 0
0.1171 0.1523 -0.6947 0.960 -0.263 0.094 48 20 7 0 0
0.1175 0.1522 -0.6977 0.852 -0.492 0.177 48 20 8 0 0
0.1177 0.1523 -0.7008 0.960 -0.263 0.094 51 23 11 0 0
0.1187 0.1524 -0.7130 0.935 -0.211 0.285 49 21 9 0 0
0.1276 0.1505 -0.7348 0.933 -0.176 0.313 49 21 9 0 0
0.1348 0.1488 -0.7477 0.827 -0.561 -0.030 48 20 8 0 0
0.1344 0.1490 -0.7510 0.842 -0.496 0.211 47 19 7 0 0
0.1453 0.1463 -0.7655 0.697 -0.434 0.571 51 21 10 0 0
0.1466 0.1460 -0.7681 0.696 -0.521 0.494 51 21 10 0 0
0.1483 0.1458 -0.7768 0.953 -0.255 0.162 50 22 10 0 0
0.1488 0.1457 -0.7797 0.953 -0.255 0.162 49 21 9 0 0
0.1683 0.1408 -0.8027 0.918 0.397 0.015 60 31 16 0 0
0.1837 0.1374 -0.8394 0.813 -0.177 0.555 64 31 14 0 0
0.1869 0.1367 -0.8441 0.845 -0.477 0.243 65 33 13 0 0
0.1737 0.1427 -0.9130 0.979 -0.134 0.154 86 58 37 0 0
0.1742 0.1427 -0.9159 0.979 -0.134 0.154 103 75 53 0 0
0.1784 0.1424 -0.9453 0.996 -0.089 -0.009 51 23 12 0 0
0.1841 0.1407 -0.9456 0.942 -0.235 0.239 55 26 14 0 0
0.1846 0.1406 -0.9484 0.864 -0.503 -0.012 58 27 16 0 0
0.2301 0.1288 -0.9928 0.928 -0.209 0.310 80 50 35 0 0
0.2309 0.1287 -0.9955 0.928 -0.209 0.310 75 40 21 0 0
0.2342 0.1279 -1.0029 0.672 -0.581 0.459 70 32 9 0 0
0.2382 0.1270 -1.0099 0.808 -0.492 0.324 66 28 7 0 0
0.2498 0.1244 -1.0342 0.955 -0.290 0.053 89 59 33 0 0
0.2499 0.1245 -1.0372 0.955 -0.290 0.053 90 63 36 0 0
0.2501 0.1245 -1.0402 0.955 -0.290 0.053 98 71 44 0 0
0.2494 0.1264 -1.0935 0.961 -0.172 -0.216 45 21 12 0 0
0.2496 0.1264 -1.0965 0.933 -0.306 -0.192 51 25 13 0 0
0.2466 0.1275 -1.1046 0.926 -0.376 0.032 73 37 13 0 0
0.2467 0.1276 -1.1076 0.926 -0.376 0.032 80 42 14 0 0
0.2470 0.1276 -1.1106 0.869 -0.494 0.024 81 46 12 0 0
0.2480 0.1275 -1.1163 0.914 -0.368 0.169 90 57 29 0 0
0.2484 0.1275 -1.1191 0.914 -0.368 0.169 91 61 34 0 0
0.2475 0.1282 -1.1322 0.973 -0.179 -0.142 86 59 33 0 0
0.2470 0.1284 -1.1357 0.973 -0.179 -0.142 84 57 31 0 0
0.0487 0.1434 0.1161 0.276 -0.267 0.923 134 114 104 0 0
0.0786 0.1369 0.0479 0.847 -0.408 0.340 57 26 8 0 0
0.0797 0.1372 0.0277 0.827 -0.538 0.164 55 23 9 0 0
0.0754 0.1394 -0.0011 0.905 -0.421 0.056 50 21 9 0 0
0.0756 0.1394 -0.0041 0.905 -0.421 0.056 48 19 7 0 0
0.0758 0.1394 -0.0070 0.905 -0.421 0.056 45 18 6 0 0
0.0760 0.1395 -0.0099 0.905 -0.421 0.056 45 18 7 0 0
0.0762 0.1395 -0.0128 0.905 -0.421 0.056 44 17 6 0 0
0.0768 0.1395 -0.0186 0.810 -0.581 -0.079 40 14 3 0 0
0.0782 0.1392 -0.0215 0.923 -0.215 0.318 38 14 2 0 0
0.0784 0.1396 -0.0361 0.977 -0.211 -0.023 36 14 3 0 0
0.0729 0.1414 -0.0419 0.861 -0.507 -0.041 35 14 4 0 0
0.1324 0.1257 -0.0899 0.954 -0.212 0.210 51 21 9 0 0
0.1339 0.1253 -0.0927 0.940 -0.231 0.251 50 21 9 0 0
0.1801 0.1129 -0.1219 0.842 -0.022 0.540 115 83 64 0 0
0.1904 0.1103 -0.1352 0.957 -0.288 -0.015 61 29 9 0 0
0.1900 0.1105 -0.1380 0.991 -0.123 0.051 60 27 8 0 0
0.1731 0.1164 -0.1700 0.818 -0.243 -0.520 62 43 36 0 0
0.1726 0.1167 -0.1729 0.976 -0.148 0.160 62 43 36 0 0
0.1719 0.1169 -0.1758 0.998 0.067 -0.005 59 40 33 0 0
0.1717 0.1171 -0.1786 0.981 0.054 0.186 58 39 32 0 0
0.1410 0.1303 -0.3178 0.959 -0.269 0.085 59 31 15 0 0
0.1413 0.1306 -0.3295 0.791 0.231 0.567 61 34 18 0 0
0.1206 0.1376 -0.3597 0.985 -0.167 -0.049 35 20 12 0 0
0.1793 0.1224 -0.4161 0.937 -0.207 0.281 59 24 5 0 0
0.1796 0.1224 -0.4219 0.997 -0.002 0.072 68 34 10 0 0
0.1051 0.1468 -0.5117 0.930 -0.312 0.195 50 22 8 0 0
0.1048 0.1470 -0.5148 0.929 -0.161 0.334 51 23 7 0 0
0.1060 0.1467 -0.5176 0.981 -0.186 0.060 63 34 17 0 0
0.1065 0.1467 -0.5205 0.914 -0.287 0.287 69 38 18 0 0
0.1074 0.1465 -0.5234 0.914 -0.287 0.287 61 30 10 0 0
0.1082 0.1464 -0.5262 0.914 -0.287 0.287 57 26 7 0 0
0.1091 0.1462 -0.5291 0.914 -0.287 0.287 57 25 10 0 0
0.1091 0.1463 -0.5322 0.976 -0.179 0.121 55 23 8 0 0
0.1093 0.1463 -0.5352 0.966 -0.250 0.062 55 23 7 0 0
0.1090 0.1466 -0.5414 0.998 -0.050 -0.043 65 34 15 0 0
0.1066 0.1474 -0.5452 0.992 -0.094 0.084 69 38 18 0 0
0.1069 0.1474 -0.5482 0.992 -0.094 0.084 67 36 17 0 0
0.1072 0.1475 -0.5512 0.992 -0.094 0.084 70 38 19 0 0
0.1052 0.1487 -0.5704 0.992 -0.128 0.004 68 36 15 0 0
0.1060 0.1485 -0.5733 0.984 -0.180 -0.004 70 38 16 0 0
0.1066 0.1484 -0.5762 0.950 -0.275 0.146 71 39 17 0 0
0.1091 0.1482 -0.5940 0.942 -0.334 0.044 64 31 13 0 0
0.1093 0.1483 -0.5971 0.942 -0.334 0.044 59 27 9 0 0
0.1092 0.1484 -0.6003 0.965 -0.263 -0.020 55 23 5 0 0
0.1091 0.1486 -0.6065 0.928 -0.368 -0.059 56 25 8 0 0
0.1108 0.1490 -0.6340 0.792 -0.587 0.168 61 30 12 0 0
0.1077 0.1500 -0.6382 0.917 -0.399 -0.012 59 27 11 0 0
0.1107 0.1495 -0.6497 0.892 -0.452 -0.007 56 26 13 0 0
0.1118 0.1495 -0.6587 0.915 -0.279 0.290 53 24 11 0 0
0.1125 0.1497 -0.6710 0.992 -0.077 0.102 49 20 8 0 0
0.1122 0.1500 -0.6774 0.953 -0.277 -0.119 50 22 9 0 0
0.1160 0.1495 -0.6981 0.852 -0.492 0.177 48 20 8 0 0
0.1178 0.1495 -0.7131 0.959 -0.227 0.171 51 23 10 0 0
0.1225 0.1482 -0.7145 0.960 -0.170 0.224 51 23 10 0 0
0.1260 0.1478 -0.7352 0.969 0.203 0.138 48 20 8 0 0
0.1269 0.1476 -0.7380 0.918 0.011 0.398 47 19 7 0 0
0.1278 0.1475 -0.7408 0.959 0.082 0.273 49 21 9 0 0
0.1439 0.1436 -0.7658 0.819 -0.334 0.466 50 20 9 0 0
0.1447 0.1435 -0.7718 0.983 0.014 0.183 52 22 11 0 0
0.1475 0.1429 -0.7769 0.948 0.075 0.310 51 22 10 0 0
0.1822 0.1364 -0.8897 0.877 -0.403 -0.260 82 57 35 0 0
0.1727 0.1398 -0.9100 0.920 -0.377 0.109 75 47 27 0 0
0.1725 0.1399 -0.9132 0.880 -0.406 0.246 86 58 37 0 0
0.1737 0.1397 -0.9158 0.969 -0.167 0.181 99 71 49 0 0
0.1761 0.1393 -0.9272 0.867 -0.418 0.272 82 52 34 0 0
0.1710 0.1413 -0.9424 0.954 -0.145 0.262 47 19 10 0 0
0.1833 0.1378 -0.9456 0.942 -0.235 0.239 54 25 14 0 0
0.1832 0.1380 -0.9488 0.839 -0.515 0.178 58 29 17 0 0
0.1944 0.1351 -0.9619 0.986 0.166 -0.021 95 82 76 0 0
0.2008 0.1336 -0.9710 0.958 -0.279 0.070 94 79 72 0 0
0.2481 0.1217 -1.0287 0.979 -0.085 0.183 77 40 14 0 0
0.2472 0.1221 -1.0323 0.988 -0.070 -0.137 83 48 22 0 0
0.2437 0.1241 -1.0654 0.941 -0.267 -0.206 88 60 35 0 0
0.2417 0.1249 -1.0728 0.972 -0.228 -0.057 85 59 37 0 0
0.2424 0.1253 -1.0912 0.965 0.009 0.264 35 16 9 0 0
0.2430 0.1252 -1.0939 0.919 0.180 0.352 39 18 11 0 0
0.2443 0.1249 -1.0962 0.991 0.123 0.054 45 21 12 0 0
0.2456 0.1251 -1.1142 0.844 -0.536 0.007 87 49 19 0 0
0.2468 0.1248 -1.1166 0.937 -0.344 0.051 91 59 30 0 0
0.2480 0.1251 -1.1346 0.970 -0.244 0.007 86 59 33 0 0
0.0749 0.1344 0.0652 0.983 -0.183 0.010 58 27 9 0 0
0.0772 0.1343 0.0478 0.878 -0.387 0.283 61 30 12 0 0
0.0783 0.1345 0.0305 0.771 -0.603 0.202 56 24 8 0 0
0.0782 0.1346 0.0276 0.800 -0.577 0.167 54 22 7 0 0
0.0747 0.1368 -0.0099 0.960 -0.280 -0.020 48 20 8 0 0
0.0766 0.1364 -0.0158 0.944 -0.302 0.134 41 14 3 0 0
0.0766 0.1365 -0.0187 0.923 -0.215 0.318 39 14 3 0 0
0.0776 0.1363 -0.0216 0.923 -0.215 0.318 38 14 2 0 0
0.0770 0.1366 -0.0245 0.966 -0.163 0.199 38 14 2 0 0
0.0719 0.1387 -0.0449 0.919 -0.383 0.099 33 13 4 0 0
0.1291 0.1235 -0.0844 0.963 -0.157 0.217 57 23 11 0 0
0.1299 0.1233 -0.0872 0.964 -0.246 0.105 57 25 12 0 0
0.1389 0.1211 -0.0983 0.735 0.163 0.658 89 68 59 0 0
0.1891 0.1075 -0.1270 0.928 -0.291 0.233 75 36 10 0 0
0.1897 0.1077 -0.1381 0.991 -0.123 0.051 61 27 8 0 0
0.1887 0.1081 -0.1409 0.927 -0.322 -0.193 61 26 7 0 0
0.1722 0.1139 -0.1758 0.821 -0.570 0.026 60 41 34 0 0
0.1725 0.1139 -0.1786 0.903 -0.355 0.242 59 40 33 0 0
0.1200 0.1347 -0.3598 0.952 -0.255 0.168 38 20 14 0 0
0.1789 0.1197 -0.4219 0.997 -0.073 0.008 68 33 11 0 0
0.1793 0.1198 -0.4306 0.989 0.007 -0.145 68 37 17 0 0
0.1047 0.1425 -0.4687 0.709 -0.699 -0.094 71 42 23 0 0
0.1025 0.1435 -0.4815 0.905 -0.389 0.170 65 34 14 0 0
0.1059 0.1429 -0.4929 0.941 -0.322 0.100 58 27 11 0 0
0.1048 0.1439 -0.5147 0.923 -0.337 0.184 52 25 8 0 0
0.1072 0.1437 -0.5295 0.874 -0.434 0.218 62 31 13 0 0
0.1077 0.1436 -0.5324 0.894 -0.409 0.184 60 28 12 0 0
0.1077 0.1437 -0.5355 0.949 -0.312 -0.039 59 27 11 0 0
0.1073 0.1439 -0.5387 0.950 -0.308 -0.056 61 30 12 0 0
0.1070 0.1442 -0.5449 0.950 -0.308 -0.056 66 34 13 0 0
0.1069 0.1443 -0.5481 0.950 -0.308 -0.056 65 33 12 0 0
0.1044 0.1455 -0.5643 0.979 -0.201 0.025 65 32 13 0 0
0.1049 0.1456 -0.5703 0.984 -0.171 0.055 68 36 15 0 0
0.1051 0.1456 -0.5733 0.981 -0.186 0.059 70 38 16 0 0
0.1043 0.1464 -0.5891 0.976 0.133 -0.171 64 29 9 0 0
0.1053 0.1462 -0.5920 0.974 -0.162 -0.160 65 30 12 0 0
0.1056 0.1462 -0.5950 0.923 -0.371 0.104 67 33 15 0 0
0.1083 0.1458 -0.6097 0.972 -0.232 -0.024 64 33 13 0 0
0.1075 0.1462 -0.6131 0.885 -0.466 0.017 65 33 13 0 0
0.1064 0.1476 -0.6478 0.921 -0.161 0.355 59 30 15 0 0
0.1101 0.1466 -0.6497 0.810 -0.582 -0.080 55 26 13 0 0
0.1090 0.1471 -0.6563 0.942 -0.336 0.005 51 21 10 0 0
0.1155 0.1466 -0.7012 0.984 0.042 0.171 50 22 10 0 0
0.1254 0.1444 -0.7226 0.955 -0.085 0.284 44 16 5 0 0
0.1306 0.1438 -0.7489 0.990 -0.026 0.140 51 23 11 0 0
0.1325 0.1433 -0.7513 0.885 -0.365 0.288 49 21 9 0 0
0.1543 0.1380 -0.7832 0.988 0.063 -0.142 51 21 10 0 0
0.1538 0.1383 -0.7865 0.951 0.154 -0.268 53 23 12 0 0
0.1550 0.1380 -0.7891 0.956 0.129 0.262 54 24 13 0 0
0.1607 0.1370 -0.8086 0.844 -0.033 0.536 54 25 11 0 0
0.1800 0.1340 -0.8904 0.882 -0.469 -0.041 83 56 35 0 0
0.1716 0.1370 -0.9102 0.920 -0.377 0.109 75 47 26 0 0
0.1746 0.1369 -0.9340 0.952 -0.200 0.232 60 31 19 0 0
0.1771 0.1363 -0.9390 0.934 -0.262 0.244 47 18 11 0 0
0.1821 0.1351 -0.9459 0.848 -0.340 0.407 53 25 13 0 0
0.1932 0.1324 -0.9622 0.908 -0.371 0.195 98 84 80 0 0
0.2254 0.1240 -0.9885 0.935 -0.011 0.355 102 84 76 0 0
0.2359 0.1214 -1.0013 0.794 -0.518 0.320 71 34 9 0 0
0.2458 0.1199 -1.0451 0.935 -0.323 0.144 95 65 41 0 0
0.2462 0.1198 -1.0479 0.935 -0.323 0.144 96 68 44 0 0
0.2412 0.1220 -1.0696 0.965 -0.262 0.018 89 61 39 0 0
0.2415 0.1220 -1.0726 0.958 -0.081 0.276 86 61 37 0 0
0.2413 0.1228 -1.0977 0.853 -0.521 -0.003 44 19 12 0 0
0.2460 0.1216 -1.1041 0.973 -0.231 -0.001 69 31 8 0 0
0.2463 0.1217 -1.1071 0.988 -0.136 0.079 77 37 10 0 0
0.2458 0.1219 -1.1105 0.986 -0.084 0.145 82 43 13 0 0
0.2464 0.1218 -1.1133 0.987 -0.049 0.153 84 46 14 0 0
0.2482 0.1219 -1.1309 0.996 0.016 -0.085 88 58 34 0 0
0.0751 0.1302 0.0994 0.942 -0.335 0.024 73 37 12 0 0
0.0769 0.1307 0.0678 0.966 -0.250 -0.060 58 27 9 0 0
0.0747 0.1314 0.0651 0.964 -0.244 0.105 58 27 9 0 0
0.0764 0.1321 0.0276 0.800 -0.577 0.167 56 24 9 0 0
0.0765 0.1327 0.0073 0.825 -0.559 0.078 50 20 9 0 0
0.0739 0.1339 -0.0071 0.960 -0.280 -0.020 46 18 7 0 0
0.0757 0.1336 -0.0159 0.944 -0.302 0.134 43 16 5 0 0
0.0754 0.1338 -0.0188 0.966 -0.219 0.135 40 15 3 0 0
0.0766 0.1340 -0.0362 0.891 -0.444 -0.093 37 15 4 0 0
0.0781 0.1339 -0.0479 0.921 -0.381 0.080 33 13 4 0 0
0.0737 0.1354 -0.0538 0.869 -0.453 -0.198 36 16 7 0 0
0.1265 0.1211 -0.0817 0.959 0.039 0.279 68 37 25 0 0
0.1270 0.1211 -0.0845 0.970 -0.177 0.165 62 28 16 0 0
0.1291 0.1206 -0.0873 0.949 -0.290 0.119 60 27 15 0 0
0.1398 0.1179 -0.0983 0.368 -0.407 0.836 89 68 60 0 0
0.1645 0.1110 -0.1059 0.491 -0.095 0.866 102 73 61 0 0
0.1700 0.1116 -0.1760 0.777 -0.606 -0.170 61 42 35 0 0
0.1422 0.1240 -0.3175 0.977 0.049 -0.209 64 36 20 0 0
0.1248 0.1304 -0.3648 0.969 -0.235 0.073 16 7 2 0 0
0.1234 0.1309 -0.3680 0.913 -0.176 0.367 32 18 12 0 0
0.1304 0.1294 -0.3846 0.840 -0.310 0.445 45 22 12 0 0
0.1791 0.1165 -0.4189 0.988 0.043 0.148 67 32 10 0 0
0.1787 0.1167 -0.4219 0.997 -0.073 0.008 74 39 17 0 0
0.1798 0.1166 -0.4275 0.972 -0.204 0.121 72 40 18 0 0
0.1788 0.1170 -0.4306 0.981 0.095 -0.167 71 40 19 0 0
0.1018 0.1404 -0.4754 0.983 -0.109 0.149 68 38 19 0 0
0.1049 0.1401 -0.4931 0.941 -0.322 0.100 58 27 11 0 0
0.1063 0.1397 -0.4958 0.932 -0.364 0.004 56 26 10 0 0
0.1044 0.1405 -0.5024 0.879 -0.351 0.323 51 23 8 0 0
0.1031 0.1411 -0.5089 0.957 -0.264 -0.124 51 22 8 0 0
0.1064 0.1408 -0.5326 0.876 -0.465 0.127 63 32 12 0 0
0.1034 0.1427 -0.5644 0.929 -0.333 -0.161 68 35 16 0 0
0.1030 0.1429 -0.5676 0.952 -0.289 -0.099 67 34 15 0 0
0.1041 0.1427 -0.5704 0.911 -0.411 -0.027 69 37 16 0 0
0.1045 0.1427 -0.5734 0.969 -0.230 0.087 70 38 16 0 0
0.1048 0.1427 -0.5764 0.969 -0.230 0.087 71 39 16 0 0
0.1049 0.1427 -0.5795 0.984 -0.154 0.089 72 40 17 0 0
0.1052 0.1427 -0.5825 0.988 -0.150 -0.025 73 41 18 0 0
0.1051 0.1429 -0.5856 0.988 -0.150 -0.025 78 44 19 0 0
0.1054 0.1429 -0.5886 0.949 -0.272 -0.159 79 45 21 0 0
0.1045 0.1433 -0.5951 0.923 -0.371 0.104 70 34 15 0 0
0.1050 0.1433 -0.5981 0.912 -0.408 0.037 68 33 13 0 0
0.1051 0.1434 -0.6012 0.939 -0.313 0.146 68 32 13 0 0
0.1055 0.1433 -0.6042 0.939 -0.313 0.146 67 32 12 0 0
0.1063 0.1432 -0.6071 0.982 -0.185 0.034 65 32 12 0 0
0.1071 0.1436 -0.6286 0.960 -0.223 0.171 59 26 7 0 0
0.1073 0.1437 -0.6317 0.892 -0.438 0.110 59 26 7 0 0
0.1081 0.1436 -0.6377 0.840 -0.522 0.149 62 29 10 0 0
0.1080 0.1442 -0.6565 0.942 -0.336 0.005 53 24 10 0 0
0.1132 0.1433 -0.6735 0.878 -0.419 -0.231 47 19 7 0 0
0.1158 0.1432 -0.6946 0.993 -0.115 0.021 49 21 9 0 0
0.1141 0.1440 -0.7046 0.959 -0.267 0.091 51 23 9 0 0
0.1145 0.1440 -0.7076 0.955 -0.237 0.178 52 24 10 0 0
0.1234 0.1418 -0.7200 0.855 -0.343 0.390 49 21 9 0 0
0.1250 0.1414 -0.7226 0.954 -0.265 0.139 49 21 9 0 0
0.1260 0.1413 -0.7285 0.985 -0.162 -0.050 51 23 10 0 0
0.1256 0.1415 -0.7318 0.979 -0.173 0.102 50 22 10 0 0
0.1308 0.1406 -0.7486 0.964 0.090 0.252 48 20 8 0 0
0.1316 0.1404 -0.7514 0.964 0.090 0.252 47 19 7 0 0
0.1536 0.1350 -0.7801 0.858 -0.275 0.434 50 21 8 0 0
0.1541 0.1352 -0.7892 0.964 -0.093 -0.249 53 23 12 0 0
0.1536 0.1354 -0.7926 0.977 -0.194 -0.090 53 23 12 0 0
0.1540 0.1354 -0.7956 0.746 -0.007 0.666 50 20 10 0 0
0.1609 0.1336 -0.8020 0.975 0.014 0.220 52 22 11 0 0
0.1620 0.1335 -0.8077 0.981 0.124 0.147 55 26 12 0 0
0.1717 0.1312 -0.8253 0.742 -0.169 0.649 61 31 15 0 0
0.1733 0.1309 -0.8277 0.826 -0.312 0.469 65 34 16 0 0
0.1721 0.1341 -0.9223 0.903 -0.428 -0.023 92 65 44 0 0
0.1734 0.1339 -0.9279 0.809 -0.509 0.294 86 57 37 0 0
0.1762 0.1334 -0.9360 0.928 -0.131 0.350 48 19 11 0 0
0.1805 0.1325 -0.9464 0.829 -0.554 0.071 53 25 14 0 0
0.1822 0.1322 -0.9519 0.998 -0.020 -0.062 63 33 19 0 0
0.1820 0.1323 -0.9551 0.998 -0.020 -0.062 72 46 34 0 0
0.1895 0.1303 -0.9575 0.861 -0.294 0.414 85 68 61 0 0
0.1921 0.1297 -0.9624 0.908 -0.371 0.195 98 84 80 0 0
0.1943 0.1291 -0.9644 0.967 -0.106 0.230 105 91 88 0 0
0.1958 0.1287 -0.9668 0.599 -0.090 0.795 99 85 82 0 0
0.2017 0.1271 -0.9699 0.791 -0.464 0.398 98 84 79 0 0
0.2288 0.1204 -1.0018 0.914 -0.351 0.204 72 36 10 0 0
0.2285 0.1206 -1.0051 0.948 -0.298 -0.111 70 32 8 0 0
0.2310 0.1199 -1.0068 0.788 -0.611 0.077 70 32 10 0 0
0.2410 0.1174 -1.0166 0.897 -0.364 0.249 73 35 12 0 0
0.2435 0.1167 -1.0182 0.943 -0.328 -0.055 73 35 12 0 0
0.2434 0.1168 -1.0214 0.943 -0.328 -0.055 73 35 12 0 0
0.2476 0.1164 -1.0467 0.957 -0.220 0.190 97 69 45 0 0
0.2481 0.1163 -1.0496 0.983 -0.050 0.178 97 69 45 0 0
0.2401 0.1195 -1.0762 0.811 -0.244 0.531 85 60 38 0 0
0.2419 0.1196 -1.0969 0.860 -0.479 0.176 44 19 12 0 0
0.2425 0.1195 -1.0997 0.777 -0.383 0.500 50 24 13 0 0
0.2424 0.1196 -1.1029 0.976 -0.172 -0.132 60 28 12 0 0
0.2456 0.1187 -1.1040 0.956 -0.293 0.026 70 32 9 0 0
0.2457 0.1188 -1.1071 0.956 -0.293 0.026 78 37 10 0 0
0.2447 0.1192 -1.1108 0.983 -0.076 0.168 80 41 12 0 0
0.2451 0.1192 -1.1137 0.983 -0.076 0.168 86 48 16 0 0
0.2455 0.1192 -1.1166 0.989 -0.036 0.141 91 56 29 0 0
0.2491 0.1185 -1.1268 0.971 -0.067 0.231 90 60 36 0 0
0.2495 0.1184 -1.1297 0.993 -0.105 0.049 89 59 35 0 0
0.0291 0.1396 0.1201 0.777 0.421 -0.467 180 178 178 0 0
0.0741 0.1275 0.0994 0.942 -0.335 0.024 71 35 12 0 0
0.0749 0.1288 0.0477 0.878 -0.387 0.283 59 28 10 0 0
0.0746 0.1295 0.0304 0.823 -0.501 0.268 53 22 6 0 0
0.0746 0.1296 0.0275 0.800 -0.577 0.167 54 22 7 0 0
0.0757 0.1295 0.0188 0.809 -0.555 -0.192 52 23 9 0 0
0.0705 0.1316 -0.0014 0.828 -0.430 0.361 47 19 8 0 0
0.1258 0.1184 -0.0846 0.935 -0.283 0.213 55 21 9 0 0
0.1281 0.1179 -0.0874 0.926 -0.376 0.045 59 26 13 0 0
0.1581 0.1098 -0.1034 0.417 -0.276 0.866 105 77 65 0 0
0.1633 0.1084 -0.1060 0.355 -0.408 0.841 111 83 71 0 0
0.1881 0.1024 -0.1383 0.965 0.131 -0.229 61 27 8 0 0
0.1867 0.1029 -0.1439 0.965 0.131 -0.229 65 32 13 0 0
0.1854 0.1034 -0.1468 0.999 0.026 -0.043 63 36 22 0 0
0.1853 0.1035 -0.1496 0.999 0.026 -0.043 62 43 34 0 0
0.1881 0.1030 -0.1578 0.882 0.358 0.307 63 44 37 0 0
0.1750 0.1070 -0.1671 0.900 0.029 -0.435 60 41 34 0 0
0.1342 0.1237 -0.3335 0.858 -0.142 -0.495 51 28 18 0 0
0.1242 0.1275 -0.3649 0.997 -0.064 -0.040 20 9 5 0 0
0.1236 0.1278 -0.3679 0.990 -0.009 0.140 41 25 20 0 0
0.1260 0.1275 -0.3824 0.839 -0.542 0.057 38 18 10 0 0
0.1789 0.1136 -0.4188 0.981 -0.193 0.007 64 29 7 0 0
0.1034 0.1377 -0.5025 0.879 -0.351 0.323 56 25 11 0 0
0.1030 0.1381 -0.5118 1.000 0.013 -0.021 56 25 12 0 0
0.1025 0.1397 -0.5614 0.995 -0.097 0.022 73 38 18 0 0
0.1030 0.1397 -0.5644 0.980 -0.138 0.142 72 39 20 0 0
0.1034 0.1397 -0.5674 0.957 -0.165 0.240 71 39 19 0 0
0.1037 0.1397 -0.5704 0.908 -0.346 0.235 71 39 18 0 0
0.1043 0.1397 -0.5764 0.961 -0.267 0.073 70 38 15 0 0
0.1044 0.1397 -0.5795 0.981 -0.186 0.059 70 38 15 0 0
0.1035 0.1405 -0.5953 0.883 -0.466 0.049 68 32 12 0 0
0.1068 0.1405 -0.6254 0.945 -0.327 -0.030 67 32 12 0 0
0.1067 0.1406 -0.6286 0.945 -0.327 -0.030 66 32 13 0 0
0.1067 0.1407 -0.6317 0.945 -0.327 -0.030 62 29 10 0 0
0.1066 0.1408 -0.6349 0.948 -0.318 0.003 63 30 11 0 0
0.1086 0.1407 -0.6499 0.876 -0.481 0.040 55 26 9 0 0
0.1120 0.1401 -0.6612 0.829 -0.551 -0.090 54 25 9 0 0
0.1108 0.1407 -0.6679 0.828 -0.396 -0.397 53 23 12 0 0
0.1096 0.1411 -0.6714 0.841 -0.340 -0.420 51 22 10 0 0
0.1094 0.1413 -0.6747 0.994 -0.110 -0.007 50 22 10 0 0
0.1261 0.1383 -0.7345 0.894 -0.398 0.206 50 22 10 0 0
0.1320 0.1371 -0.7479 0.919 0.313 0.240 48 20 8 0 0
0.1328 0.1369 -0.7507 0.919 0.313 0.240 47 19 7 0 0
0.1723 0.1281 -0.8279 0.826 -0.312 0.469 60 28 12 0 0
0.1735 0.1278 -0.8304 0.837 -0.338 0.430 60 28 12 0 0
0.1748 0.1275 -0.8330 0.877 -0.286 0.385 58 27 9 0 0
0.1760 0.1273 -0.8355 0.841 -0.237 0.487 62 31 13 0 0
0.1774 0.1269 -0.8380 0.841 -0.237 0.487 64 33 15 0 0
0.1742 0.1298 -0.9020 0.957 -0.228 -0.176 79 49 30 0 0
0.1705 0.1315 -0.9227 0.983 -0.182 0.021 88 61 40 0 0
0.1753 0.1306 -0.9361 0.893 -0.262 0.367 49 21 10 0 0
0.1767 0.1302 -0.9386 0.928 -0.131 0.350 47 18 10 0 0
0.1782 0.1301 -0.9473 0.949 0.093 0.302 52 24 13 0 0
0.1800 0.1297 -0.9527 0.949 0.093 0.302 61 31 17 0 0
0.1832 0.1290 -0.9573 0.947 -0.114 0.301 74 53 42 0 0
0.1886 0.1274 -0.9576 0.861 -0.294 0.414 82 66 58 0 0
0.1922 0.1264 -0.9589 0.896 -0.377 0.235 89 75 70 0 0
0.1910 0.1269 -0.9627 0.908 -0.371 0.195 106 92 88 0 0
0.1982 0.1250 -0.9682 0.818 -0.023 0.575 103 89 86 0 0
0.1998 0.1246 -0.9705 0.818 -0.023 0.575 102 88 82 0 0
0.2278 0.1177 -1.0020 0.914 -0.351 0.204 71 34 10 0 0
0.2298 0.1173 -1.0102 0.751 -0.642 0.156 70 32 11 0 0
0.2427 0.1141 -1.0245 0.971 -0.225 -0.079 75 37 13 0 0
0.2441 0.1162 -1.1045 0.938 -0.301 0.174 69 31 9 0 0
0.2440 0.1163 -1.1077 0.927 -0.192 0.323 76 36 9 0 0
0.2451 0.1161 -1.1102 0.911 -0.125 0.394 82 43 13 0 0
0.2485 0.1156 -1.1268 0.950 -0.238 0.204 91 61 37 0 0
0.2494 0.1154 -1.1293 0.986 -0.152 -0.063 90 60 36 0 0
0.2477 0.1160 -1.1335 0.934 -0.227 -0.278 89 61 37 0 0
0.0753 0.1249 0.0734 0.931 -0.195 0.308 53 24 7 0 0
0.0763 0.1247 0.0705 0.998 0.022 0.066 56 25 9 0 0
0.0723 0.1263 0.0563 0.950 -0.180 0.255 58 27 9 0 0
0.0737 0.1261 0.0476 0.878 -0.387 0.283 56 24 8 0 0
0.0731 0.1269 0.0303 0.823 -0.501 0.268 53 21 6 0 0
0.0726 0.1272 0.0217 0.860 -0.491 0.136 55 26 12 0 0
0.0728 0.1273 0.0188 0.865 -0.500 -0.036 54 25 11 0 0
0.0730 0.1275 0.0101 0.928 -0.335 0.163 47 18 4 0 0
0.0730 0.1277 0.0043 0.845 -0.523 -0.116 46 17 6 0 0
0.1250 0.1157 -0.0847 0.937 -0.331 0.113 56 26 11 0 0
0.1266 0.1153 -0.0875 0.881 -0.470 -0.051 54 24 11 0 0
0.1566 0.1073 -0.1035 0.410 -0.279 0.868 105 78 66 0 0
0.1846 0.1003 -0.1329 0.956 -0.284 -0.076 65 31 11 0 0
0.1891 0.0991 -0.1355 0.942 -0.303 0.148 60 29 10 0 0
0.1896 0.0990 -0.1382 0.971 -0.136 0.195 58 26 8 0 0
0.1887 0.0995 -0.1438 0.992 0.024 -0.124 63 32 14 0 0
0.1708 0.1052 -0.1647 0.980 -0.167 -0.112 59 40 33 0 0
0.1305 0.1207 -0.3016 0.732 -0.122 0.671 52 32 25 0 0
0.1354 0.1196 -0.3097 0.722 -0.445 0.530 60 33 19 0 0
0.1398 0.1187 -0.3207 0.865 -0.338 0.370 63 34 16 0 0
0.1403 0.1187 -0.3236 0.938 -0.328 0.112 66 35 20 0 0
0.1412 0.1185 -0.3264 0.908 -0.401 0.125 64 35 20 0 0
0.1416 0.1185 -0.3293 0.908 -0.401 0.125 57 31 18 0 0
0.1619 0.1148 -0.3989 0.615 -0.772 0.161 58 26 11 0 0
0.1023 0.1339 -0.4720 0.925 -0.366 -0.101 74 43 23 0 0
0.1014 0.1343 -0.4753 0.956 -0.291 0.026 76 45 26 0 0
0.1013 0.1346 -0.4845 0.943 -0.327 -0.056 70 39 19 0 0
0.1015 0.1346 -0.4875 0.917 -0.375 -0.136 68 37 18 0 0
0.1011 0.1348 -0.4907 0.917 -0.375 -0.136 70 39 20 0 0
0.1013 0.1349 -0.4937 0.894 -0.436 -0.099 70 39 19 0 0
0.1009 0.1351 -0.4969 0.846 -0.527 -0.073 69 37 18 0 0
0.1014 0.1350 -0.4998 0.833 -0.544 0.100 66 33 16 0 0
0.1018 0.1350 -0.5028 0.833 -0.544 0.100 60 27 14 0 0
0.0974 0.1367 -0.5193 0.824 -0.311 0.474 57 27 11 0 0
0.0979 0.1367 -0.5223 0.851 -0.456 0.261 56 26 9 0 0
0.1007 0.1360 -0.5247 0.972 -0.224 -0.071 59 28 9 0 0
0.1005 0.1361 -0.5278 0.972 -0.224 -0.071 62 30 11 0 0
0.1003 0.1363 -0.5309 0.972 -0.224 -0.071 64 33 12 0 0
0.1001 0.1364 -0.5341 0.972 -0.224 -0.071 65 34 13 0 0
0.1036 0.1360 -0.5516 0.890 -0.445 0.096 64 30 10 0 0
0.1039 0.1360 -0.5547 0.892 -0.450 -0.036 63 28 9 0 0
0.1031 0.1366 -0.5673 0.892 -0.382 0.241 72 37 16 0 0
0.1020 0.1374 -0.5831 0.943 -0.305 -0.130 69 35 12 0 0
0.1008 0.1380 -0.5897 0.929 -0.328 -0.169 74 40 16 0 0
0.0987 0.1389 -0.6028 0.923 -0.331 -0.197 66 31 11 0 0
0.1018 0.1381 -0.6050 0.688 -0.693 0.217 67 32 12 0 0
0.1065 0.1379 -0.6410 0.960 -0.258 0.105 65 34 15 0 0
0.1062 0.1381 -0.6442 0.994 -0.104 -0.017 62 31 14 0 0
0.1068 0.1380 -0.6471 0.970 -0.216 0.113 55 24 11 0 0
0.1101 0.1380 -0.6774 0.903 -0.095 0.420 52 23 9 0 0
0.1106 0.1379 -0.6803 0.922 -0.268 0.279 54 25 12 0 0
0.1115 0.1378 -0.6831 0.882 -0.452 0.136 54 26 13 0 0
0.1183 0.1368 -0.7152 0.976 -0.205 0.068 51 23 9 0 0
0.1200 0.1365 -0.7209 0.884 -0.434 0.174 50 22 8 0 0
0.1206 0.1365 -0.7238 0.884 -0.434 0.174 50 22 9 0 0
0.1319 0.1340 -0.7477 0.941 0.276 0.198 48 20 8 0 0
0.1341 0.1339 -0.7657 0.972 -0.159 0.175 48 20 8 0 0
0.1563 0.1289 -0.8066 0.749 -0.652 0.113 53 24 12 0 0
0.1589 0.1282 -0.8086 0.658 -0.625 0.420 53 23 11 0 0
0.1696 0.1257 -0.8257 0.832 -0.282 0.478 57 28 13 0 0
0.1710 0.1254 -0.8282 0.832 -0.282 0.478 57 26 12 0 0
0.1780 0.1241 -0.8499 0.830 -0.557 0.039 70 34 12 0 0
0.1791 0.1240 -0.8588 0.881 -0.460 -0.112 83 45 17 0 0
0.1704 0.1282 -0.9162 0.979 -0.185 -0.083 88 61 39 0 0
0.1735 0.1279 -0.9336 0.893 -0.262 0.367 62 34 19 0 0
0.1788 0.1266 -0.9403 0.745 -0.630 0.219 48 19 10 0 0
0.2311 0.1140 -1.0122 0.682 0.104 0.724 70 32 9 0 0
0.2406 0.1114 -1.0160 0.791 -0.566 0.231 70 32 9 0 0
0.2412 0.1113 -1.0188 0.920 -0.388 0.046 68 30 7 0 0
0.2418 0.1139 -1.1087 0.931 -0.364 0.011 79 37 10 0 0
0.2420 0.1140 -1.1117 0.955 -0.293 0.047 85 43 13 0 0
0.2422 0.1140 -1.1147 0.955 -0.293 0.047 90 51 22 0 0
0.2482 0.1126 -1.1265 0.927 -0.348 0.142 92 62 38 0 0
0.2489 0.1125 -1.1292 0.986 -0.152 -0.063 91 61 37 0 0
0.2470 0.1132 -1.1335 0.934 -0.227 -0.278 91 62 38 0 0
0.0715 0.1229 0.0763 0.985 -0.147 0.089 49 21 6 0 0
0.0718 0.1229 0.0735 0.961 -0.178 0.210 51 22 6 0 0
0.0753 0.1220 0.0704 0.875 -0.475 0.094 52 22 7 0 0
0.0721 0.1232 0.0591 1.000 -0.022 0.011 56 25 6 0 0
0.0707 0.1247 0.0245 0.921 -0.363 0.139 51 22 8 0 0
0.0710 0.1247 0.0216 0.870 -0.478 0.119 51 22 8 0 0
