ply
format ascii 1.0
element vertex 888
property float x
property float y
property float z
property float nx
property float ny
property float nz
property uchar diffuse_red
property uchar diffuse_green
property uchar diffuse_blue
property uchar class
property uchar detection
end_header
0.0729 0.2877 -0.8598 0.244 0.969 -0.039 90 63 50 0 0
0.2159 0.2925 -1.0324 0.983 0.075 0.169 111 77 50 0 0
0.2132 0.2939 -1.0620 0.955 0.026 -0.297 114 82 56 0 0
0.2119 0.2988 -1.1665 0.789 0.389 0.476 186 185 182 0 0
0.0824 0.2464 -0.0352 0.215 0.838 -0.502 60 35 24 0 0
0.0989 0.2485 -0.0881 0.591 0.703 -0.395 92 65 48 0 0
0.1559 0.2511 -0.1697 0.676 0.734 -0.067 71 52 44 0 0
0.1559 0.2513 -0.1754 0.958 0.277 0.080 72 53 45 0 0
0.1534 0.2515 -0.1785 0.770 0.598 -0.225 73 53 45 0 0
0.0991 0.2559 -0.2488 0.904 0.424 0.052 79 57 45 0 0
0.0350 0.2628 -0.3686 0.233 0.842 0.486 149 145 144 0 0
0.1098 0.2623 -0.3923 0.650 -0.329 0.685 83 65 59 0 0
0.0832 0.2821 -0.8103 0.487 0.735 0.472 86 63 49 0 0
0.2179 0.2896 -1.0346 0.962 0.246 0.116 111 77 49 0 0
0.2170 0.2901 -1.0445 0.923 0.381 -0.056 123 88 60 0 0
0.2163 0.2907 -1.0573 0.963 -0.051 0.263 125 92 62 0 0
0.1193 0.2418 -0.0148 0.981 0.195 0.016 64 27 8 0 0
0.1195 0.2419 -0.0177 0.986 0.160 -0.038 66 29 10 0 0
0.0649 0.2441 -0.0414 0.293 0.330 -0.897 35 20 13 0 0
0.0986 0.2456 -0.0882 0.618 0.683 0.389 91 63 45 0 0
0.1007 0.2457 -0.0911 0.555 0.761 0.337 95 69 49 0 0
0.1588 0.2485 -0.1782 0.736 0.569 -0.366 71 53 43 0 0
0.1546 0.2487 -0.1815 0.630 0.689 -0.358 72 54 44 0 0
0.0307 0.2796 -0.8016 0.711 0.703 0.030 98 83 75 0 0
0.0700 0.2786 -0.7963 0.210 0.860 0.466 86 68 58 0 0
0.1108 0.2837 -0.9244 0.700 0.714 -0.016 119 95 81 0 0
0.2113 0.2888 -1.0791 0.991 0.099 0.086 77 48 33 0 0
0.2125 0.2928 -1.1665 0.824 0.334 0.457 181 180 175 0 0
0.0680 0.2410 -0.0415 0.283 0.350 -0.893 32 17 11 0 0
0.1047 0.2426 -0.0910 0.478 0.723 0.499 93 66 48 0 0
0.1586 0.2455 -0.1755 0.974 0.227 0.012 70 52 42 0 0
0.1459 0.2463 -0.1881 0.551 0.803 0.225 73 55 45 0 0
0.1046 0.2509 -0.2725 0.873 0.422 -0.244 84 58 43 0 0
0.0903 0.2533 -0.3198 0.836 -0.521 0.169 100 68 45 0 0
0.0914 0.2535 -0.3227 0.847 -0.502 0.175 101 70 47 0 0
0.0320 0.2562 -0.3600 0.986 -0.164 0.035 169 167 168 0 0
0.1139 0.2563 -0.3948 0.608 -0.370 0.702 77 57 50 0 0
0.1639 0.2570 -0.4297 0.863 0.436 0.257 90 56 38 0 0
0.0298 0.2754 -0.7791 0.167 0.901 0.401 144 140 139 0 0
0.0311 0.2755 -0.7819 0.233 0.893 0.385 119 110 106 0 0
0.0314 0.2757 -0.7850 0.418 0.824 0.383 110 97 91 0 0
0.0354 0.2758 -0.7901 0.398 0.850 0.344 100 84 76 0 0
0.0363 0.2760 -0.7931 0.536 0.822 0.194 94 78 69 0 0
0.1172 0.2761 -0.8288 0.907 0.418 0.050 88 65 53 0 0
0.1186 0.2762 -0.8314 0.912 -0.036 -0.410 89 66 54 0 0
0.1147 0.2765 -0.8362 0.961 -0.145 0.234 89 67 56 0 0
0.2108 0.2862 -1.0858 0.949 -0.056 0.309 64 36 22 0 0
0.2015 0.2898 -1.1607 0.907 0.399 0.137 100 84 70 0 0
0.0467 0.2320 0.0987 0.817 -0.290 -0.498 156 149 143 0 0
0.0450 0.2321 0.0958 0.817 -0.290 -0.498 132 116 105 0 0
0.0467 0.2389 -0.0539 0.806 0.255 0.534 40 35 32 0 0
0.1285 0.2396 -0.0991 0.382 -0.054 0.922 73 36 26 0 0
0.1466 0.2397 -0.1070 0.578 0.156 0.801 108 71 52 0 0
0.1592 0.2425 -0.1727 0.895 -0.445 0.024 68 50 40 0 0
0.1579 0.2428 -0.1785 0.961 0.177 -0.214 68 50 40 0 0
0.1582 0.2429 -0.1814 0.843 0.312 -0.438 69 51 41 0 0
0.1461 0.2433 -0.1853 0.865 0.501 0.017 70 52 42 0 0
0.1497 0.2433 -0.1879 0.951 0.174 0.255 70 52 41 0 0
0.1504 0.2435 -0.1908 0.951 0.174 0.255 71 53 41 0 0
0.1414 0.2442 -0.2033 0.818 0.543 -0.192 70 52 41 0 0
0.0349 0.2526 -0.3502 0.639 0.512 0.574 97 86 82 0 0
0.0861 0.2538 -0.3941 0.987 -0.097 -0.131 77 55 48 0 0
0.0345 0.2721 -0.7775 0.434 0.845 0.311 113 101 96 0 0
0.0343 0.2724 -0.7841 0.641 0.692 0.331 103 86 78 0 0
0.0387 0.2724 -0.7857 0.647 0.696 0.312 97 79 71 0 0
0.0719 0.2719 -0.7861 0.225 0.784 0.579 86 67 56 0 0
0.0355 0.2290 0.1022 0.583 0.542 0.606 159 153 149 0 0
0.0429 0.2293 0.0929 0.921 0.077 -0.381 112 86 66 0 0
0.0478 0.2358 -0.0510 0.886 -0.424 0.189 39 31 28 0 0
0.0479 0.2359 -0.0540 0.650 -0.673 0.354 27 20 18 0 0
0.1179 0.2364 -0.0879 0.912 0.063 0.406 82 51 38 0 0
0.1591 0.2370 -0.1152 0.807 -0.420 0.416 136 103 86 0 0
0.1624 0.2371 -0.1179 0.614 -0.073 0.786 146 118 104 0 0
0.1904 0.2376 -0.1391 0.924 0.335 0.182 70 35 14 0 0
0.1586 0.2397 -0.1757 0.976 -0.219 0.011 67 49 39 0 0
0.1497 0.2404 -0.1881 0.982 -0.136 0.133 67 49 39 0 0
0.1501 0.2406 -0.1909 0.982 -0.136 0.133 67 49 39 0 0
0.1463 0.2413 -0.2059 0.848 -0.178 -0.500 68 50 38 0 0
0.1341 0.2418 -0.2129 0.968 -0.058 0.243 69 51 39 0 0
0.0325 0.2496 -0.3508 0.719 -0.117 0.685 99 84 76 0 0
0.0332 0.2497 -0.3538 0.847 0.033 0.530 89 71 59 0 0
0.0857 0.2502 -0.3820 0.782 0.170 0.600 82 58 48 0 0
0.0862 0.2503 -0.3850 0.937 0.243 0.250 82 58 49 0 0
0.0832 0.2508 -0.3948 0.882 -0.062 -0.467 74 52 42 0 0
0.0828 0.2510 -0.3980 0.769 -0.384 -0.511 74 51 42 0 0
0.0275 0.2686 -0.7671 0.483 -0.753 -0.447 139 132 130 0 0
0.0395 0.2689 -0.7791 0.767 0.617 0.178 97 78 70 0 0
0.0396 0.2691 -0.7823 0.786 0.469 0.403 91 73 63 0 0
0.2233 0.2805 -1.0945 0.436 -0.287 0.853 80 48 31 0 0
0.0465 0.2260 0.0985 0.980 0.189 -0.070 123 97 84 0 0
0.0460 0.2261 0.0955 0.971 0.199 -0.131 117 88 69 0 0
0.0757 0.2271 0.0645 0.880 0.203 0.430 86 55 35 0 0
0.0763 0.2272 0.0615 0.905 0.423 -0.050 93 62 41 0 0
0.0838 0.2273 0.0583 0.563 0.665 0.491 99 68 47 0 0
0.1219 0.2334 -0.0879 0.974 0.214 -0.079 79 46 34 0 0
0.1916 0.2348 -0.1392 0.971 0.186 0.148 72 37 17 0 0
0.1559 0.2373 -0.1847 0.894 -0.049 -0.446 65 47 37 0 0
0.1497 0.2377 -0.1911 0.856 0.515 0.049 66 48 38 0 0
0.1412 0.2381 -0.1977 0.924 -0.349 0.156 68 50 39 0 0
0.1417 0.2382 -0.2006 0.924 -0.349 0.156 68 50 39 0 0
0.1430 0.2383 -0.2034 0.968 0.088 0.234 67 49 38 0 0
0.0864 0.2472 -0.3820 0.936 -0.352 -0.011 79 55 45 0 0
0.1533 0.2479 -0.4175 0.489 -0.609 -0.625 92 57 39 0 0
0.1623 0.2482 -0.4275 0.855 0.397 -0.333 80 42 19 0 0
0.0428 0.2654 -0.7714 0.777 0.598 0.194 93 77 70 0 0
0.0433 0.2655 -0.7745 0.871 0.488 0.055 91 72 64 0 0
0.0420 0.2657 -0.7783 0.930 0.346 0.122 86 68 57 0 0
0.0478 0.2657 -0.7794 0.776 0.514 0.365 83 65 53 0 0
0.0721 0.2670 -0.8156 0.937 -0.265 0.226 80 57 44 0 0
0.1523 0.2727 -0.9661 0.822 0.432 -0.371 82 64 54 0 0
0.1556 0.2727 -0.9676 0.501 0.678 -0.538 81 63 53 0 0
0.1476 0.2731 -0.9748 0.478 0.724 -0.498 85 67 57 0 0
0.2062 0.2774 -1.0858 0.999 -0.051 0.009 87 53 34 0 0
0.2243 0.2785 -1.1160 0.941 0.306 0.142 102 66 40 0 0
0.0485 0.2228 0.1012 0.982 0.114 -0.148 129 103 90 0 0
0.0486 0.2230 0.0982 0.980 0.197 -0.003 118 86 68 0 0
0.0515 0.2232 0.0921 0.931 0.212 0.297 109 74 54 0 0
0.1583 0.2344 -0.1847 0.983 0.014 0.185 63 44 37 0 0
0.1468 0.2351 -0.1973 0.992 -0.081 0.093 65 47 37 0 0
0.1426 0.2353 -0.2006 0.968 0.088 0.234 66 48 38 0 0
0.1432 0.2354 -0.2035 0.968 0.088 0.234 67 48 39 0 0
0.0272 0.2619 -0.7609 0.818 -0.444 -0.366 105 92 84 0 0
0.0246 0.2621 -0.7652 0.821 -0.352 -0.450 100 84 76 0 0
0.0410 0.2618 -0.7624 0.646 0.697 0.311 95 78 70 0 0
0.0421 0.2619 -0.7653 0.678 0.670 0.302 90 71 64 0 0
0.0451 0.2621 -0.7708 0.871 0.487 0.060 86 67 58 0 0
0.0756 0.2623 -0.7820 0.396 0.636 0.663 80 58 47 0 0
0.1106 0.2641 -0.8322 0.620 0.106 -0.778 93 77 70 0 0
0.2313 0.2716 -1.0314 0.990 0.020 0.138 105 67 36 0 0
0.2331 0.2745 -1.0954 0.686 0.299 0.664 80 40 20 0 0
0.2157 0.2756 -1.1150 0.868 0.462 0.182 89 51 26 0 0
0.2167 0.2757 -1.1176 0.928 0.333 -0.170 96 60 34 0 0
0.2266 0.2754 -1.1148 0.925 0.378 -0.034 99 64 37 0 0
0.0488 0.2198 0.1011 0.982 0.114 -0.148 128 99 80 0 0
0.0491 0.2200 0.0981 0.937 0.272 -0.219 115 82 58 0 0
0.0886 0.2212 0.0608 0.685 0.518 0.513 86 55 35 0 0
0.1661 0.2303 -0.1611 0.125 0.496 0.859 65 48 38 0 0
0.1247 0.2354 -0.2646 0.973 0.233 0.005 70 44 30 0 0
0.1247 0.2356 -0.2676 0.973 0.233 0.005 77 50 36 0 0
0.0890 0.2393 -0.3421 0.426 0.866 -0.262 73 54 43 0 0
0.0849 0.2399 -0.3550 0.717 0.671 -0.189 78 52 40 0 0
0.0337 0.2580 -0.7456 0.980 0.195 -0.049 112 102 95 0 0
0.0338 0.2581 -0.7489 0.930 0.353 0.101 103 91 83 0 0
0.0470 0.2584 -0.7571 0.407 0.875 0.261 90 70 60 0 0
0.0746 0.2589 -0.7761 0.769 0.525 0.365 80 58 46 0 0
0.0761 0.2590 -0.7787 0.642 0.648 0.410 79 57 45 0 0
0.0696 0.2604 -0.8072 0.491 0.561 0.666 80 57 46 0 0
0.1509 0.2668 -0.9703 0.747 -0.543 -0.383 85 67 57 0 0
0.1137 0.2208 -0.0011 0.991 0.097 0.094 68 31 12 0 0
0.1125 0.2215 -0.0156 0.958 -0.284 0.039 63 26 7 0 0
0.1217 0.2329 -0.2741 0.975 0.170 0.142 71 42 28 0 0
0.0965 0.2360 -0.3379 0.441 0.823 -0.358 48 25 13 0 0
0.0920 0.2366 -0.3509 0.733 0.520 -0.438 77 52 37 0 0
0.0378 0.2541 -0.7312 0.245 0.933 0.263 121 113 111 0 0
0.0392 0.2542 -0.7340 0.287 0.919 0.271 113 102 98 0 0
0.0459 0.2544 -0.7381 0.259 0.916 0.306 100 86 78 0 0
0.0464 0.2545 -0.7412 0.379 0.898 0.223 96 81 72 0 0
0.0529 0.2551 -0.7552 0.407 0.875 0.261 85 65 54 0 0
0.0657 0.2562 -0.7829 0.219 0.691 0.689 75 53 40 0 0
0.1360 0.2633 -0.9554 0.886 -0.056 -0.461 81 58 48 0 0
0.2327 0.2702 -1.1302 0.976 0.204 0.071 112 82 55 0 0
0.2324 0.2703 -1.1335 0.987 0.157 -0.023 110 80 54 0 0
0.2323 0.2705 -1.1367 0.939 0.268 -0.216 110 78 53 0 0
0.0374 0.2135 0.1105 0.935 0.264 0.238 163 152 148 0 0
0.1136 0.2179 -0.0012 0.994 -0.110 -0.019 68 32 11 0 0
0.1144 0.2192 -0.0302 0.941 -0.297 0.163 65 30 10 0 0
0.0993 0.2207 -0.0626 0.859 0.322 0.398 19 10 8 0 0
0.1863 0.2227 -0.1229 0.994 0.025 -0.109 97 59 34 0 0
0.1499 0.2269 -0.2091 0.795 -0.423 0.435 64 44 37 0 0
0.1520 0.2270 -0.2118 0.539 -0.428 0.726 63 43 36 0 0
0.1555 0.2271 -0.2143 0.532 -0.452 0.716 62 42 35 0 0
0.1049 0.2327 -0.3337 0.480 0.746 -0.462 82 55 38 0 0
0.1028 0.2329 -0.3370 0.431 0.697 -0.573 47 24 15 0 0
0.0212 0.2496 -0.6978 0.393 0.896 0.208 200 200 201 0 0
0.0227 0.2497 -0.7006 0.491 0.860 0.137 201 201 202 0 0
0.0226 0.2499 -0.7039 0.417 0.900 0.128 201 201 202 0 0
0.0246 0.2502 -0.7130 0.417 0.900 0.128 177 175 173 0 0
0.0248 0.2504 -0.7162 0.753 0.653 0.082 161 156 154 0 0
0.0379 0.2504 -0.7183 0.229 0.934 0.276 129 121 116 0 0
0.0451 0.2507 -0.7256 0.263 0.927 0.267 108 96 90 0 0
0.0473 0.2507 -0.7281 0.263 0.927 0.267 101 87 80 0 0
0.0476 0.2509 -0.7312 0.357 0.898 0.257 97 82 74 0 0
0.0552 0.2514 -0.7447 0.451 0.874 0.183 82 61 49 0 0
0.0559 0.2516 -0.7477 0.435 0.886 0.161 81 61 48 0 0
0.1449 0.2598 -0.9481 0.951 -0.165 -0.260 70 46 36 0 0
0.1380 0.2601 -0.9546 0.843 -0.319 -0.433 73 52 41 0 0
0.1403 0.2609 -0.9727 0.152 0.928 0.341 86 68 58 0 0
0.2347 0.2672 -1.1291 0.969 0.237 0.073 112 81 52 0 0
0.2328 0.2675 -1.1366 0.940 -0.313 0.132 110 78 52 0 0
0.1085 0.2128 0.0480 0.839 0.311 0.446 83 37 13 0 0
0.1088 0.2129 0.0451 0.953 0.169 0.253 78 36 14 0 0
0.1111 0.2164 -0.0333 0.956 -0.171 0.238 63 28 9 0 0
0.0963 0.2177 -0.0598 0.715 0.053 0.697 17 9 7 0 0
0.1861 0.2200 -0.1259 0.826 -0.025 0.562 86 44 11 0 0
0.1966 0.2205 -0.1366 0.999 0.012 -0.052 74 39 14 0 0
0.1005 0.2301 -0.3406 0.436 0.845 -0.309 38 14 10 0 0
0.0957 0.2325 -0.3933 0.879 0.180 0.441 62 38 30 0 0
0.1430 0.2323 -0.3963 0.642 0.121 0.757 70 42 31 0 0
0.0281 0.2464 -0.6989 0.891 0.454 0.032 170 164 161 0 0
0.0280 0.2466 -0.7022 0.892 0.452 0.001 151 145 142 0 0
0.0279 0.2467 -0.7055 0.892 0.452 0.001 135 127 124 0 0
0.0515 0.2472 -0.7202 0.292 0.918 0.267 96 78 67 0 0
0.0535 0.2473 -0.7228 0.292 0.918 0.267 91 72 61 0 0
0.0722 0.2491 -0.7646 0.236 0.908 0.345 73 49 37 0 0
0.1074 0.2515 -0.8246 0.702 0.671 -0.237 81 62 55 0 0
0.1525 0.2564 -0.9414 0.988 -0.125 0.091 52 31 21 0 0
0.1840 0.2579 -0.9794 0.641 -0.474 0.603 97 77 66 0 0
0.2293 0.2603 -1.0394 0.950 0.285 0.129 103 64 35 0 0
0.1095 0.2099 0.0479 0.851 0.284 0.441 73 32 11 0 0
0.1093 0.2100 0.0450 0.953 0.169 0.253 70 33 14 0 0
0.1102 0.2103 0.0392 0.988 -0.141 0.070 65 30 10 0 0
0.1108 0.2112 0.0189 0.935 -0.108 0.336 62 25 6 0 0
0.1039 0.2126 -0.0130 0.999 0.034 0.029 68 32 9 0 0
0.1037 0.2127 -0.0159 0.988 0.149 0.048 68 32 12 0 0
0.1039 0.2128 -0.0188 0.988 0.149 0.048 66 31 11 0 0
0.1041 0.2131 -0.0247 0.997 -0.013 0.079 60 25 5 0 0
0.1050 0.2132 -0.0276 0.989 -0.100 0.110 61 26 6 0 0
0.1054 0.2134 -0.0305 0.989 -0.100 0.110 62 27 6 0 0
0.1057 0.2135 -0.0334 0.989 -0.100 0.110 62 27 7 0 0
0.1132 0.2136 -0.0363 0.949 -0.068 0.309 58 26 7 0 0
0.1038 0.2143 -0.0510 0.855 -0.451 0.256 11 8 8 0 0
0.1940 0.2175 -0.1341 0.989 0.105 0.104 76 40 13 0 0
0.1957 0.2176 -0.1368 0.813 0.481 0.328 70 36 13 0 0
0.0364 0.2334 -0.4774 0.864 -0.085 -0.497 101 87 83 0 0
0.0377 0.2335 -0.4803 0.397 0.904 -0.158 96 84 79 0 0
0.0404 0.2341 -0.4924 0.294 0.954 -0.068 118 112 108 0 0
0.0399 0.2342 -0.4957 0.305 0.952 -0.027 122 116 113 0 0
0.0630 0.2467 -0.7812 0.862 -0.492 0.121 76 53 40 0 0
0.0495 0.2485 -0.8190 0.336 0.942 0.003 86 68 58 0 0
0.1458 0.2490 -0.8404 0.912 -0.370 -0.175 85 69 64 0 0
0.1538 0.2534 -0.9410 0.995 -0.052 0.088 54 32 23 0 0
0.2029 0.2544 -0.9700 0.623 -0.198 0.757 97 77 67 0 0
0.2188 0.2560 -1.0081 0.990 0.080 0.113 72 29 4 0 0
0.2192 0.2562 -1.0110 0.956 0.080 0.283 72 28 4 0 0
0.2364 0.2577 -1.0479 0.979 0.196 0.057 110 76 47 0 0
0.2365 0.2578 -1.0509 0.979 0.196 0.057 109 75 47 0 0
0.2367 0.2580 -1.0539 0.979 0.196 0.057 109 75 45 0 0
0.0403 0.2043 0.1129 0.329 0.315 0.890 149 140 134 0 0
0.1099 0.2071 0.0449 0.953 0.169 0.253 62 27 7 0 0
0.1054 0.2096 -0.0131 0.999 -0.033 0.032 70 34 12 0 0
0.1043 0.2099 -0.0189 0.988 0.149 0.048 69 34 14 0 0
0.1041 0.2100 -0.0219 0.989 0.150 -0.004 68 33 13 0 0
0.1041 0.2102 -0.0248 0.989 0.150 -0.004 65 31 11 0 0
0.1048 0.2103 -0.0277 0.989 -0.100 0.110 64 30 10 0 0
0.0974 0.2111 -0.0453 0.855 0.519 0.008 33 18 11 0 0
0.0976 0.2112 -0.0483 0.957 0.262 0.126 15 8 5 0 0
0.1944 0.2147 -0.1342 0.989 0.142 -0.039 73 36 10 0 0
0.1447 0.2197 -0.2451 0.917 0.263 0.300 63 40 32 0 0
0.0623 0.2435 -0.7783 0.654 -0.734 0.183 77 53 41 0 0
0.1745 0.2463 -0.8500 0.996 -0.034 -0.087 68 31 9 0 0
0.1728 0.2464 -0.8539 0.967 0.232 0.110 80 43 17 0 0
0.1545 0.2500 -0.9345 0.914 0.294 0.278 57 31 23 0 0
0.1552 0.2502 -0.9373 0.994 0.004 0.114 49 26 20 0 0
0.1411 0.2514 -0.9632 0.990 0.012 0.140 89 71 61 0 0
0.1414 0.2515 -0.9663 0.494 0.011 0.869 92 75 66 0 0
0.1866 0.2517 -0.9753 0.915 0.402 -0.013 95 75 68 0 0
0.1864 0.2519 -0.9785 0.908 0.418 0.022 96 76 67 0 0
0.2203 0.2532 -1.0106 0.968 -0.009 0.249 80 35 6 0 0
0.2209 0.2533 -1.0134 0.970 -0.095 0.224 79 33 7 0 0
0.2226 0.2564 -1.0839 0.968 0.077 -0.240 85 53 33 0 0
0.2238 0.2565 -1.0863 0.887 0.350 -0.303 76 45 33 0 0
0.0442 0.2013 0.1126 0.329 0.315 0.890 140 127 119 0 0
0.1104 0.2042 0.0447 0.953 0.169 0.253 68 33 13 0 0
0.1046 0.2074 -0.0278 0.994 -0.036 0.104 68 37 15 0 0
0.1301 0.2184 -0.2796 0.767 0.258 0.587 66 38 24 0 0
0.1268 0.2185 -0.2830 0.921 0.363 -0.139 66 38 24 0 0
0.1154 0.2191 -0.2965 0.943 0.248 -0.223 68 39 24 0 0
0.1074 0.2229 -0.3823 0.830 0.245 -0.500 61 34 18 0 0
0.1511 0.2424 -0.8291 0.817 0.347 -0.461 82 63 57 0 0
0.1521 0.2458 -0.9073 0.744 0.559 0.366 75 46 28 0 0
0.1533 0.2460 -0.9099 0.744 0.559 0.366 82 52 32 0 0
0.1469 0.2472 -0.9383 0.701 0.705 0.112 57 31 23 0 0
0.1555 0.2471 -0.9373 0.992 -0.020 -0.127 48 25 19 0 0
0.1541 0.2475 -0.9443 0.898 -0.394 -0.194 52 28 16 0 0
0.1456 0.2482 -0.9612 0.857 -0.493 -0.151 82 62 51 0 0
0.1462 0.2483 -0.9641 0.915 -0.321 0.245 91 73 64 0 0
0.1877 0.2489 -0.9780 0.885 0.460 -0.073 93 73 64 0 0
0.2295 0.2504 -1.0151 0.899 -0.091 0.429 84 35 5 0 0
0.2328 0.2546 -1.1092 0.996 -0.015 0.088 80 38 11 0 0
0.1074 0.2005 0.0621 0.969 0.066 0.240 62 30 10 0 0
0.1067 0.2006 0.0592 0.981 -0.044 -0.187 64 31 11 0 0
0.1061 0.2007 0.0564 0.981 -0.044 -0.187 65 33 13 0 0
0.1110 0.2012 0.0446 0.953 0.169 0.253 70 35 15 0 0
0.1074 0.2030 0.0041 0.982 -0.165 -0.090 62 27 7 0 0
0.1051 0.2042 -0.0221 0.968 0.247 0.040 67 32 12 0 0
0.1917 0.2097 -0.1487 0.889 0.425 0.169 63 40 31 0 0
0.1626 0.2122 -0.2055 0.489 0.872 -0.002 59 40 33 0 0
0.1519 0.2126 -0.2153 0.682 0.731 0.019 58 39 32 0 0
0.1188 0.2161 -0.2961 0.804 0.555 -0.214 67 38 24 0 0
0.1179 0.2192 -0.3655 0.777 0.533 0.335 49 31 25 0 0
0.0864 0.2343 -0.7120 0.844 0.536 -0.029 76 49 34 0 0
0.0920 0.2343 -0.7132 0.868 0.154 0.473 79 52 35 0 0
0.0935 0.2345 -0.7158 0.901 0.104 0.422 80 53 36 0 0
0.1560 0.2426 -0.9025 0.936 0.349 -0.040 78 51 32 0 0
0.1544 0.2428 -0.9064 0.832 0.446 0.330 73 46 28 0 0
0.1552 0.2441 -0.9376 0.883 0.466 -0.060 47 23 17 0 0
0.1539 0.2443 -0.9414 0.985 0.116 -0.129 46 23 15 0 0
0.1476 0.2450 -0.9572 0.745 -0.585 0.320 73 51 38 0 0
0.1481 0.2451 -0.9601 0.863 -0.313 0.397 76 55 43 0 0
0.1488 0.2452 -0.9630 0.779 0.028 0.626 83 66 56 0 0
0.2301 0.2502 -1.0768 0.927 0.315 0.201 92 61 40 0 0
0.1031 0.1972 0.0708 0.968 -0.055 0.246 66 31 11 0 0
0.1070 0.1977 0.0591 0.974 0.190 0.123 64 29 9 0 0
0.1073 0.1982 0.0475 0.964 0.242 -0.105 68 33 13 0 0
0.1082 0.1983 0.0446 0.968 0.249 0.042 66 31 11 0 0
0.1069 0.2001 0.0040 0.982 -0.165 -0.090 56 21 2 0 0
0.1531 0.2094 -0.2095 0.812 -0.195 0.551 57 38 31 0 0
0.1552 0.2096 -0.2122 0.819 0.561 0.118 57 38 31 0 0
0.0906 0.2309 -0.7043 0.880 0.474 0.022 74 46 32 0 0
0.0863 0.2312 -0.7121 0.922 0.220 -0.319 76 49 33 0 0
0.0892 0.2313 -0.7143 0.756 0.652 -0.055 79 52 35 0 0
0.0939 0.2314 -0.7159 0.901 0.104 0.422 80 53 36 0 0
0.0821 0.2324 -0.7392 0.699 -0.292 -0.653 74 46 34 0 0
0.0796 0.2328 -0.7498 0.902 -0.431 -0.015 73 45 34 0 0
0.1500 0.2364 -0.8299 0.787 -0.307 -0.535 73 50 42 0 0
0.1614 0.2368 -0.8375 0.909 -0.215 0.357 72 46 33 0 0
0.1654 0.2368 -0.8389 0.862 -0.500 0.079 72 44 31 0 0
0.1581 0.2396 -0.9017 0.958 0.234 -0.165 78 49 33 0 0
0.1566 0.2399 -0.9087 0.876 0.214 0.432 71 43 24 0 0
0.1580 0.2411 -0.9365 0.805 0.375 -0.459 47 23 15 0 0
0.1495 0.2421 -0.9596 0.713 -0.006 0.701 67 46 31 0 0
0.2306 0.2440 -1.0025 0.982 0.153 0.110 100 54 19 0 0
0.2309 0.2442 -1.0054 0.982 0.153 0.110 95 47 14 0 0
0.2405 0.2462 -1.0524 0.976 0.215 0.022 101 67 39 0 0
0.2264 0.2485 -1.1040 0.947 0.048 0.318 59 24 8 0 0
0.0404 0.1920 0.1184 0.396 0.431 0.811 178 175 173 0 0
0.1993 0.2035 -0.1372 0.961 0.107 -0.256 65 32 10 0 0
0.1240 0.2132 -0.3646 0.884 0.372 0.283 42 24 19 0 0
0.0953 0.2277 -0.7028 0.629 0.742 0.232 75 47 32 0 0
0.0695 0.2301 -0.7601 0.666 -0.697 -0.267 69 41 28 0 0
0.1392 0.2321 -0.8000 0.900 -0.222 0.374 74 53 42 0 0
0.1490 0.2334 -0.8305 0.821 0.568 0.058 69 45 34 0 0
0.1486 0.2336 -0.8338 0.889 0.424 0.172 67 41 31 0 0
0.1629 0.2338 -0.8371 0.939 -0.230 0.256 71 44 30 0 0
0.1653 0.2338 -0.8391 0.965 -0.249 -0.087 68 39 26 0 0
0.1574 0.2368 -0.9085 0.888 0.455 -0.072 67 39 18 0 0
0.1616 0.2380 -0.9349 0.779 0.381 -0.499 47 23 15 0 0
0.1579 0.2382 -0.9398 0.759 0.315 -0.570 41 18 10 0 0
0.2318 0.2443 -1.0761 0.995 0.016 0.099 98 67 45 0 0
0.0972 0.1905 0.0883 0.981 0.185 0.058 88 50 19 0 0
0.0988 0.1907 0.0853 0.968 -0.004 -0.252 80 41 15 0 0
0.1615 0.1990 -0.1023 0.663 -0.179 0.727 104 73 55 0 0
0.1935 0.2001 -0.1235 0.988 -0.063 -0.140 106 62 33 0 0
0.1439 0.2058 -0.2606 0.986 0.101 -0.130 64 40 30 0 0
0.1333 0.2066 -0.2797 0.976 0.135 0.170 62 36 23 0 0
0.1268 0.2099 -0.3583 0.826 0.532 0.188 50 26 14 0 0
0.1254 0.2102 -0.3645 0.887 0.308 0.343 43 26 21 0 0
0.0662 0.2272 -0.7647 0.639 -0.567 -0.520 65 36 20 0 0
0.0919 0.2280 -0.7808 0.523 0.770 0.366 71 44 32 0 0
0.1190 0.2285 -0.7893 0.784 -0.157 -0.600 61 37 24 0 0
0.1349 0.2288 -0.7956 0.426 -0.128 0.895 67 41 29 0 0
0.1326 0.2290 -0.7997 0.663 0.471 0.582 72 46 34 0 0
0.1393 0.2292 -0.8033 0.806 -0.106 -0.582 82 59 50 0 0
0.1499 0.2303 -0.8271 0.992 0.071 -0.104 63 39 27 0 0
0.1462 0.2305 -0.8318 0.919 0.138 0.369 65 40 28 0 0
0.1475 0.2306 -0.8344 0.734 0.081 0.674 67 40 29 0 0
0.1501 0.2308 -0.8396 0.956 0.219 -0.193 69 42 29 0 0
0.1674 0.2308 -0.8384 0.855 0.320 0.408 70 41 25 0 0
0.1597 0.2351 -0.9391 0.759 0.315 -0.570 40 17 9 0 0
0.2071 0.2372 -0.9812 0.988 0.136 0.073 93 76 68 0 0
0.2426 0.2441 -1.1382 0.990 -0.065 0.124 102 68 40 0 0
0.1042 0.1938 -0.0548 0.945 -0.285 0.164 57 29 15 0 0
0.1751 0.1966 -0.1104 0.769 0.135 0.625 117 80 63 0 0
0.1426 0.2027 -0.2579 0.964 0.019 -0.265 63 40 28 0 0
0.1434 0.2029 -0.2607 0.981 -0.082 0.176 64 40 29 0 0
0.1313 0.2043 -0.2949 0.921 0.383 -0.065 65 39 24 0 0
0.1130 0.2066 -0.3517 0.850 0.124 -0.512 51 28 17 0 0
0.1269 0.2072 -0.3644 0.823 0.504 0.262 36 19 11 0 0
0.1600 0.2087 -0.3941 0.812 -0.556 0.175 57 27 16 0 0
0.0964 0.2136 -0.5176 0.814 0.578 0.061 67 38 23 0 0
0.0963 0.2139 -0.5239 0.829 0.559 -0.025 66 37 19 0 0
0.1434 0.2261 -0.8017 0.927 0.374 0.005 70 42 31 0 0
0.1420 0.2263 -0.8054 0.931 0.341 -0.129 72 43 32 0 0
0.1480 0.2271 -0.8249 0.815 -0.029 0.578 62 35 22 0 0
0.1478 0.2273 -0.8281 0.935 -0.265 0.236 60 33 22 0 0
0.1452 0.2275 -0.8324 0.697 -0.332 0.636 61 34 23 0 0
0.1471 0.2276 -0.8347 0.652 -0.317 0.689 64 35 24 0 0
0.1484 0.2277 -0.8373 0.998 -0.046 0.042 71 42 30 0 0
0.1485 0.2278 -0.8404 0.992 0.119 0.049 68 40 26 0 0
0.1819 0.2282 -0.8447 0.970 0.080 -0.228 62 27 10 0 0
0.2032 0.2336 -0.9679 0.631 -0.023 0.776 87 69 62 0 0
0.2064 0.2338 -0.9724 0.906 0.421 -0.044 84 65 58 0 0
0.2062 0.2340 -0.9756 0.806 0.344 0.481 93 74 66 0 0
0.2070 0.2341 -0.9783 0.977 0.211 0.016 92 75 66 0 0
0.2075 0.2342 -0.9812 0.988 0.136 0.073 94 76 69 0 0
0.2435 0.2364 -1.0267 0.979 -0.089 -0.181 97 53 18 0 0
0.2427 0.2367 -1.0333 0.988 0.114 0.102 97 60 25 0 0
0.2435 0.2368 -1.0359 0.987 0.155 -0.028 103 67 36 0 0
0.2329 0.2386 -1.0790 0.995 0.080 -0.063 84 53 32 0 0
0.2417 0.2399 -1.1079 0.999 -0.035 0.007 88 42 12 0 0
0.0423 0.1827 0.1239 0.487 0.467 0.738 184 183 187 0 0
0.0431 0.1829 0.1209 0.310 0.335 0.890 184 184 185 0 0
0.0599 0.1833 0.1138 0.355 0.209 0.911 132 113 104 0 0
0.1008 0.1882 0.0066 0.961 -0.277 0.009 62 27 7 0 0
0.1982 0.1958 -0.1545 0.748 -0.584 0.316 61 43 33 0 0
0.1363 0.2007 -0.2795 0.850 0.487 0.202 59 32 20 0 0
0.1603 0.2058 -0.3942 0.643 0.766 -0.032 58 28 17 0 0
0.1596 0.2059 -0.3973 0.784 0.029 0.621 64 32 20 0 0
0.1070 0.2198 -0.7308 0.944 -0.010 -0.329 58 29 13 0 0
0.1358 0.2225 -0.7893 0.998 0.060 0.021 57 30 18 0 0
0.1359 0.2229 -0.7987 0.486 0.633 0.602 66 39 27 0 0
0.1441 0.2231 -0.8016 0.820 0.559 0.123 59 33 21 0 0
0.1433 0.2232 -0.8051 0.905 0.422 -0.049 56 28 16 0 0
0.1467 0.2244 -0.8319 0.836 0.303 0.457 57 29 17 0 0
0.1436 0.2246 -0.8364 0.624 0.064 0.778 64 34 23 0 0
0.1617 0.2277 -0.9070 0.909 0.376 -0.180 73 41 21 0 0
0.1603 0.2279 -0.9108 0.963 0.139 0.232 71 38 20 0 0
0.1613 0.2280 -0.9135 0.956 0.157 0.249 85 53 30 0 0
0.2038 0.2307 -0.9677 0.719 -0.341 0.605 90 72 64 0 0
0.2077 0.2307 -0.9689 0.759 0.057 0.648 84 65 58 0 0
0.2069 0.2310 -0.9754 0.921 0.330 0.208 89 71 61 0 0
0.2077 0.2311 -0.9781 0.917 0.390 0.084 90 72 63 0 0
0.2358 0.2357 -1.0806 0.892 0.311 -0.328 81 51 29 0 0
0.2422 0.2367 -1.1016 0.947 0.314 0.059 71 29 6 0 0
0.2438 0.2381 -1.1347 0.979 0.205 -0.005 100 66 37 0 0
0.0624 0.1803 0.1135 0.355 0.209 0.911 128 108 99 0 0
0.0914 0.1820 0.0796 0.942 -0.222 0.251 67 33 14 0 0
0.1591 0.1904 -0.1027 0.898 -0.157 0.411 109 77 64 0 0
0.1988 0.1924 -0.1405 0.987 0.086 -0.134 63 32 13 0 0
0.1386 0.2020 -0.3776 0.824 -0.268 0.499 50 26 14 0 0
0.1516 0.2050 -0.4468 0.375 0.311 -0.873 80 53 35 0 0
0.1368 0.2052 -0.4531 0.375 0.311 -0.873 76 49 30 0 0
0.0981 0.2078 -0.5237 0.790 0.611 -0.045 64 35 17 0 0
0.1291 0.2187 -0.7732 0.839 0.536 0.096 56 28 14 0 0
0.1297 0.2194 -0.7887 0.801 0.155 -0.579 52 25 13 0 0
0.1351 0.2195 -0.7897 0.781 0.504 0.369 53 25 13 0 0
0.1373 0.2197 -0.7951 0.137 0.777 0.614 56 28 14 0 0
0.1719 0.2242 -0.8930 0.939 -0.133 -0.318 83 55 34 0 0
0.1610 0.2249 -0.9106 0.956 0.157 0.249 70 37 19 0 0
0.1618 0.2250 -0.9134 0.964 0.238 0.121 79 47 24 0 0
0.2041 0.2278 -0.9709 0.888 -0.028 0.459 90 71 64 0 0
0.2430 0.2306 -1.0273 0.987 0.146 -0.062 98 52 19 0 0
0.2369 0.2328 -1.0801 0.862 0.288 -0.418 86 54 30 0 0
0.2424 0.2339 -1.1047 0.995 0.059 0.084 88 41 13 0 0
0.2444 0.2345 -1.1190 0.996 0.033 0.082 101 64 35 0 0
0.2449 0.2348 -1.1250 0.987 0.070 0.146 104 69 39 0 0
0.0662 0.1774 0.1131 0.352 0.315 0.882 124 103 94 0 0
0.0979 0.1797 0.0675 0.977 -0.107 0.184 66 31 11 0 0
0.0906 0.1801 0.0562 0.965 0.071 0.251 64 29 9 0 0
0.0995 0.1825 0.0005 0.976 0.031 0.214 75 40 20 0 0
0.0930 0.1845 -0.0465 0.971 -0.157 0.179 48 21 8 0 0
0.1474 0.1865 -0.0803 0.712 -0.163 0.683 71 44 31 0 0
0.1526 0.1871 -0.0945 0.546 0.012 0.838 96 72 62 0 0
0.1583 0.1874 -0.1000 0.899 0.043 0.436 100 71 57 0 0
0.1641 0.1876 -0.1026 0.654 0.189 0.732 113 81 68 0 0
0.1956 0.1900 -0.1521 0.887 -0.365 0.282 60 41 33 0 0
0.1382 0.1955 -0.2943 0.972 0.207 0.108 54 27 16 0 0
0.1526 0.2021 -0.4467 0.381 0.283 -0.880 80 53 36 0 0
0.1225 0.2023 -0.4595 0.433 0.301 -0.850 73 46 29 0 0
0.0986 0.2070 -0.5767 0.914 0.383 -0.132 78 42 20 0 0
0.1023 0.2076 -0.5881 0.934 0.163 0.318 77 43 18 0 0
0.1163 0.2143 -0.7435 0.951 -0.113 0.288 54 24 13 0 0
0.1183 0.2144 -0.7460 0.964 -0.084 0.253 54 25 12 0 0
0.1028 0.2153 -0.7708 0.935 -0.266 -0.236 58 28 11 0 0
0.1315 0.2157 -0.7724 0.937 -0.242 -0.254 55 27 13 0 0
0.1383 0.2164 -0.7886 0.605 0.689 0.400 51 23 10 0 0
0.1509 0.2180 -0.8211 0.993 -0.111 0.029 50 22 11 0 0
0.1559 0.2182 -0.8252 0.708 0.703 0.065 57 29 15 0 0
0.1811 0.2206 -0.8765 0.955 0.033 0.296 87 60 39 0 0
0.1614 0.2217 -0.9075 0.934 0.352 0.068 72 40 21 0 0
0.1674 0.2226 -0.9267 0.987 0.148 -0.063 81 54 35 0 0
0.1852 0.2231 -0.9338 0.773 0.284 -0.567 41 16 9 0 0
0.2067 0.2250 -0.9728 0.751 0.303 0.586 90 71 63 0 0
0.2086 0.2251 -0.9749 0.730 0.412 0.545 97 79 69 0 0
0.2226 0.2263 -0.9985 0.846 -0.350 0.402 98 56 28 0 0
0.2400 0.2270 -1.0108 0.975 0.124 0.186 91 42 9 0 0
0.2451 0.2283 -1.0417 0.986 0.152 0.071 105 71 43 0 0
0.2443 0.2294 -1.0668 0.980 -0.102 -0.172 102 70 45 0 0
0.2425 0.2295 -1.0709 0.952 0.066 -0.298 102 70 46 0 0
0.2414 0.2297 -1.0746 0.944 0.134 -0.303 96 64 43 0 0
0.2339 0.2304 -1.0945 0.987 -0.009 0.162 46 18 7 0 0
0.2344 0.2306 -1.0973 0.982 0.030 0.186 57 26 11 0 0
0.2445 0.2316 -1.1192 0.996 0.033 0.082 99 62 33 0 0
0.2451 0.2319 -1.1250 0.987 0.070 0.146 104 70 39 0 0
0.2448 0.2321 -1.1314 0.966 0.255 0.045 103 70 39 0 0
0.2449 0.2323 -1.1344 0.966 0.255 0.045 101 67 39 0 0
0.2447 0.2325 -1.1407 0.945 0.176 -0.276 102 67 42 0 0
0.0716 0.1745 0.1126 0.355 0.381 0.853 125 102 92 0 0
0.0994 0.1770 0.0615 0.975 -0.089 0.203 64 29 9 0 0
0.1402 0.1834 -0.0777 0.687 -0.404 0.604 123 105 96 0 0
0.1509 0.1842 -0.0947 0.530 0.277 0.801 92 69 59 0 0
0.1586 0.1845 -0.1001 0.859 0.482 0.172 101 71 59 0 0
0.2034 0.1863 -0.1292 0.923 0.134 0.361 81 38 11 0 0
0.1941 0.1872 -0.1523 0.929 -0.358 0.094 60 42 35 0 0
0.1955 0.1873 -0.1551 0.780 0.152 0.606 61 43 35 0 0
0.1469 0.1933 -0.3110 0.799 -0.393 0.455 53 21 5 0 0
0.1666 0.1970 -0.3933 0.584 0.705 0.401 57 27 16 0 0
0.1654 0.1972 -0.3965 0.688 -0.186 0.702 58 26 15 0 0
0.1558 0.1991 -0.4462 0.396 0.102 -0.912 82 53 37 0 0
0.1415 0.1992 -0.4524 0.396 0.102 -0.912 74 45 29 0 0
0.0984 0.2017 -0.5239 0.890 0.425 0.166 64 35 17 0 0
0.1002 0.2019 -0.5266 0.944 0.259 0.202 65 36 18 0 0
0.1037 0.2035 -0.5629 0.948 0.124 -0.294 70 35 15 0 0
0.1035 0.2041 -0.5785 0.984 0.109 0.140 79 43 21 0 0
0.1039 0.2043 -0.5815 0.984 0.109 0.140 79 43 21 0 0
0.1058 0.2045 -0.5872 0.989 0.134 0.060 77 41 19 0 0
0.0927 0.2054 -0.6130 0.950 0.249 -0.186 73 41 20 0 0
0.1175 0.2114 -0.7464 0.907 -0.204 0.369 51 21 10 0 0
0.1136 0.2115 -0.7510 0.500 0.655 0.567 51 21 10 0 0
0.1384 0.2136 -0.7919 0.569 0.307 0.763 50 22 10 0 0
0.1510 0.2148 -0.8181 0.943 0.315 0.107 46 18 7 0 0
0.1513 0.2150 -0.8211 0.930 0.219 0.297 49 21 10 0 0
0.1816 0.2178 -0.8796 0.964 0.265 0.024 89 61 39 0 0
0.1675 0.2195 -0.9236 0.993 0.095 0.070 91 60 40 0 0
0.1680 0.2196 -0.9266 0.984 0.178 0.015 84 53 35 0 0
0.1666 0.2198 -0.9303 0.946 0.322 -0.028 73 45 28 0 0
0.1834 0.2213 -0.9629 0.820 0.216 0.531 78 62 56 0 0
0.2065 0.2220 -0.9731 0.788 0.157 0.595 94 75 67 0 0
0.2102 0.2221 -0.9742 0.951 0.161 0.264 98 80 70 0 0
0.2470 0.2253 -1.0377 0.974 0.111 0.197 96 62 34 0 0
0.2459 0.2262 -1.0598 0.983 0.137 -0.124 107 73 46 0 0
0.2437 0.2265 -1.0672 0.960 0.004 -0.280 104 72 45 0 0
0.2427 0.2266 -1.0709 0.952 0.066 -0.298 102 72 46 0 0
0.2386 0.2272 -1.0857 0.986 0.148 -0.072 69 40 25 0 0
0.2455 0.2296 -1.1405 0.941 0.295 -0.162 98 65 39 0 0
0.0932 0.1725 0.0966 0.990 -0.143 -0.014 84 45 20 0 0
0.0902 0.1726 0.0938 0.993 -0.104 0.061 67 33 10 0 0
0.0898 0.1745 0.0473 0.971 -0.140 0.193 67 32 12 0 0
0.0896 0.1760 0.0121 0.895 -0.105 0.433 61 26 7 0 0
0.1866 0.1848 -0.1644 0.334 0.437 -0.835 63 44 37 0 0
0.1427 0.1891 -0.2821 0.919 0.161 0.360 51 28 16 0 0
0.1393 0.1892 -0.2855 0.883 0.454 0.117 50 27 14 0 0
0.1393 0.1896 -0.2944 0.926 -0.350 0.138 53 30 17 0 0
0.1578 0.1912 -0.3271 0.989 -0.110 0.096 61 34 22 0 0
0.1690 0.1941 -0.3930 0.712 0.493 0.500 56 26 15 0 0
0.1562 0.1962 -0.4462 0.389 0.244 -0.888 80 51 35 0 0
0.1422 0.1963 -0.4524 0.389 0.244 -0.888 68 39 23 0 0
0.1048 0.1995 -0.5410 0.970 0.146 0.195 65 34 16 0 0
0.1032 0.2011 -0.5788 0.988 -0.093 0.120 78 44 19 0 0
0.1035 0.2012 -0.5818 0.990 -0.089 0.108 77 43 18 0 0
0.1045 0.2015 -0.5878 0.997 -0.075 0.025 76 40 16 0 0
0.1057 0.2016 -0.5905 0.864 0.056 0.500 74 38 14 0 0
0.1060 0.2017 -0.5935 0.901 -0.088 0.425 74 39 15 0 0
0.1060 0.2019 -0.5967 0.968 -0.110 0.225 82 47 23 0 0
0.1067 0.2020 -0.5996 0.968 -0.110 0.225 81 46 24 0 0
0.1067 0.2049 -0.6685 0.971 -0.110 -0.212 55 26 10 0 0
0.1056 0.2050 -0.6720 0.982 -0.136 -0.133 55 26 10 0 0
0.1040 0.2053 -0.6788 0.817 -0.573 -0.066 55 26 10 0 0
0.1040 0.2054 -0.6820 0.863 -0.496 0.094 55 26 10 0 0
0.1028 0.2057 -0.6887 0.864 0.415 -0.284 56 27 11 0 0
0.1021 0.2058 -0.6921 0.686 0.719 0.115 55 28 10 0 0
0.1026 0.2060 -0.6951 0.614 0.659 0.434 56 29 10 0 0
0.1138 0.2084 -0.7480 0.825 -0.087 0.558 51 21 10 0 0
0.1793 0.2154 -0.8932 0.968 -0.060 -0.243 83 55 33 0 0
0.1783 0.2155 -0.8968 0.941 0.144 -0.307 78 47 26 0 0
0.1776 0.2156 -0.9003 0.943 0.193 -0.271 71 39 18 0 0
0.1721 0.2178 -0.9531 0.541 0.405 0.737 52 28 21 0 0
0.1743 0.2179 -0.9551 0.585 0.379 0.717 54 32 21 0 0
0.2098 0.2191 -0.9715 0.971 0.075 0.225 92 73 65 0 0
0.2104 0.2192 -0.9743 0.971 0.075 0.225 95 77 67 0 0
0.2146 0.2195 -0.9814 0.863 0.130 0.488 110 87 75 0 0
0.2458 0.2220 -1.0294 0.970 0.086 0.227 86 45 14 0 0
0.2474 0.2224 -1.0377 0.998 -0.019 0.058 96 62 34 0 0
0.2430 0.2237 -1.0709 0.987 -0.035 -0.157 102 71 46 0 0
0.2407 0.2245 -1.0908 1.000 0.024 0.006 46 20 13 0 0
0.2493 0.2257 -1.1166 0.997 0.052 0.050 101 65 35 0 0
0.2495 0.2258 -1.1196 0.997 0.052 0.050 101 66 34 0 0
0.0928 0.1696 0.0965 0.990 -0.143 -0.014 72 34 10 0 0
0.0927 0.1697 0.0936 0.990 -0.143 -0.014 62 29 8 0 0
0.0923 0.1735 0.0032 0.975 -0.192 0.114 67 32 12 0 0
0.0932 0.1747 -0.0262 0.961 0.185 0.207 58 25 7 0 0
0.0966 0.1753 -0.0379 0.990 0.143 -0.013 47 21 8 0 0
0.1871 0.1798 -0.1133 0.726 -0.113 0.678 172 146 130 0 0
0.1889 0.1799 -0.1161 0.807 -0.057 0.588 168 143 130 0 0
0.1367 0.1864 -0.2890 0.995 -0.017 -0.103 48 26 13 0 0
0.1390 0.1868 -0.2976 0.813 0.498 -0.300 47 27 14 0 0
0.1554 0.1880 -0.3217 0.953 0.114 0.282 68 37 19 0 0
0.1629 0.1911 -0.3914 0.808 0.270 0.523 58 29 18 0 0
0.1658 0.1912 -0.3938 0.838 -0.149 0.525 55 25 14 0 0
0.1661 0.1913 -0.3967 0.599 0.106 0.794 55 24 13 0 0
0.1594 0.1933 -0.4457 0.397 0.063 -0.915 79 51 34 0 0
0.1447 0.1933 -0.4519 0.391 0.068 -0.918 69 40 24 0 0
0.1010 0.1958 -0.5266 0.890 -0.340 0.304 61 32 14 0 0
0.1031 0.1980 -0.5790 0.982 -0.101 0.159 69 36 13 0 0
0.1050 0.1984 -0.5878 0.984 -0.014 0.177 71 36 14 0 0
0.1060 0.1986 -0.5906 0.848 0.176 0.501 72 37 15 0 0
0.1062 0.1988 -0.5968 0.973 0.228 0.044 76 41 19 0 0
0.1012 0.1997 -0.6201 0.802 0.596 0.020 64 33 15 0 0
0.0985 0.2004 -0.6367 0.974 0.137 0.181 58 26 11 0 0
0.1028 0.2021 -0.6762 0.917 -0.327 -0.227 56 27 11 0 0
0.1002 0.2025 -0.6866 0.936 -0.350 -0.025 55 26 10 0 0
0.1426 0.2075 -0.7905 0.974 0.207 0.096 48 20 9 0 0
0.1404 0.2076 -0.7945 0.769 -0.262 0.582 49 21 10 0 0
0.1859 0.2105 -0.8470 0.814 0.471 -0.340 71 35 14 0 0
0.1826 0.2118 -0.8794 0.961 0.228 -0.156 87 59 38 0 0
0.1685 0.2139 -0.9329 0.885 0.365 0.291 59 32 20 0 0
0.1852 0.2155 -0.9656 0.821 0.332 0.464 84 67 60 0 0
0.2037 0.2159 -0.9686 0.464 0.446 0.766 87 70 63 0 0
0.2107 0.2161 -0.9712 0.894 0.056 0.445 90 71 64 0 0
0.2117 0.2162 -0.9738 0.903 -0.004 0.430 92 74 64 0 0
0.2337 0.2176 -0.9993 0.994 -0.109 -0.017 94 45 11 0 0
0.2478 0.2196 -1.0407 0.988 0.129 -0.086 100 66 39 0 0
0.2468 0.2204 -1.0597 0.959 0.275 -0.069 102 68 41 0 0
0.2419 0.2208 -1.0718 0.975 0.131 -0.178 102 71 47 0 0
0.0880 0.1660 0.1083 0.472 0.205 0.857 123 92 80 0 0
0.0928 0.1665 0.0993 0.971 -0.093 -0.219 95 53 27 0 0
0.0917 0.1705 0.0031 0.975 -0.192 0.114 67 32 11 0 0
0.0850 0.1717 -0.0293 0.928 -0.371 -0.034 55 24 9 0 0
0.1866 0.1769 -0.1135 0.754 -0.279 0.595 165 138 123 0 0
0.1888 0.1771 -0.1162 0.754 -0.279 0.595 158 132 120 0 0
0.1980 0.1777 -0.1270 0.953 -0.294 0.074 90 45 15 0 0
0.1996 0.1783 -0.1410 0.996 -0.048 -0.070 60 28 11 0 0
0.1435 0.1825 -0.2646 0.928 0.224 -0.296 56 34 23 0 0
0.1366 0.1832 -0.2832 0.914 -0.397 -0.081 54 33 21 0 0
0.1604 0.1881 -0.3920 0.875 -0.215 0.435 56 27 16 0 0
0.1903 0.1899 -0.4213 0.994 -0.062 -0.095 67 32 9 0 0
0.1886 0.1900 -0.4246 1.000 -0.010 0.014 71 34 12 0 0
0.1452 0.1904 -0.4520 0.392 0.103 -0.914 69 40 23 0 0
0.1016 0.1928 -0.5266 0.986 -0.168 -0.009 56 28 12 0 0
0.1018 0.1949 -0.5763 0.996 0.035 0.084 66 34 15 0 0
0.1034 0.1966 -0.6165 0.990 0.027 -0.136 65 33 16 0 0
0.1020 0.1967 -0.6201 0.931 0.293 -0.215 59 27 12 0 0
0.1011 0.1995 -0.6864 0.979 -0.108 -0.172 55 26 10 0 0
0.1140 0.2013 -0.7261 0.984 0.151 0.098 51 21 10 0 0
0.1143 0.2015 -0.7291 0.984 0.151 0.098 51 21 10 0 0
0.1901 0.2076 -0.8453 0.965 -0.018 0.261 72 37 15 0 0
0.1880 0.2083 -0.8648 0.994 0.100 0.046 95 65 46 0 0
0.1812 0.2094 -0.8927 0.868 0.370 -0.332 85 56 35 0 0
0.2047 0.2129 -0.9683 0.539 0.440 0.718 86 69 62 0 0
0.2076 0.2131 -0.9699 0.585 0.278 0.762 88 71 62 0 0
0.2101 0.2132 -0.9717 0.800 0.281 0.530 87 69 61 0 0
0.2117 0.2133 -0.9740 0.858 0.107 0.502 97 80 70 0 0
0.2168 0.2135 -0.9775 0.984 -0.121 0.128 111 92 81 0 0
0.2348 0.2148 -1.0019 0.994 -0.080 0.071 88 40 10 0 0
0.2475 0.2161 -1.0257 1.000 -0.001 -0.029 82 40 12 0 0
0.2474 0.2162 -1.0288 1.000 -0.001 -0.029 85 43 18 0 0
0.2472 0.2166 -1.0381 0.990 -0.026 0.139 101 67 40 0 0
0.2482 0.2167 -1.0406 0.988 0.129 -0.086 100 66 39 0 0
0.2465 0.2190 -1.0970 0.801 0.089 0.592 68 30 11 0 0
0.0927 0.1633 0.1050 0.967 0.014 0.253 145 109 84 0 0
0.0937 0.1635 0.1020 0.990 -0.058 -0.131 122 83 53 0 0
0.0922 0.1635 0.0992 0.847 -0.246 -0.472 81 43 18 0 0
0.0930 0.1674 0.0059 0.993 -0.006 -0.118 66 31 12 0 0
0.0912 0.1675 0.0030 0.956 0.290 0.047 66 32 12 0 0
0.0919 0.1680 -0.0088 0.987 -0.067 0.144 66 34 13 0 0
0.0927 0.1683 -0.0147 0.987 -0.067 0.144 64 32 12 0 0
0.1987 0.1749 -0.1271 0.984 0.173 -0.040 87 41 10 0 0
0.1866 0.1760 -0.1590 0.889 0.383 0.251 62 45 35 0 0
0.1596 0.1852 -0.3923 0.875 -0.238 0.421 55 26 15 0 0
0.1914 0.1871 -0.4241 0.995 -0.062 -0.082 71 35 13 0 0
0.1740 0.1874 -0.4397 0.495 0.078 -0.866 79 51 37 0 0
0.1606 0.1874 -0.4456 0.417 0.127 -0.900 78 50 33 0 0
0.1472 0.1875 -0.4517 0.395 0.163 -0.904 71 42 24 0 0
0.1033 0.1882 -0.4892 0.985 -0.008 0.171 52 24 10 0 0
0.1023 0.1934 -0.6139 0.939 0.289 0.188 58 26 11 0 0
0.1045 0.1956 -0.6665 0.918 -0.136 0.374 53 24 10 0 0
0.1678 0.2023 -0.7993 0.961 -0.080 0.264 51 23 11 0 0
0.1882 0.2051 -0.8586 0.983 0.064 0.174 87 50 27 0 0
0.2086 0.2101 -0.9696 0.585 0.278 0.762 96 79 71 0 0
0.2347 0.2119 -1.0022 0.957 0.127 0.260 82 37 12 0 0
0.2354 0.2121 -1.0049 0.957 0.127 0.260 80 35 10 0 0
0.2361 0.2122 -1.0076 0.957 0.127 0.260 77 35 10 0 0
0.2475 0.2132 -1.0259 1.000 -0.001 -0.029 78 37 10 0 0
0.2464 0.2147 -1.0633 0.926 0.292 -0.240 100 68 43 0 0
0.0944 0.1603 0.1076 0.879 -0.249 0.406 134 105 87 0 0
0.0880 0.1609 0.0906 0.992 -0.037 -0.120 60 28 9 0 0
0.0880 0.1610 0.0877 0.989 -0.132 0.060 61 28 9 0 0
0.0871 0.1638 0.0205 0.988 -0.118 -0.104 59 26 7 0 0
0.0921 0.1646 0.0028 0.956 0.290 0.047 58 25 7 0 0
0.2004 0.1719 -0.1215 0.992 -0.032 -0.120 119 86 64 0 0
0.1972 0.1719 -0.1245 0.903 0.078 0.423 88 46 17 0 0
0.1871 0.1732 -0.1591 0.879 0.457 -0.135 61 44 34 0 0
0.1450 0.1783 -0.3030 0.676 0.529 0.513 54 35 29 0 0
0.1466 0.1784 -0.3058 0.733 0.448 0.512 66 47 40 0 0
0.1539 0.1816 -0.3787 0.903 -0.332 -0.274 47 21 12 0 0
0.1878 0.1839 -0.4192 0.932 -0.261 0.252 70 36 13 0 0
0.1641 0.1846 -0.4450 0.396 0.398 -0.828 76 48 31 0 0
0.1549 0.1846 -0.4501 0.356 0.422 -0.834 73 44 26 0 0
0.1056 0.1893 -0.5880 0.947 0.317 0.057 63 32 14 0 0
0.1701 0.1997 -0.8078 0.930 -0.347 0.121 54 26 14 0 0
0.1589 0.2001 -0.8218 0.977 0.162 0.140 48 20 9 0 0
0.1837 0.2032 -0.8856 0.922 0.375 -0.093 84 55 37 0 0
0.1739 0.2057 -0.9497 0.999 0.024 0.029 44 19 12 0 0
0.1894 0.2064 -0.9608 0.928 0.349 0.128 79 64 57 0 0
0.1913 0.2065 -0.9630 0.932 0.349 -0.099 82 65 58 0 0
0.2271 0.2082 -0.9849 0.863 0.055 0.502 113 94 85 0 0
0.2284 0.2083 -0.9872 0.863 0.055 0.502 101 79 67 0 0
0.2465 0.2106 -1.0358 0.988 0.153 -0.038 93 57 31 0 0
0.2468 0.2108 -1.0387 0.968 0.157 0.194 96 61 36 0 0
0.2475 0.2109 -1.0414 0.990 -0.026 0.139 99 66 40 0 0
0.0878 0.1579 0.0905 0.992 -0.037 -0.120 57 25 7 0 0
0.0840 0.1593 0.0557 0.986 -0.095 0.136 67 32 12 0 0
0.0844 0.1594 0.0527 0.986 -0.095 0.136 67 32 12 0 0
0.0841 0.1595 0.0498 0.984 -0.177 0.022 67 32 12 0 0
0.0864 0.1609 0.0175 0.996 -0.032 0.083 59 26 7 0 0
0.0906 0.1616 0.0027 1.000 0.007 0.030 55 24 7 0 0
0.0909 0.1621 -0.0090 0.974 0.226 0.001 58 25 8 0 0
0.0909 0.1622 -0.0120 0.974 0.226 0.001 56 23 6 0 0
0.0891 0.1623 -0.0149 0.984 -0.064 0.168 57 24 7 0 0
0.1383 0.1660 -0.0785 0.915 -0.040 -0.401 122 102 95 0 0
0.1426 0.1662 -0.0813 0.914 0.079 0.398 68 38 26 0 0
0.1981 0.1696 -0.1358 0.985 0.144 0.099 65 31 13 0 0
0.1229 0.1768 -0.3484 0.904 0.363 -0.227 44 24 13 0 0
0.1930 0.1809 -0.4123 0.878 0.464 0.119 72 36 16 0 0
0.1827 0.1814 -0.4292 0.971 0.009 0.238 70 39 17 0 0
0.1508 0.1816 -0.4511 0.378 0.219 -0.900 75 46 28 0 0
0.0947 0.1866 -0.6008 0.965 0.144 0.221 60 28 11 0 0
0.0985 0.1869 -0.6059 0.983 -0.092 0.156 62 31 14 0 0
0.1161 0.1901 -0.6755 0.879 0.413 0.239 55 26 12 0 0
0.1647 0.1976 -0.8320 0.993 0.110 0.033 47 20 9 0 0
0.1875 0.1987 -0.8469 0.774 0.324 0.544 66 31 11 0 0
0.1739 0.2020 -0.9342 0.956 0.185 0.230 54 26 20 0 0
0.1794 0.2027 -0.9472 0.989 0.033 0.144 45 19 12 0 0
0.1908 0.2032 -0.9540 0.980 0.184 0.071 78 55 44 0 0
0.1909 0.2034 -0.9602 0.962 0.081 -0.261 80 65 58 0 0
0.1899 0.2036 -0.9638 0.962 0.081 -0.261 82 65 58 0 0
0.2383 0.2062 -1.0036 0.950 0.203 0.237 63 25 7 0 0
0.2381 0.2064 -1.0068 0.872 -0.099 0.480 65 26 7 0 0
0.2360 0.2095 -1.0852 0.959 -0.240 0.149 73 42 23 0 0
0.2493 0.2112 -1.1175 0.998 -0.031 0.047 92 57 27 0 0
0.2487 0.2113 -1.1210 0.982 -0.007 0.190 91 58 27 0 0
0.2492 0.2114 -1.1237 0.982 -0.007 0.190 96 63 32 0 0
0.2498 0.2115 -1.1265 0.982 -0.007 0.190 99 67 37 0 0
0.2502 0.2119 -1.1355 0.993 0.035 0.114 108 75 47 0 0
-0.0090 0.1513 0.1265 0.234 0.121 0.965 183 184 185 0 0
0.0862 0.1591 -0.0120 0.993 0.108 -0.050 54 22 7 0 0
0.0860 0.1593 -0.0150 0.993 0.108 -0.050 55 23 7 0 0
0.0841 0.1593 -0.0179 0.970 0.230 -0.083 57 24 7 0 0
0.1401 0.1629 -0.0728 0.997 0.018 0.080 136 118 111 0 0
0.1402 0.1630 -0.0757 0.993 0.111 0.026 127 111 104 0 0
0.1446 0.1635 -0.0871 0.940 0.333 0.069 55 26 12 0 0
0.1999 0.1669 -0.1387 0.986 0.134 -0.101 64 31 12 0 0
0.1289 0.1741 -0.3535 0.920 0.363 -0.150 38 18 9 0 0
0.1285 0.1743 -0.3566 0.986 0.151 -0.071 36 17 10 0 0
0.1932 0.1779 -0.4095 0.911 -0.297 0.285 79 41 24 0 0
0.1919 0.1780 -0.4127 0.993 -0.107 -0.047 73 37 15 0 0
0.1828 0.1785 -0.4293 0.994 0.051 0.099 73 40 20 0 0
0.1852 0.1787 -0.4347 0.914 0.260 0.310 76 50 33 0 0
0.1168 0.1871 -0.6755 0.950 0.023 0.312 50 22 9 0 0
0.1810 0.1946 -0.8221 0.961 -0.178 0.210 46 18 7 0 0
0.1744 0.1990 -0.9341 0.956 0.185 0.230 56 28 19 0 0
0.1801 0.1993 -0.9376 0.920 -0.207 -0.334 42 17 10 0 0
0.2394 0.2033 -1.0032 0.928 0.073 0.365 61 23 5 0 0
0.2475 0.2043 -1.0233 0.996 0.001 0.092 78 41 15 0 0
0.2478 0.2045 -1.0262 0.996 0.001 0.092 81 44 17 0 0
0.2353 0.2066 -1.0857 0.959 -0.240 0.149 73 45 24 0 0
0.2374 0.2067 -1.0876 0.869 -0.233 0.437 65 40 24 0 0
0.2445 0.2075 -1.1020 0.932 0.272 0.241 50 23 10 0 0
0.0846 0.1561 -0.0122 0.995 0.095 -0.002 54 22 7 0 0
0.0839 0.1562 -0.0151 0.999 0.034 -0.001 55 23 8 0 0
0.1450 0.1607 -0.0872 0.988 0.139 0.065 58 28 13 0 0
0.1979 0.1643 -0.1445 0.801 -0.514 -0.306 62 30 15 0 0
0.1519 0.1672 -0.2436 0.922 -0.229 -0.313 55 35 26 0 0
0.1458 0.1702 -0.3211 0.939 0.143 0.312 61 33 16 0 0
0.1338 0.1716 -0.3618 0.974 -0.209 0.091 23 11 7 0 0
0.1887 0.1749 -0.4106 0.620 0.193 0.760 77 40 23 0 0
0.1830 0.1756 -0.4294 0.957 -0.285 0.056 74 40 21 0 0
0.1849 0.1758 -0.4349 0.935 0.010 0.355 73 48 31 0 0
0.1482 0.1758 -0.4550 0.382 -0.001 -0.924 70 41 26 0 0
0.1066 0.1813 -0.6132 0.917 0.280 0.283 59 28 11 0 0
0.1078 0.1820 -0.6316 0.993 0.049 -0.112 53 23 9 0 0
0.1066 0.1821 -0.6351 0.982 0.125 -0.138 54 24 10 0 0
0.1104 0.1841 -0.6809 0.921 -0.337 0.196 47 19 7 0 0
0.1767 0.1962 -0.9363 0.923 0.040 0.383 47 23 14 0 0
0.2417 0.2008 -1.0113 0.890 0.179 0.420 69 31 10 0 0
0.2485 0.2014 -1.0229 0.951 0.185 0.246 74 36 13 0 0
0.2515 0.2052 -1.1135 0.974 -0.027 0.223 85 50 21 0 0
0.2513 0.2053 -1.1166 0.995 -0.096 -0.032 89 55 26 0 0
0.2499 0.2055 -1.1206 0.980 -0.193 -0.042 88 54 25 0 0
0.2527 0.2062 -1.1374 0.991 0.133 0.003 100 70 42 0 0
0.2550 0.2067 -1.1484 0.930 -0.112 -0.349 66 49 39 0 0
0.0790 0.1525 -0.0004 0.950 0.225 0.215 56 23 6 0 0
0.0824 0.1527 -0.0034 0.943 -0.032 0.333 55 22 5 0 0
0.0797 0.1532 -0.0152 0.996 -0.077 0.044 57 25 9 0 0
0.1982 0.1610 -0.1334 0.996 -0.071 0.060 70 34 15 0 0
0.1495 0.1649 -0.2587 0.920 -0.067 0.386 50 30 21 0 0
0.1341 0.1681 -0.3469 0.989 0.070 0.129 46 27 13 0 0
0.1308 0.1681 -0.3505 0.948 0.032 0.316 43 23 13 0 0
0.1500 0.1692 -0.3650 0.925 0.011 -0.380 35 21 14 0 0
0.1477 0.1694 -0.3714 0.914 -0.275 -0.298 35 15 8 0 0
0.1383 0.1696 -0.3821 0.992 -0.005 0.125 43 18 11 0 0
0.1094 0.1811 -0.6814 0.921 -0.337 0.196 48 20 8 0 0
0.1956 0.1908 -0.8654 0.982 0.173 -0.078 89 63 41 0 0
0.1727 0.1926 -0.9258 0.979 0.006 0.202 80 50 32 0 0
0.1737 0.1928 -0.9285 0.970 0.024 0.243 78 47 31 0 0
0.2410 0.1978 -1.0088 0.883 0.290 0.368 76 38 15 0 0
0.2476 0.1998 -1.0543 0.973 0.152 0.176 102 70 45 0 0
0.2517 0.1999 -1.0550 0.999 -0.006 0.043 106 74 49 0 0
0.2506 0.2002 -1.0618 0.998 -0.049 -0.032 96 65 40 0 0
0.2499 0.2024 -1.1177 0.927 0.366 0.079 89 55 27 0 0
0.0796 0.1502 -0.0153 1.000 -0.012 0.020 57 25 10 0 0
0.0797 0.1503 -0.0183 1.000 -0.012 0.020 58 26 9 0 0
0.0797 0.1504 -0.0212 1.000 -0.012 0.020 57 27 9 0 0
0.1451 0.1549 -0.0874 0.923 -0.366 0.119 55 24 11 0 0
0.2012 0.1580 -0.1277 0.966 0.007 0.257 76 36 11 0 0
0.1518 0.1610 -0.2351 0.915 -0.398 -0.064 54 36 26 0 0
0.1420 0.1629 -0.2864 0.892 -0.376 -0.252 47 27 16 0 0
0.1282 0.1649 -0.3451 0.969 -0.242 -0.053 48 29 17 0 0
0.1412 0.1667 -0.3817 0.952 0.142 -0.270 42 17 11 0 0
0.1892 0.1695 -0.4195 0.992 0.017 -0.124 68 33 12 0 0
0.1152 0.1722 -0.5334 0.998 0.053 0.040 62 32 15 0 0
0.1114 0.1735 -0.5685 0.984 0.119 0.132 59 27 10 0 0
0.1118 0.1736 -0.5715 0.984 0.119 0.132 60 29 12 0 0
0.1056 0.1777 -0.6766 0.976 -0.081 -0.204 47 19 7 0 0
0.1203 0.1799 -0.7218 0.968 0.057 -0.244 50 22 10 0 0
0.1799 0.1858 -0.8262 0.922 -0.099 0.374 54 26 14 0 0
0.1810 0.1859 -0.8288 0.922 -0.099 0.374 57 29 16 0 0
0.1817 0.1861 -0.8316 0.902 -0.103 0.418 56 28 13 0 0
0.1829 0.1862 -0.8341 0.902 -0.103 0.418 58 29 15 0 0
0.1841 0.1863 -0.8367 0.902 -0.103 0.418 58 29 14 0 0
0.1833 0.1882 -0.8836 0.941 0.333 -0.052 83 56 36 0 0
0.1834 0.1883 -0.8866 0.954 0.300 0.018 83 56 36 0 0
0.1817 0.1888 -0.8998 0.951 -0.097 -0.293 77 46 26 0 0
0.1748 0.1892 -0.9124 0.955 -0.043 -0.293 80 49 26 0 0
0.1806 0.1907 -0.9472 0.945 -0.269 0.188 45 19 13 0 0
0.2235 0.1933 -0.9814 0.959 -0.217 0.182 104 86 78 0 0
0.2421 0.1949 -1.0084 0.888 0.004 0.459 74 37 11 0 0
0.2497 0.1957 -1.0226 0.947 0.198 0.254 84 47 21 0 0
0.2513 0.1962 -1.0340 0.960 0.198 0.199 86 53 29 0 0
0.2504 0.1994 -1.1145 0.966 0.258 0.015 82 46 18 0 0
0.2504 0.1995 -1.1175 0.966 0.216 0.144 86 52 25 0 0
0.0782 0.1435 0.0759 0.970 -0.208 0.124 63 30 11 0 0
0.0786 0.1450 0.0377 0.967 0.231 0.106 60 24 8 0 0
0.0790 0.1465 0.0023 0.986 0.154 0.058 54 21 4 0 0
0.0797 0.1472 -0.0154 0.998 0.064 0.013 54 23 10 0 0
0.0822 0.1488 -0.0539 0.997 -0.077 -0.010 42 17 6 0 0
0.1448 0.1516 -0.0789 0.992 0.104 -0.066 97 73 60 0 0
0.2023 0.1550 -0.1221 0.971 -0.014 0.238 104 66 43 0 0
0.1468 0.1580 -0.2358 0.853 -0.516 -0.075 54 36 26 0 0
0.1482 0.1585 -0.2474 0.953 -0.054 -0.298 52 32 23 0 0
0.1471 0.1586 -0.2505 0.919 0.170 -0.356 52 32 23 0 0
0.1507 0.1588 -0.2530 0.938 0.160 -0.307 51 31 22 0 0
0.1490 0.1589 -0.2561 0.929 0.369 0.036 50 30 21 0 0
0.1462 0.1605 -0.2977 0.946 0.265 0.188 45 23 13 0 0
0.1490 0.1632 -0.3625 0.977 -0.172 0.127 22 8 4 0 0
0.1494 0.1633 -0.3654 0.980 -0.081 0.184 32 16 10 0 0
0.1497 0.1635 -0.3683 0.959 0.129 -0.251 48 30 21 0 0
0.1476 0.1668 -0.4525 0.401 0.086 -0.912 71 39 24 0 0
0.1352 0.1667 -0.4583 0.407 0.169 -0.898 64 34 18 0 0
0.1077 0.1666 -0.4769 0.993 -0.020 0.116 60 32 13 0 0
0.1120 0.1706 -0.5716 0.997 0.076 0.009 61 29 12 0 0
0.1117 0.1708 -0.5779 0.999 0.043 -0.014 59 28 11 0 0
0.1074 0.1730 -0.6353 0.952 0.005 0.307 54 27 10 0 0
0.1080 0.1732 -0.6382 0.992 0.038 0.121 51 24 7 0 0
0.1158 0.1739 -0.6514 0.999 0.039 0.010 49 19 8 0 0
0.1135 0.1743 -0.6615 0.983 -0.182 -0.030 47 19 7 0 0
0.1039 0.1745 -0.6741 0.989 -0.073 -0.125 46 18 6 0 0
0.1035 0.1746 -0.6774 0.989 -0.073 -0.125 46 18 6 0 0
0.1816 0.1831 -0.8318 0.929 -0.042 0.367 64 35 18 0 0
0.1830 0.1832 -0.8343 0.905 -0.028 0.424 63 34 17 0 0
0.1843 0.1852 -0.8832 0.941 0.333 -0.052 83 55 34 0 0
0.1812 0.1860 -0.9034 0.971 -0.075 -0.226 76 45 25 0 0
0.2379 0.1913 -0.9955 0.922 0.250 0.296 73 35 16 0 0
0.2399 0.1915 -0.9975 0.801 0.211 0.561 69 31 10 0 0
0.2511 0.1939 -1.0496 0.981 0.070 0.180 99 67 42 0 0
0.2515 0.1960 -1.1016 0.985 0.153 0.078 54 25 7 0 0
0.2524 0.1966 -1.1165 0.993 -0.052 0.103 83 51 26 0 0
0.2523 0.1967 -1.1197 0.989 -0.021 0.147 85 52 27 0 0
0.2529 0.1970 -1.1255 0.992 0.064 0.111 92 58 32 0 0
0.2494 0.1977 -1.1462 0.966 -0.260 -0.004 91 64 43 0 0
0.2499 0.1979 -1.1490 0.968 -0.225 0.107 73 51 34 0 0
0.0756 0.1401 0.0847 0.974 -0.177 0.144 61 29 8 0 0
0.0730 0.1401 0.0819 0.929 -0.115 0.353 62 30 9 0 0
0.0757 0.1404 0.0759 0.963 -0.250 0.098 63 30 10 0 0
0.0769 0.1406 0.0729 0.978 -0.134 0.159 63 30 10 0 0
0.0772 0.1407 0.0700 0.983 -0.182 -0.015 64 31 11 0 0
0.0796 0.1434 0.0051 0.983 0.099 0.153 58 25 9 0 0
0.0794 0.1442 -0.0156 0.991 0.132 0.017 52 21 8 0 0
0.0818 0.1458 -0.0541 0.997 -0.048 0.068 42 17 5 0 0
0.1458 0.1490 -0.0847 0.952 -0.293 0.086 53 21 8 0 0
0.1502 0.1493 -0.0904 0.880 -0.051 0.472 53 21 8 0 0
0.1521 0.1552 -0.2353 0.573 0.800 -0.178 53 35 25 0 0
0.1511 0.1553 -0.2384 0.755 0.630 0.183 53 35 25 0 0
0.1464 0.1557 -0.2507 0.751 0.409 -0.519 52 32 23 0 0
0.1507 0.1560 -0.2560 0.963 -0.084 -0.257 51 31 22 0 0
0.1503 0.1561 -0.2590 0.984 0.177 0.026 50 30 21 0 0
0.1442 0.1566 -0.2745 0.993 0.119 0.007 44 24 14 0 0
0.1387 0.1586 -0.3287 0.986 0.024 -0.162 58 33 19 0 0
0.1358 0.1612 -0.3950 0.904 -0.047 -0.426 51 23 11 0 0
0.1375 0.1638 -0.4580 0.421 0.088 -0.903 65 35 18 0 0
0.1126 0.1676 -0.5716 0.987 0.150 -0.051 62 29 10 0 0
0.1098 0.1686 -0.6003 0.966 0.185 0.181 58 25 8 0 0
0.1101 0.1688 -0.6034 0.992 0.059 -0.108 57 24 9 0 0
0.1120 0.1692 -0.6122 0.945 -0.254 0.207 60 27 12 0 0
0.1276 0.1735 -0.7070 0.877 0.088 0.472 50 22 10 0 0
0.1290 0.1736 -0.7096 0.877 0.088 0.472 50 22 10 0 0
0.1810 0.1797 -0.8229 0.897 -0.440 0.031 57 29 15 0 0
0.1811 0.1799 -0.8260 0.947 -0.321 0.005 57 29 15 0 0
0.1778 0.1843 -0.9396 0.976 0.214 -0.042 43 18 10 0 0
0.1782 0.1847 -0.9488 0.949 -0.210 0.234 43 18 12 0 0
0.1879 0.1851 -0.9502 0.863 0.474 -0.172 51 28 15 0 0
0.1896 0.1853 -0.9557 0.698 -0.081 0.711 69 48 36 0 0
0.2285 0.1878 -0.9884 0.875 0.084 0.476 90 68 59 0 0
0.2491 0.1899 -1.0233 0.996 0.012 0.088 75 37 12 0 0
0.2494 0.1900 -1.0262 0.996 0.012 0.088 76 39 13 0 0
0.2496 0.1901 -1.0291 0.995 -0.014 0.101 78 41 15 0 0
0.2397 0.1920 -1.0840 0.969 -0.012 0.247 68 41 23 0 0
0.2514 0.1936 -1.1142 0.970 0.146 0.196 81 46 19 0 0
