ply
format ascii 1.0
element vertex 865
property float x
property float y
property float z
property float nx
property float ny
property float nz
property uchar diffuse_red
property uchar diffuse_green
property uchar diffuse_blue
property uchar class
property uchar detection
end_header
-0.0398 0.1212 -0.7188 0.582 0.773 -0.252 104 94 87 0 0
-0.0681 0.1860 -0.7570 -0.633 0.744 0.215 80 53 36 0 0
-0.0683 0.1862 -0.7602 -0.824 0.562 0.071 79 53 36 0 0
-0.0911 0.2314 -0.8846 -0.196 0.957 0.213 85 57 41 0 0
-0.0875 0.2198 -0.9266 -0.647 0.730 -0.219 79 56 39 0 0
-0.0886 0.2205 -0.9528 -0.012 0.761 0.649 94 70 50 0 0
-0.0906 0.2246 -0.9605 -0.289 0.881 0.375 99 77 64 0 0
-0.0911 0.2256 -0.9633 -0.286 0.894 0.345 95 72 60 0 0
-0.1006 0.2483 -0.9645 -0.786 0.086 0.612 90 67 52 0 0
-0.1017 0.2505 -0.9699 -0.449 0.704 0.550 92 69 54 0 0
-0.1270 0.3050 -1.0525 -0.342 0.918 0.201 97 63 36 0 0
-0.0141 0.1296 0.1149 -0.566 0.047 0.823 185 183 181 0 0
-0.0316 0.1630 0.0011 -0.473 0.842 0.259 74 45 28 0 0
-0.0319 0.1636 -0.0019 -0.573 0.810 0.123 69 40 23 0 0
-0.0310 0.1601 -0.0172 -0.595 0.804 0.003 79 50 31 0 0
-0.0307 0.1593 -0.0202 -0.670 0.712 0.210 78 50 30 0 0
-0.0318 0.1610 -0.0324 -0.730 0.669 -0.140 78 51 32 0 0
-0.0793 0.2631 -0.1826 -0.943 0.165 -0.289 67 47 36 0 0
-0.0742 0.2494 -0.2048 -0.571 0.821 0.012 65 45 34 0 0
-0.0690 0.2359 -0.2183 0.147 0.965 -0.219 66 46 35 0 0
-0.0687 0.2336 -0.2397 -0.037 0.996 -0.083 70 47 36 0 0
-0.0641 0.2207 -0.2658 -0.775 0.555 -0.304 65 43 31 0 0
-0.0329 0.1299 -0.4931 -0.999 0.037 -0.010 140 134 134 0 0
-0.0326 0.1263 -0.5303 -0.995 0.091 0.038 174 172 174 0 0
-0.0327 0.1263 -0.5336 -1.000 0.028 0.005 173 171 174 0 0
-0.0364 0.1228 -0.7019 0.609 0.753 -0.250 108 97 93 0 0
-0.0474 0.1472 -0.7264 -0.976 0.189 0.108 84 63 47 0 0
-0.0661 0.1893 -0.7596 -0.805 0.591 -0.048 79 53 36 0 0
-0.0867 0.2331 -0.8290 -0.375 0.662 0.649 87 60 45 0 0
-0.0884 0.2366 -0.8372 0.215 0.966 -0.146 92 61 46 0 0
-0.0884 0.2331 -0.8845 -0.737 0.676 -0.006 84 55 40 0 0
-0.0876 0.2304 -0.8957 -0.774 0.571 -0.274 78 52 37 0 0
-0.1166 0.2912 -1.0098 -0.408 0.802 0.437 98 55 21 0 0
-0.1172 0.2921 -1.0157 -0.460 0.874 0.158 98 54 19 0 0
-0.0303 0.1697 0.0283 -0.637 0.715 0.287 86 54 29 0 0
-0.0508 0.2111 -0.0735 -0.543 0.839 0.008 106 73 56 0 0
-0.0837 0.2849 -0.1311 -0.401 0.906 0.133 98 55 21 0 0
-0.0802 0.2746 -0.1581 -0.633 0.708 0.313 73 52 41 0 0
-0.0775 0.2665 -0.1795 -0.946 0.321 0.035 67 47 36 0 0
-0.0667 0.2383 -0.2183 -0.678 0.694 0.244 65 45 34 0 0
-0.0674 0.2397 -0.2211 -0.767 0.639 -0.054 65 45 34 0 0
-0.0674 0.2393 -0.2242 -0.773 0.628 -0.087 67 47 36 0 0
-0.0662 0.2355 -0.2397 -0.611 0.784 0.113 70 47 36 0 0
-0.0629 0.2258 -0.2653 -0.334 0.929 0.158 67 45 32 0 0
-0.0631 0.2261 -0.2683 -0.501 0.856 -0.124 70 48 35 0 0
-0.0618 0.2221 -0.2811 -0.561 0.770 -0.304 62 38 26 0 0
-0.0800 0.2538 -0.4370 -0.013 0.873 -0.488 85 54 33 0 0
-0.0327 0.1379 -0.4882 -0.999 0.037 -0.010 86 72 66 0 0
-0.0326 0.1376 -0.4915 -0.999 0.037 -0.010 89 76 70 0 0
-0.0864 0.2401 -0.8362 0.029 0.992 -0.119 89 56 41 0 0
-0.0845 0.2284 -0.9336 -0.367 0.870 0.329 80 52 33 0 0
-0.0891 0.2377 -0.9552 -0.658 0.645 0.389 92 67 52 0 0
-0.1153 0.2961 -1.0078 -0.625 0.519 0.583 96 53 19 0 0
-0.1145 0.2936 -1.0157 -0.460 0.874 0.158 97 53 18 0 0
-0.1198 0.3061 -1.0149 -0.344 0.933 0.106 100 56 21 0 0
-0.1205 0.3076 -1.0172 -0.459 0.879 0.131 101 57 22 0 0
-0.0265 0.1730 0.0883 -0.577 0.696 0.428 95 63 40 0 0
-0.0281 0.1722 0.0252 -0.711 0.655 0.255 87 55 30 0 0
-0.0269 0.1637 -0.0540 -0.535 0.841 -0.079 79 51 31 0 0
-0.0367 0.1863 -0.0624 -0.112 0.448 0.887 91 69 58 0 0
-0.0482 0.2126 -0.0735 -0.563 0.822 0.080 104 71 55 0 0
-0.0615 0.2422 -0.0989 -0.710 0.697 0.098 105 75 62 0 0
-0.0779 0.2767 -0.1581 -0.633 0.708 0.313 72 52 41 0 0
-0.0782 0.2770 -0.1610 -0.431 0.879 0.205 72 52 41 0 0
-0.0781 0.2766 -0.1640 -0.574 0.819 0.009 71 51 40 0 0
-0.0636 0.2374 -0.2337 -0.690 0.634 -0.350 66 46 35 0 0
-0.0638 0.2374 -0.2397 -0.611 0.784 0.113 69 46 35 0 0
-0.0623 0.2337 -0.2432 -0.529 0.847 -0.058 69 46 36 0 0
-0.0605 0.2276 -0.2683 -0.501 0.856 -0.124 67 45 32 0 0
-0.0596 0.2210 -0.3307 -0.640 0.681 -0.355 77 51 34 0 0
-0.0587 0.2187 -0.3342 -0.649 0.563 -0.511 62 40 29 0 0
-0.0569 0.2099 -0.3980 -0.762 0.299 -0.574 73 31 13 0 0
-0.0840 0.2386 -0.8865 -0.832 0.553 0.048 83 55 37 0 0
-0.0829 0.2314 -0.9526 -0.761 0.613 0.212 89 61 40 0 0
-0.0864 0.2392 -0.9584 -0.686 0.726 0.052 91 67 50 0 0
-0.0961 0.2614 -0.9662 -0.423 0.583 0.694 91 68 54 0 0
-0.1138 0.3005 -1.0060 -0.901 0.384 0.202 97 54 20 0 0
-0.1145 0.3020 -1.0084 -0.954 0.299 0.023 98 55 20 0 0
-0.1206 0.3139 -1.0432 -0.496 0.865 0.076 99 65 37 0 0
-0.1195 0.3108 -1.0483 -0.409 0.886 0.219 98 64 36 0 0
-0.1199 0.3115 -1.0543 -0.378 0.925 -0.041 94 63 35 0 0
-0.1205 0.3123 -1.0602 -0.325 0.945 -0.028 92 62 37 0 0
-0.0267 0.1764 0.0220 -0.561 0.647 0.516 92 60 37 0 0
-0.0292 0.1776 -0.0446 -0.738 0.655 -0.164 79 48 30 0 0
-0.0295 0.1773 -0.0598 0.108 0.982 0.155 87 62 48 0 0
-0.0580 0.2417 -0.0961 -0.334 0.663 0.670 89 61 46 0 0
-0.0587 0.2432 -0.0990 -0.239 0.853 0.465 100 70 57 0 0
-0.0788 0.2882 -0.1283 -0.335 0.867 0.368 108 61 26 0 0
-0.0612 0.2395 -0.2336 -0.769 0.581 -0.267 67 47 36 0 0
-0.0616 0.2399 -0.2396 -0.043 0.988 0.147 65 45 34 0 0
-0.0601 0.2360 -0.2462 -0.360 0.917 0.169 67 43 33 0 0
-0.0553 0.2183 -0.3345 -0.847 0.531 -0.017 64 42 30 0 0
-0.0558 0.2151 -0.3972 -0.227 0.934 -0.275 71 33 14 0 0
-0.0538 0.1858 -0.7463 -0.672 0.396 0.625 77 51 34 0 0
-0.0586 0.1963 -0.7553 0.054 0.619 0.783 77 51 37 0 0
-0.0820 0.2456 -0.8350 -0.712 0.701 -0.047 82 49 32 0 0
-0.0883 0.2582 -0.8646 -0.292 0.946 0.138 88 59 38 0 0
-0.0880 0.2572 -0.8716 -0.330 0.944 -0.009 87 60 40 0 0
-0.0842 0.2420 -0.9577 -0.558 0.827 -0.074 90 64 46 0 0
-0.1059 0.2905 -0.9932 -0.528 0.811 -0.253 103 76 57 0 0
-0.1126 0.3054 -1.0040 -0.624 0.782 0.000 98 54 19 0 0
-0.1176 0.3146 -1.0404 -0.253 0.872 0.419 99 63 34 0 0
-0.1180 0.3154 -1.0431 -0.496 0.865 0.076 101 66 38 0 0
-0.1179 0.3147 -1.0500 -0.752 0.647 0.127 96 62 35 0 0
-0.1175 0.3136 -1.0538 -0.582 0.810 0.062 96 62 37 0 0
-0.1199 0.3183 -1.0670 0.141 0.950 0.278 86 58 36 0 0
-0.1233 0.3226 -1.1192 -0.458 0.887 0.063 97 63 35 0 0
-0.0552 0.2427 -0.0962 -0.534 0.724 0.437 88 59 44 0 0
-0.0756 0.2882 -0.1284 -0.395 0.878 0.271 104 57 23 0 0
-0.0760 0.2889 -0.1313 -0.395 0.878 0.271 95 52 18 0 0
-0.0557 0.2313 -0.2744 -0.716 0.684 -0.142 64 40 28 0 0
-0.0533 0.2215 -0.3343 -0.847 0.531 -0.017 66 43 31 0 0
-0.0741 0.2364 -0.8172 -0.516 0.557 0.651 80 50 38 0 0
-0.0762 0.2410 -0.8216 -0.277 0.538 0.796 94 68 52 0 0
-0.0787 0.2462 -0.8289 -0.402 0.914 0.056 83 48 29 0 0
-0.0801 0.2494 -0.8307 -0.314 0.750 0.582 86 53 36 0 0
-0.0858 0.2603 -0.8643 -0.423 0.891 -0.163 89 58 36 0 0
-0.0856 0.2597 -0.8678 -0.547 0.813 -0.197 88 60 39 0 0
-0.0803 0.2415 -0.9489 -0.276 0.943 -0.184 84 54 30 0 0
-0.0865 0.2550 -0.9647 -0.485 0.823 0.295 89 66 52 0 0
-0.0893 0.2615 -0.9645 -0.371 0.656 0.657 89 66 52 0 0
-0.1103 0.3083 -1.0000 -0.545 0.837 -0.048 97 54 20 0 0
-0.1108 0.3092 -1.0026 -0.531 0.847 -0.010 96 52 18 0 0
-0.1142 0.3119 -1.0783 -0.136 0.943 0.303 76 53 41 0 0
-0.1141 0.3114 -1.0819 -0.393 0.919 0.040 65 45 38 0 0
-0.1185 0.3192 -1.1158 -0.276 0.947 0.162 96 60 29 0 0
-0.1227 0.3278 -1.1361 -0.533 0.844 0.060 85 57 35 0 0
-0.0731 0.2897 -0.1285 -0.408 0.888 0.213 98 52 17 0 0
-0.0747 0.2933 -0.1311 -0.526 0.801 0.286 92 49 15 0 0
-0.0713 0.2832 -0.1639 -0.307 0.928 0.212 71 51 41 0 0
-0.0593 0.2500 -0.2357 -0.322 0.931 0.172 65 45 34 0 0
-0.0532 0.2327 -0.2806 -0.545 0.814 -0.202 60 37 23 0 0
-0.0524 0.2280 -0.3242 -0.776 0.630 -0.036 71 36 16 0 0
-0.0517 0.2256 -0.3338 -0.577 0.715 -0.395 70 44 32 0 0
-0.0450 0.2089 -0.3493 -0.758 0.555 -0.342 60 38 27 0 0
-0.0466 0.1855 -0.7410 -0.788 0.393 0.474 74 47 30 0 0
-0.0824 0.2599 -0.8684 -0.682 0.731 -0.025 88 58 37 0 0
-0.0820 0.2585 -0.8789 -0.383 0.825 -0.415 82 54 34 0 0
-0.0828 0.2544 -0.9625 -0.869 0.427 0.251 87 64 48 0 0
-0.1131 0.3207 -1.0256 -0.574 0.734 0.363 104 65 26 0 0
-0.1143 0.3227 -1.0339 -0.617 0.729 0.298 103 63 30 0 0
-0.1147 0.3236 -1.0366 -0.698 0.715 0.050 103 68 38 0 0
-0.1131 0.3178 -1.0659 -0.692 0.703 0.164 89 58 37 0 0
-0.1127 0.3167 -1.0698 -0.600 0.783 -0.162 86 58 36 0 0
-0.1112 0.3125 -1.0788 -0.123 0.948 0.294 75 52 40 0 0
-0.1158 0.3209 -1.1124 -0.519 0.855 0.012 87 50 20 0 0
-0.1189 0.3268 -1.1312 -0.454 0.887 0.084 85 57 35 0 0
-0.1196 0.3282 -1.1367 -0.293 0.922 -0.253 85 57 35 0 0
-0.0495 0.2458 -0.0786 -0.450 0.785 0.425 122 95 86 0 0
-0.0498 0.2462 -0.0815 -0.397 0.915 -0.076 90 60 43 0 0
-0.0504 0.2471 -0.0903 -0.500 0.843 0.199 69 34 14 0 0
-0.0562 0.2506 -0.2329 0.018 0.988 0.152 66 45 34 0 0
-0.0484 0.2219 -0.3875 -0.636 0.628 0.449 69 39 22 0 0
-0.0387 0.1782 -0.6949 -0.502 0.678 0.536 74 44 24 0 0
-0.0394 0.1798 -0.6976 -0.502 0.678 0.536 74 43 24 0 0
-0.0478 0.1974 -0.7238 -0.659 0.643 0.392 71 41 23 0 0
-0.0434 0.1861 -0.7414 -0.228 0.744 0.628 72 43 25 0 0
-0.0448 0.1891 -0.7435 -0.335 0.812 0.477 73 45 26 0 0
-0.0459 0.1915 -0.7459 -0.874 0.403 0.272 73 44 26 0 0
-0.0510 0.2018 -0.7680 -0.715 0.699 -0.006 70 38 24 0 0
-0.0559 0.2120 -0.7867 -0.941 0.316 -0.119 74 43 30 0 0
-0.0557 0.2112 -0.7903 -0.471 0.698 -0.540 71 40 26 0 0
-0.0558 0.2111 -0.7937 -0.481 0.684 -0.549 72 40 25 0 0
-0.0713 0.2460 -0.8109 -0.458 0.880 0.128 75 44 27 0 0
-0.0714 0.2362 -0.9565 -0.690 0.697 -0.198 82 49 27 0 0
-0.0775 0.2507 -0.9521 0.053 0.896 0.442 80 48 27 0 0
-0.0784 0.2521 -0.9612 -0.962 0.215 0.167 88 64 46 0 0
-0.1094 0.3201 -1.0203 -0.535 0.825 0.180 105 62 24 0 0
-0.1099 0.3209 -1.0230 -0.419 0.844 0.334 104 62 24 0 0
-0.1103 0.3189 -1.0693 -0.312 0.896 -0.316 87 58 35 0 0
-0.1096 0.3169 -1.0737 -0.396 0.838 0.376 84 54 39 0 0
-0.1082 0.3131 -1.0826 0.195 0.899 0.392 66 46 38 0 0
-0.1128 0.3220 -1.1060 -0.726 0.670 -0.156 84 44 15 0 0
-0.1146 0.3255 -1.1167 -0.593 0.804 -0.050 95 61 32 0 0
-0.1141 0.3219 -1.1515 -0.754 0.653 0.071 75 49 34 0 0
-0.1137 0.3203 -1.1624 -0.681 0.732 0.004 140 134 125 0 0
-0.1138 0.3202 -1.1657 -0.646 0.757 0.101 168 166 162 0 0
-0.0183 0.1913 0.0725 -0.614 0.766 0.189 92 62 36 0 0
-0.0201 0.1914 0.0126 -0.519 0.641 0.565 91 61 36 0 0
-0.0218 0.1950 0.0066 -0.421 0.899 -0.124 84 52 27 0 0
-0.0214 0.1937 0.0036 -0.550 0.825 -0.127 84 52 27 0 0
-0.0213 0.1933 0.0006 -0.550 0.825 -0.127 84 52 28 0 0
-0.0212 0.1929 -0.0024 -0.550 0.825 -0.127 86 54 31 0 0
-0.0466 0.2465 -0.0787 -0.658 0.722 0.214 117 92 82 0 0
-0.0478 0.2490 -0.0815 -0.569 0.819 0.070 92 62 46 0 0
-0.0471 0.2470 -0.0875 -0.220 0.955 0.199 74 37 17 0 0
-0.0474 0.2475 -0.0904 -0.220 0.955 0.199 69 34 15 0 0
-0.0678 0.2909 -0.1461 -0.064 0.972 -0.224 70 42 22 0 0
-0.0674 0.2894 -0.1550 -0.536 0.842 -0.057 72 52 41 0 0
-0.0668 0.2877 -0.1581 -0.620 0.774 0.130 72 52 41 0 0
-0.0537 0.2523 -0.2329 -0.289 0.940 -0.181 67 45 34 0 0
-0.0491 0.2390 -0.2740 -0.078 0.991 0.107 61 35 22 0 0
-0.0492 0.2391 -0.2771 -0.140 0.989 -0.045 62 36 23 0 0
-0.0360 0.1950 -0.4760 -0.485 0.859 -0.163 83 55 34 0 0
-0.0359 0.1945 -0.4793 -0.525 0.851 -0.005 82 54 33 0 0
-0.0406 0.1917 -0.6806 -0.813 0.582 0.004 76 42 21 0 0
-0.0424 0.1915 -0.7431 -0.864 0.390 0.320 70 36 17 0 0
-0.0444 0.1956 -0.7514 -0.858 0.469 0.210 70 35 16 0 0
-0.0506 0.2083 -0.7758 -0.829 0.474 0.298 67 38 22 0 0
-0.0535 0.2147 -0.7796 -0.868 0.336 -0.366 69 37 22 0 0
-0.0669 0.2438 -0.8093 -0.336 0.640 0.691 71 42 25 0 0
-0.0758 0.2592 -0.8831 0.047 0.999 -0.011 83 54 34 0 0
-0.1080 0.3206 -1.0787 -0.288 0.866 -0.408 67 47 37 0 0
-0.1125 0.3279 -1.1225 -0.327 0.940 -0.098 93 62 34 0 0
-0.1114 0.3228 -1.1616 -0.587 0.808 -0.056 133 127 118 0 0
-0.0159 0.1940 0.0813 -0.663 0.749 -0.006 89 57 36 0 0
-0.0173 0.1938 0.0305 -0.729 0.684 0.014 87 52 30 0 0
-0.0187 0.1963 0.0185 -0.327 0.939 0.103 96 65 39 0 0
-0.0189 0.1965 0.0155 -0.327 0.939 0.103 99 68 42 0 0
-0.0191 0.1968 0.0125 -0.327 0.939 0.103 97 65 39 0 0
-0.0196 0.1977 0.0095 -0.241 0.970 0.010 95 63 38 0 0
-0.0441 0.2474 -0.0906 -0.148 0.985 0.085 67 32 14 0 0
-0.0658 0.2939 -0.1403 -0.489 0.872 0.023 75 38 15 0 0
-0.0655 0.2930 -0.1432 -0.244 0.916 -0.319 71 39 17 0 0
-0.0651 0.2920 -0.1462 -0.244 0.916 -0.319 71 43 23 0 0
-0.0696 0.3018 -0.1541 -0.423 0.902 0.090 71 51 40 0 0
-0.0503 0.2520 -0.2332 -0.580 0.787 -0.210 65 43 32 0 0
-0.0505 0.2523 -0.2361 -0.479 0.877 -0.052 65 43 32 0 0
-0.0463 0.2404 -0.2710 -0.654 0.751 0.089 67 41 28 0 0
-0.0459 0.2390 -0.2773 -0.357 0.916 -0.181 61 35 22 0 0
-0.0462 0.2366 -0.3235 -0.735 0.659 0.156 65 32 13 0 0
-0.0331 0.1960 -0.4794 -0.471 0.881 -0.050 80 51 31 0 0
-0.0496 0.2138 -0.7774 -0.053 0.993 -0.104 69 37 19 0 0
-0.0738 0.2622 -0.8889 -0.024 0.999 0.025 77 50 31 0 0
-0.1095 0.3288 -1.1196 -0.429 0.858 0.281 103 70 42 0 0
-0.1113 0.3318 -1.1370 -0.633 0.767 -0.105 88 60 39 0 0
-0.0133 0.1966 0.0960 -0.806 0.571 0.156 101 69 48 0 0
-0.0137 0.1960 0.0723 -0.456 0.872 -0.178 80 48 27 0 0
-0.0166 0.1990 0.0184 -0.191 0.967 -0.170 88 57 29 0 0
-0.0177 0.2003 0.0004 -0.732 0.680 -0.041 91 59 35 0 0
-0.0168 0.1955 -0.0387 -0.519 0.832 -0.194 85 53 32 0 0
-0.0289 0.2215 -0.0651 -0.517 0.209 0.830 127 107 99 0 0
-0.0421 0.2503 -0.0876 -0.353 0.933 0.067 70 33 15 0 0
-0.0422 0.2502 -0.0935 -0.282 0.875 0.393 58 28 9 0 0
-0.0479 0.2538 -0.2362 -0.378 0.916 -0.131 63 41 30 0 0
-0.0479 0.2537 -0.2392 -0.315 0.948 -0.044 62 40 29 0 0
-0.0478 0.2531 -0.2423 -0.711 0.652 -0.263 61 38 28 0 0
-0.0437 0.2381 -0.3266 -0.759 0.646 0.080 73 42 24 0 0
-0.0315 0.1972 -0.5210 -0.568 0.817 -0.094 81 49 26 0 0
-0.0314 0.1969 -0.5243 -0.568 0.817 -0.094 81 49 26 0 0
-0.0333 0.1960 -0.6053 -0.495 0.848 0.189 87 51 25 0 0
-0.0367 0.1974 -0.6993 -0.614 0.704 0.357 69 34 14 0 0
-0.0378 0.1998 -0.7017 -0.531 0.833 -0.154 69 34 14 0 0
-0.0497 0.2214 -0.7878 -0.433 0.881 -0.189 66 29 13 0 0
-0.0525 0.2272 -0.7951 -0.980 0.146 0.132 70 33 17 0 0
-0.0529 0.2280 -0.7981 -0.971 0.239 -0.001 69 33 17 0 0
-0.0536 0.2295 -0.8007 -0.883 0.468 0.037 69 33 17 0 0
-0.0600 0.2439 -0.8041 -0.734 0.536 0.417 69 34 18 0 0
-0.0608 0.2454 -0.8066 -0.172 0.638 0.750 68 34 17 0 0
-0.0727 0.2685 -0.8703 -0.111 0.972 0.207 85 55 33 0 0
-0.0678 0.2537 -0.9232 -0.529 0.788 0.316 73 45 30 0 0
-0.0995 0.3206 -1.0128 -0.222 0.838 0.499 95 49 15 0 0
-0.1081 0.3378 -1.0505 -0.350 0.937 0.013 92 60 37 0 0
-0.1019 0.3219 -1.0764 -0.371 0.793 0.484 75 51 36 0 0
-0.1025 0.3228 -1.0823 -0.501 0.863 0.066 57 37 28 0 0
-0.1027 0.3230 -1.0854 -0.667 0.726 0.170 51 28 18 0 0
-0.0149 0.2035 0.0333 -0.713 0.694 0.106 92 58 34 0 0
-0.0149 0.2035 0.0303 -0.559 0.823 -0.101 93 58 36 0 0
-0.0135 0.1995 0.0184 -0.662 0.688 0.297 87 56 28 0 0
-0.0142 0.2005 0.0094 -0.736 0.558 0.383 82 47 24 0 0
-0.0525 0.2746 -0.1922 -0.909 0.378 0.176 66 46 37 0 0
-0.0415 0.2407 -0.3264 -0.759 0.646 0.080 70 40 23 0 0
-0.0419 0.2414 -0.3294 -0.735 0.678 0.023 72 44 28 0 0
-0.0588 0.2739 -0.4233 -0.547 0.832 0.095 75 36 11 0 0
-0.0286 0.2010 -0.4853 -0.700 0.640 0.317 79 46 27 0 0
-0.0291 0.2018 -0.4882 -0.683 0.662 0.309 83 50 31 0 0
-0.0293 0.2020 -0.4913 -0.736 0.671 0.087 80 47 28 0 0
-0.0291 0.2007 -0.5045 -0.410 0.912 0.019 81 48 29 0 0
-0.0291 0.2006 -0.5077 -0.472 0.878 0.075 80 47 28 0 0
-0.0293 0.2008 -0.5109 -0.472 0.878 0.075 76 43 24 0 0
-0.0298 0.1976 -0.5761 -0.818 0.574 0.017 80 44 22 0 0
-0.0299 0.1976 -0.5793 -0.818 0.574 0.017 77 41 18 0 0
-0.0305 0.1986 -0.5855 -0.126 0.957 0.262 79 43 19 0 0
-0.0307 0.1987 -0.5919 -0.279 0.959 -0.046 80 44 20 0 0
-0.0306 0.1980 -0.5986 -0.573 0.819 -0.026 85 47 22 0 0
-0.0322 0.1980 -0.6538 -0.525 0.794 0.306 82 45 18 0 0
-0.0426 0.2136 -0.7787 -0.259 0.902 -0.346 60 27 10 0 0
-0.0515 0.2325 -0.8000 -0.891 0.418 0.177 69 34 15 0 0
-0.0701 0.2703 -0.8701 -0.424 0.904 0.061 84 56 35 0 0
-0.0696 0.2690 -0.8740 -0.235 0.972 0.007 83 55 33 0 0
-0.0929 0.3152 -0.9783 -0.065 0.953 -0.297 105 79 66 0 0
-0.1011 0.3307 -1.0300 -0.542 0.810 0.223 97 54 19 0 0
-0.1039 0.3357 -1.0494 -0.419 0.786 0.455 92 59 33 0 0
-0.0996 0.3237 -1.0826 -0.712 0.702 -0.002 64 41 30 0 0
-0.1042 0.3331 -1.0992 -0.779 0.627 -0.028 77 40 15 0 0
-0.1050 0.3338 -1.1181 -0.507 0.850 0.147 105 71 44 0 0
-0.1053 0.3342 -1.1211 -0.507 0.850 0.147 105 71 44 0 0
-0.0366 0.2523 -0.0937 -0.566 0.777 0.275 55 24 7 0 0
-0.0602 0.3027 -0.1429 -0.424 0.850 0.313 73 40 18 0 0
-0.0545 0.2867 -0.1911 -0.403 0.827 -0.392 65 45 36 0 0
-0.0541 0.2854 -0.1942 -0.421 0.780 -0.463 64 44 35 0 0
-0.0381 0.2440 -0.2743 -0.453 0.882 0.131 67 41 28 0 0
-0.0346 0.2316 -0.3407 -0.865 0.359 -0.350 27 12 6 0 0
-0.0483 0.2592 -0.3965 -0.929 0.369 0.030 71 34 15 0 0
-0.0292 0.2050 -0.5614 -0.436 0.867 -0.243 74 39 16 0 0
-0.0282 0.2002 -0.6016 -0.415 0.910 -0.023 86 49 22 0 0
-0.0286 0.1990 -0.6345 -0.642 0.735 0.220 81 44 13 0 0
-0.0296 0.2003 -0.6471 -0.702 0.706 -0.094 83 47 15 0 0
-0.0400 0.2176 -0.7449 -0.789 0.607 -0.099 67 33 13 0 0
-0.0678 0.2741 -0.8496 -0.377 0.926 0.011 84 41 10 0 0
-0.0678 0.2736 -0.8563 -0.428 0.901 -0.067 87 48 19 0 0
-0.0679 0.2736 -0.8595 -0.338 0.941 0.002 87 52 26 0 0
-0.0680 0.2737 -0.8627 -0.323 0.946 0.019 88 56 31 0 0
-0.0648 0.2641 -0.8998 -0.471 0.869 -0.152 67 39 23 0 0
-0.0896 0.3154 -0.9790 -0.080 0.963 -0.259 105 79 66 0 0
-0.0885 0.3125 -0.9838 -0.486 0.843 -0.231 104 79 65 0 0
-0.0894 0.3141 -0.9893 -0.526 0.836 0.157 99 72 57 0 0
-0.0996 0.3349 -1.0284 -0.387 0.921 0.044 97 54 19 0 0
-0.0998 0.3350 -1.0315 -0.387 0.921 0.044 97 54 20 0 0
-0.0999 0.3351 -1.0347 -0.387 0.921 0.044 98 57 23 0 0
-0.1000 0.3352 -1.0378 -0.387 0.921 0.044 98 60 30 0 0
-0.1001 0.3353 -1.0409 -0.387 0.921 0.044 96 61 33 0 0
-0.1021 0.3388 -1.0548 -0.490 0.835 0.251 89 59 35 0 0
-0.1023 0.3353 -1.1148 -0.234 0.972 -0.021 98 63 32 0 0
-0.1031 0.3365 -1.1269 -0.347 0.834 0.429 101 68 42 0 0
-0.0517 0.2923 -0.1178 -0.548 0.545 0.635 170 145 132 0 0
-0.0583 0.3049 -0.1516 -0.248 0.957 0.152 73 51 37 0 0
-0.0585 0.3053 -0.1545 -0.248 0.957 0.152 73 53 42 0 0
-0.0512 0.2876 -0.1736 -0.221 0.949 -0.225 68 48 39 0 0
-0.0300 0.2311 -0.3042 -0.369 0.873 -0.318 48 25 13 0 0
-0.0358 0.2394 -0.3796 -0.668 0.743 0.052 59 30 14 0 0
-0.0374 0.2426 -0.3851 -0.351 0.926 -0.135 57 26 10 0 0
-0.0530 0.2759 -0.4175 -0.532 0.844 0.065 67 26 5 0 0
-0.0522 0.2739 -0.4210 -0.443 0.890 -0.109 71 29 7 0 0
-0.0560 0.2815 -0.4344 -0.242 0.959 0.148 83 53 30 0 0
-0.0216 0.2012 -0.4733 -0.617 0.755 0.223 85 55 33 0 0
-0.0270 0.2010 -0.6669 -0.483 0.828 0.285 78 41 15 0 0
-0.0332 0.2126 -0.7050 -0.774 0.507 0.379 62 26 9 0 0
-0.0377 0.2203 -0.7444 -0.751 0.656 0.078 67 32 12 0 0
-0.0377 0.2201 -0.7478 -0.789 0.607 -0.099 65 31 11 0 0
-0.0416 0.2263 -0.7876 -0.760 0.556 0.336 58 25 10 0 0
-0.0604 0.2659 -0.8348 -0.128 0.734 0.667 71 35 19 0 0
-0.0601 0.2651 -0.8384 -0.165 0.960 -0.225 66 31 14 0 0
-0.0649 0.2754 -0.8464 -0.565 0.803 0.192 76 35 10 0 0
-0.0650 0.2748 -0.8564 -0.567 0.792 0.228 89 50 21 0 0
-0.0633 0.2693 -0.8849 -0.788 0.576 0.215 75 47 33 0 0
-0.0771 0.2950 -0.9719 -0.114 0.696 0.709 107 84 69 0 0
-0.0854 0.3130 -0.9843 -0.488 0.808 0.331 104 79 65 0 0
-0.0910 0.3239 -1.0101 -0.784 0.464 0.412 90 44 11 0 0
-0.0973 0.3382 -1.0113 -0.486 0.868 0.104 97 53 18 0 0
-0.0975 0.3384 -1.0143 -0.486 0.868 0.104 101 57 22 0 0
-0.0966 0.3354 -1.0289 -0.149 0.975 0.164 96 53 18 0 0
-0.0967 0.3355 -1.0320 -0.249 0.958 0.141 96 53 18 0 0
-0.0976 0.3370 -1.0407 -0.309 0.950 -0.049 97 62 32 0 0
-0.1051 0.3477 -1.1365 -0.249 0.968 -0.014 88 59 37 0 0
-0.1055 0.3486 -1.1391 -0.673 0.706 0.220 76 51 33 0 0
-0.0473 0.2846 -0.1947 0.130 0.888 -0.440 64 44 35 0 0
-0.0376 0.2580 -0.2697 -0.022 0.988 -0.152 68 42 29 0 0
-0.0343 0.2432 -0.3853 -0.572 0.819 -0.044 58 28 13 0 0
-0.0435 0.2631 -0.3964 -0.895 0.414 0.164 69 32 14 0 0
-0.0432 0.2621 -0.4027 -0.672 0.332 0.662 75 33 13 0 0
-0.0323 0.2341 -0.4590 -0.279 0.328 -0.902 83 52 30 0 0
-0.0238 0.2032 -0.6406 -0.610 0.765 0.206 94 57 24 0 0
-0.0253 0.2045 -0.6760 -0.549 0.781 0.298 73 39 13 0 0
-0.0280 0.2089 -0.7005 -0.895 0.370 0.250 61 26 8 0 0
-0.0575 0.2669 -0.8383 -0.376 0.669 0.641 71 35 17 0 0
-0.0619 0.2766 -0.8401 -0.270 0.961 -0.055 71 33 13 0 0
-0.0596 0.2686 -0.8828 -0.357 0.931 -0.072 75 46 33 0 0
-0.0596 0.2684 -0.8861 -0.445 0.896 -0.019 74 46 32 0 0
-0.0604 0.2694 -0.8986 -0.570 0.747 -0.342 68 40 27 0 0
-0.0580 0.2630 -0.9149 -0.331 0.943 -0.031 77 49 35 0 0
-0.0575 0.2615 -0.9222 -0.771 0.625 -0.118 72 44 30 0 0
-0.0729 0.2931 -0.9704 -0.017 0.621 0.783 115 92 78 0 0
-0.0741 0.2958 -0.9722 -0.114 0.696 0.709 114 91 77 0 0
-0.0832 0.3155 -0.9837 -0.584 0.609 0.537 103 79 65 0 0
-0.0935 0.3360 -1.0294 -0.149 0.975 0.164 96 53 19 0 0
-0.0938 0.3364 -1.0323 -0.149 0.975 0.164 95 52 18 0 0
-0.0940 0.3367 -1.0353 -0.249 0.958 0.141 97 56 22 0 0
-0.1001 0.3443 -1.1333 -0.455 0.854 0.252 90 59 36 0 0
-0.1018 0.3475 -1.1408 -0.020 0.989 0.145 80 55 35 0 0
0.0047 0.1944 0.1140 -0.357 0.479 0.802 120 96 81 0 0
-0.0476 0.2971 -0.1207 -0.569 0.771 0.286 153 126 112 0 0
-0.0435 0.2831 -0.1950 -0.489 0.864 0.122 64 44 35 0 0
-0.0336 0.2525 -0.3286 -0.438 0.850 -0.292 71 41 24 0 0
-0.0310 0.2437 -0.3794 -0.623 0.780 0.065 54 26 12 0 0
-0.0318 0.2453 -0.3821 -0.462 0.886 -0.029 54 26 12 0 0
-0.0318 0.2450 -0.3853 -0.533 0.836 0.129 53 25 10 0 0
-0.0509 0.2856 -0.4220 -0.478 0.878 -0.016 73 31 12 0 0
-0.0296 0.2191 -0.7200 -0.642 0.488 0.591 57 24 7 0 0
-0.0363 0.2338 -0.7272 -0.454 0.891 0.007 66 31 11 0 0
-0.0356 0.2318 -0.7344 -0.653 0.708 0.268 65 30 10 0 0
-0.0347 0.2295 -0.7386 -0.386 0.910 -0.152 65 30 10 0 0
-0.0595 0.2787 -0.8398 -0.323 0.946 0.018 71 33 11 0 0
-0.0595 0.2786 -0.8430 -0.504 0.864 0.011 73 34 12 0 0
-0.0550 0.2640 -0.9151 -0.331 0.943 -0.031 76 48 34 0 0
-0.0551 0.2639 -0.9184 -0.331 0.943 -0.031 73 45 31 0 0
-0.0563 0.2663 -0.9237 -0.069 0.995 0.079 69 42 23 0 0
-0.0702 0.2946 -0.9704 -0.114 0.696 0.709 109 87 73 0 0
-0.0712 0.2967 -0.9725 -0.096 0.663 0.742 111 89 75 0 0
-0.0908 0.3370 -1.0328 -0.149 0.975 0.164 97 54 22 0 0
-0.0934 0.3401 -1.0757 -0.574 0.810 0.119 69 43 33 0 0
-0.0977 0.3455 -1.1463 -0.082 0.996 -0.023 66 45 30 0 0
-0.0091 0.2305 0.0796 -0.452 0.892 0.022 93 61 40 0 0
-0.0065 0.2237 0.0651 -0.663 0.724 0.193 86 55 34 0 0
-0.0068 0.2242 0.0622 -0.663 0.724 0.193 87 56 33 0 0
-0.0087 0.2280 0.0532 -0.377 0.882 0.281 92 60 37 0 0
-0.0061 0.2219 0.0504 -0.726 0.686 0.051 93 61 36 0 0
-0.0064 0.2224 0.0475 -0.676 0.737 0.020 96 64 39 0 0
-0.0064 0.2224 0.0445 -0.676 0.737 0.020 92 60 35 0 0
-0.0068 0.2230 0.0415 -0.827 0.555 -0.092 92 59 34 0 0
-0.0067 0.2226 0.0386 -0.827 0.555 -0.092 89 55 30 0 0
-0.0450 0.2983 -0.1208 -0.278 0.835 0.474 169 141 127 0 0
-0.0506 0.3088 -0.1547 -0.417 0.909 -0.033 69 50 36 0 0
-0.0354 0.2720 -0.1994 -0.722 0.618 0.312 63 43 34 0 0
-0.0359 0.2729 -0.2023 -0.722 0.618 0.312 63 43 34 0 0
-0.0311 0.2542 -0.3316 -0.640 0.740 0.207 65 38 24 0 0
-0.0311 0.2541 -0.3347 -0.623 0.782 0.029 48 25 15 0 0
-0.0287 0.2458 -0.3793 -0.354 0.934 0.048 52 25 12 0 0
-0.0285 0.2454 -0.3825 -0.437 0.842 0.316 51 24 12 0 0
-0.0288 0.2457 -0.3855 -0.333 0.659 0.674 49 22 8 0 0
-0.0385 0.2666 -0.3994 -0.252 0.631 0.734 71 32 14 0 0
-0.0477 0.2859 -0.4223 -0.402 0.893 0.201 76 34 14 0 0
-0.0367 0.2595 -0.4471 -0.313 0.275 -0.909 87 58 36 0 0
-0.0178 0.2124 -0.5258 -0.587 0.809 -0.027 76 41 19 0 0
-0.0566 0.2795 -0.8433 -0.576 0.806 0.139 73 35 12 0 0
-0.0673 0.2957 -0.9705 0.005 0.847 0.532 101 79 66 0 0
-0.0686 0.2984 -0.9723 -0.221 0.822 0.524 100 78 65 0 0
-0.0840 0.3310 -1.0019 -0.263 0.874 0.407 89 42 8 0 0
-0.0909 0.3434 -1.0521 -0.467 0.884 -0.013 93 59 33 0 0
-0.0897 0.3403 -1.0604 -0.637 0.758 0.143 93 61 36 0 0
-0.0889 0.3369 -1.0850 -0.046 0.967 0.252 47 28 21 0 0
-0.0907 0.3400 -1.0991 -0.823 0.566 -0.046 73 36 16 0 0
-0.0937 0.3450 -1.1281 -0.397 0.918 -0.016 89 58 32 0 0
-0.0946 0.3461 -1.1435 -0.242 0.967 0.086 82 57 36 0 0
-0.0948 0.3462 -1.1467 -0.276 0.958 -0.081 67 46 31 0 0
-0.0945 0.3455 -1.1504 -0.274 0.961 0.045 73 56 39 0 0
-0.0424 0.2997 -0.1208 -0.348 0.895 0.278 163 138 123 0 0
-0.0363 0.2816 -0.1956 -0.332 0.939 -0.083 62 42 33 0 0
-0.0332 0.2745 -0.1994 -0.722 0.618 0.312 62 42 33 0 0
-0.0337 0.2753 -0.2023 -0.722 0.618 0.312 64 44 35 0 0
-0.0342 0.2762 -0.2051 -0.722 0.618 0.312 63 43 34 0 0
-0.0331 0.2735 -0.2114 -0.167 0.970 0.177 62 39 31 0 0
-0.0276 0.2540 -0.3289 -0.537 0.833 -0.135 74 44 27 0 0
-0.0286 0.2560 -0.3316 -0.623 0.782 0.029 70 42 29 0 0
-0.0286 0.2559 -0.3346 -0.631 0.776 -0.014 50 27 17 0 0
-0.0281 0.2546 -0.3379 -0.559 0.745 -0.365 31 13 6 0 0
-0.0273 0.2526 -0.3414 -0.611 0.655 -0.444 48 28 19 0 0
-0.0239 0.2428 -0.3772 -0.157 0.976 0.154 51 24 12 0 0
-0.0366 0.2697 -0.3990 -0.376 0.925 0.059 70 31 13 0 0
-0.0465 0.2898 -0.4308 -0.467 0.868 -0.168 84 48 28 0 0
-0.0463 0.2893 -0.4340 -0.467 0.868 -0.168 83 53 31 0 0
-0.0154 0.2156 -0.5125 -0.670 0.741 0.042 72 37 15 0 0
-0.0153 0.2144 -0.5288 -0.549 0.835 0.028 75 40 18 0 0
-0.0157 0.2139 -0.5514 -0.205 0.903 0.378 79 41 18 0 0
-0.0172 0.2153 -0.5831 -0.468 0.878 -0.100 83 46 19 0 0
-0.0154 0.2102 -0.6009 -0.394 0.850 0.349 86 47 18 0 0
-0.0159 0.2110 -0.6038 -0.446 0.895 -0.022 85 48 19 0 0
-0.0155 0.2100 -0.6074 -0.512 0.857 0.055 87 50 21 0 0
-0.0153 0.2094 -0.6108 -0.450 0.892 0.039 86 49 20 0 0
-0.0155 0.2095 -0.6140 -0.450 0.892 0.039 87 51 20 0 0
-0.0156 0.2096 -0.6173 -0.450 0.892 0.039 88 52 19 0 0
-0.0157 0.2097 -0.6205 -0.450 0.892 0.039 91 54 21 0 0
-0.0160 0.2099 -0.6269 -0.424 0.888 0.179 84 45 14 0 0
-0.0160 0.2072 -0.6701 -0.134 0.981 0.139 72 34 12 0 0
-0.0223 0.2194 -0.7014 -0.729 0.685 -0.018 60 27 10 0 0
-0.0293 0.2328 -0.7352 -0.561 0.825 -0.074 61 25 9 0 0
-0.0286 0.2310 -0.7425 -0.237 0.953 -0.190 58 25 9 0 0
-0.0277 0.2287 -0.7467 -0.109 0.974 -0.200 58 25 9 0 0
-0.0414 0.2551 -0.8133 -0.315 0.862 0.397 60 25 9 0 0
-0.0464 0.2658 -0.8214 -0.653 0.007 0.757 58 26 9 0 0
-0.0546 0.2803 -0.8823 -0.731 0.682 0.031 75 48 35 0 0
-0.0542 0.2788 -0.8928 -0.648 0.756 0.092 69 43 30 0 0
-0.0536 0.2739 -0.9506 -0.661 0.598 0.453 75 41 14 0 0
-0.0619 0.2916 -0.9638 -0.464 0.778 0.424 101 79 68 0 0
-0.0641 0.2961 -0.9711 0.005 0.847 0.532 100 78 66 0 0
-0.0666 0.3016 -0.9713 -0.520 0.551 0.653 102 80 69 0 0
-0.0780 0.3255 -0.9964 -0.302 0.819 0.488 100 65 42 0 0
-0.0882 0.3437 -1.0687 -0.751 0.660 -0.014 84 54 35 0 0
-0.0884 0.3426 -1.0951 -0.640 0.764 0.079 72 39 22 0 0
-0.0889 0.3435 -1.0977 -0.700 0.714 0.012 71 35 16 0 0
-0.0914 0.3472 -1.1276 -0.293 0.951 0.103 87 56 31 0 0
-0.0918 0.3475 -1.1371 -0.310 0.949 0.048 84 58 35 0 0
-0.0917 0.3470 -1.1439 -0.194 0.980 -0.047 83 58 37 0 0
0.0099 0.2046 0.1104 -0.532 0.660 0.531 118 89 74 0 0
-0.0034 0.2307 0.0531 -0.463 0.830 0.311 89 57 34 0 0
-0.0038 0.2315 0.0501 -0.463 0.830 0.311 88 56 32 0 0
-0.0038 0.2312 0.0471 -0.335 0.941 0.034 91 59 36 0 0
-0.0039 0.2313 0.0442 -0.356 0.872 -0.336 96 64 40 0 0
-0.0072 0.2334 -0.0417 -0.309 0.839 0.447 87 53 30 0 0
-0.0078 0.2346 -0.0447 -0.621 0.759 0.198 87 54 31 0 0
-0.0040 0.2254 -0.0569 -0.857 0.427 0.288 98 72 56 0 0
-0.0088 0.2356 -0.0625 -0.142 0.748 0.649 128 109 101 0 0
-0.0107 0.2396 -0.0683 0.156 0.844 0.514 92 68 61 0 0
-0.0326 0.2859 -0.1073 0.108 0.553 0.826 123 90 76 0 0
-0.0398 0.3010 -0.1209 -0.262 0.909 0.323 155 130 113 0 0
-0.0422 0.3059 -0.1263 -0.506 0.838 0.206 93 49 15 0 0
-0.0235 0.2553 -0.2802 -0.143 0.981 0.127 62 34 20 0 0
-0.0252 0.2573 -0.3073 -0.382 0.924 -0.011 74 50 38 0 0
-0.0252 0.2572 -0.3103 -0.382 0.924 -0.011 59 30 18 0 0
-0.0245 0.2544 -0.3291 -0.359 0.924 0.133 77 47 29 0 0
-0.0255 0.2566 -0.3318 -0.492 0.825 0.276 71 44 31 0 0
-0.0258 0.2570 -0.3348 -0.469 0.864 0.180 45 24 15 0 0
-0.0335 0.2702 -0.3992 0.007 0.999 0.039 71 34 15 0 0
-0.0422 0.2882 -0.4195 -0.345 0.931 0.122 70 31 11 0 0
-0.0147 0.2172 -0.5862 -0.552 0.832 -0.058 86 48 21 0 0
-0.0133 0.2132 -0.6004 -0.470 0.793 0.389 87 50 21 0 0
-0.0178 0.2181 -0.6863 -0.641 0.754 0.142 62 27 7 0 0
-0.0206 0.2234 -0.7005 -0.247 0.944 -0.220 59 26 9 0 0
-0.0512 0.2827 -0.8431 -0.470 0.851 0.234 75 33 10 0 0
-0.0569 0.2881 -0.9600 -0.269 0.567 0.779 91 71 58 0 0
-0.0582 0.2911 -0.9617 -0.214 0.725 0.655 91 71 60 0 0
-0.0699 0.3157 -0.9835 -0.614 0.723 0.317 114 91 77 0 0
-0.0758 0.3277 -0.9991 -0.075 0.887 0.456 94 54 27 0 0
-0.0847 0.3431 -1.0732 -0.529 0.845 -0.077 77 50 32 0 0
-0.0894 0.3498 -1.1332 -0.354 0.921 -0.162 85 56 32 0 0
-0.0892 0.3491 -1.1369 -0.279 0.949 -0.150 85 57 35 0 0
-0.0887 0.3478 -1.1410 -0.238 0.962 -0.135 88 60 36 0 0
-0.0886 0.3474 -1.1445 -0.445 0.892 -0.077 88 61 40 0 0
-0.0885 0.3470 -1.1480 -0.365 0.921 -0.139 71 50 35 0 0
-0.0890 0.3478 -1.1507 -0.454 0.891 0.015 70 54 38 0 0
0.0140 0.2030 0.1105 -0.189 0.489 0.852 121 94 78 0 0
0.0093 0.2131 0.1069 -0.500 0.546 0.672 118 90 77 0 0
-0.0004 0.2311 0.0501 -0.184 0.899 0.398 86 54 31 0 0
-0.0012 0.2328 0.0471 -0.575 0.786 0.228 89 57 34 0 0
-0.0174 0.2609 -0.0824 -0.219 0.973 0.071 70 38 19 0 0
-0.0376 0.3032 -0.1209 -0.738 0.675 -0.026 154 127 110 0 0
-0.0230 0.2584 -0.3287 -0.491 0.865 0.102 78 47 30 0 0
-0.0232 0.2588 -0.3317 -0.511 0.839 0.190 69 42 28 0 0
-0.0235 0.2592 -0.3346 -0.471 0.879 0.076 45 24 15 0 0
-0.0235 0.2591 -0.3377 -0.467 0.836 -0.288 29 12 5 0 0
-0.0231 0.2581 -0.3410 -0.441 0.797 -0.412 51 33 22 0 0
-0.0199 0.2486 -0.3797 -0.394 0.916 -0.076 48 22 11 0 0
-0.0302 0.2702 -0.3996 0.007 0.999 0.039 70 32 14 0 0
-0.0108 0.2174 -0.5641 -0.304 0.942 0.145 77 39 16 0 0
-0.0172 0.2232 -0.7044 -0.317 0.932 0.177 57 24 7 0 0
-0.0167 0.2218 -0.7082 -0.482 0.856 0.184 58 25 8 0 0
-0.0500 0.2871 -0.8482 -0.613 0.778 -0.136 85 41 13 0 0
-0.0501 0.2872 -0.8513 -0.489 0.860 0.143 85 44 15 0 0
-0.0482 0.2808 -0.8867 -0.345 0.930 -0.127 73 47 32 0 0
-0.0492 0.2828 -0.8922 -0.488 0.872 -0.034 68 42 27 0 0
-0.0468 0.2763 -0.9117 -0.626 0.779 0.035 63 35 21 0 0
-0.0672 0.3170 -0.9836 -0.439 0.825 0.357 107 84 70 0 0
-0.0724 0.3278 -0.9966 -0.480 0.724 0.496 101 67 44 0 0
-0.0812 0.3450 -1.0344 -0.449 0.853 0.268 95 54 22 0 0
-0.0816 0.3457 -1.0372 -0.449 0.853 0.268 91 52 21 0 0
-0.0827 0.3460 -1.0722 -0.283 0.959 0.028 76 50 31 0 0
-0.0833 0.3457 -1.1013 -0.541 0.783 0.308 73 35 9 0 0
0.0168 0.2042 0.1104 -0.134 0.413 0.901 123 95 80 0 0
0.0117 0.2151 0.1068 -0.460 0.476 0.749 123 95 82 0 0
0.0004 0.2372 0.0616 -0.371 0.879 -0.301 84 52 29 0 0
-0.0369 0.3081 -0.1294 -0.425 0.899 0.106 89 41 9 0 0
-0.0374 0.3081 -0.1497 -0.403 0.879 -0.255 69 46 32 0 0
-0.0175 0.2565 -0.2806 -0.123 0.977 0.177 62 34 20 0 0
-0.0174 0.2561 -0.2837 -0.233 0.961 0.151 65 37 23 0 0
-0.0172 0.2552 -0.2899 -0.468 0.853 -0.230 62 34 20 0 0
-0.0187 0.2583 -0.2955 -0.409 0.867 0.286 60 32 18 0 0
-0.0204 0.2599 -0.3318 -0.665 0.595 0.452 69 42 28 0 0
-0.0209 0.2609 -0.3346 -0.668 0.639 0.381 46 26 17 0 0
-0.0210 0.2609 -0.3377 -0.697 0.717 -0.017 28 12 5 0 0
-0.0201 0.2586 -0.3442 -0.606 0.676 -0.420 61 40 26 0 0
-0.0170 0.2495 -0.3799 -0.222 0.967 0.122 46 20 10 0 0
-0.0371 0.2914 -0.4194 -0.664 0.721 0.197 69 31 9 0 0
-0.0388 0.2951 -0.4216 -0.611 0.792 0.002 75 34 14 0 0
-0.0078 0.2200 -0.5382 -0.407 0.900 0.158 77 42 20 0 0
-0.0081 0.2205 -0.5412 -0.407 0.900 0.158 77 42 20 0 0
-0.0093 0.2224 -0.5534 -0.328 0.904 0.275 78 40 17 0 0
-0.0084 0.2188 -0.5802 -0.531 0.840 0.111 86 48 21 0 0
-0.0094 0.2177 -0.6355 -0.450 0.884 0.125 87 47 17 0 0
-0.0117 0.2208 -0.6668 -0.435 0.889 0.143 67 31 7 0 0
-0.0137 0.2241 -0.6884 -0.105 0.975 0.197 60 25 6 0 0
-0.0142 0.2239 -0.7113 -0.476 0.843 0.249 59 26 9 0 0
-0.0352 0.2655 -0.7880 -0.209 0.952 -0.222 58 24 9 0 0
-0.0343 0.2626 -0.8022 -0.507 0.861 -0.040 63 30 15 0 0
-0.0370 0.2680 -0.8127 -0.579 0.716 0.390 57 24 9 0 0
-0.0396 0.2730 -0.8265 -0.700 0.640 0.317 58 26 8 0 0
-0.0402 0.2741 -0.8293 -0.509 0.732 0.453 58 27 9 0 0
-0.0402 0.2740 -0.8325 -0.674 0.555 0.486 60 27 10 0 0
-0.0453 0.2819 -0.8869 -0.463 0.869 -0.176 71 45 30 0 0
-0.0419 0.2719 -0.9311 -0.372 0.911 0.178 73 44 26 0 0
-0.0539 0.2963 -0.9636 -0.433 0.826 0.360 106 84 73 0 0
-0.0587 0.3066 -0.9709 0.136 0.759 0.636 98 76 65 0 0
0.0165 0.2118 0.1070 0.024 0.536 0.844 122 93 79 0 0
0.0094 0.2271 0.1002 -0.913 0.389 0.122 147 120 108 0 0
0.0023 0.2403 0.0615 -0.457 0.888 0.048 93 60 36 0 0
0.0034 0.2377 0.0586 -0.851 0.497 0.169 85 54 30 0 0
-0.0004 0.2399 -0.0478 -0.538 0.832 0.135 65 37 17 0 0
-0.0005 0.2398 -0.0508 -0.619 0.785 0.012 54 28 13 0 0
-0.0242 0.2886 -0.1076 -0.373 0.333 0.866 128 95 82 0 0
-0.0284 0.2976 -0.1100 -0.764 0.546 0.344 119 86 73 0 0
-0.0341 0.3091 -0.1266 -0.425 0.899 0.106 93 49 17 0 0
-0.0343 0.3093 -0.1294 -0.425 0.899 0.106 89 42 11 0 0
-0.0158 0.2592 -0.2956 -0.328 0.915 0.235 58 30 16 0 0
-0.0190 0.2649 -0.3190 -0.574 0.818 -0.032 70 38 17 0 0
-0.0188 0.2636 -0.3344 -0.651 0.535 0.539 46 26 17 0 0
-0.0190 0.2637 -0.3375 -0.735 0.677 0.036 28 11 5 0 0
-0.0140 0.2502 -0.3801 -0.266 0.962 0.063 46 20 11 0 0
-0.0359 0.2962 -0.4156 -0.483 0.858 0.174 69 28 6 0 0
-0.0364 0.2970 -0.4215 -0.611 0.792 0.002 73 33 12 0 0
-0.0366 0.2968 -0.4306 -0.584 0.805 -0.101 83 46 25 0 0
-0.0061 0.2219 -0.5701 -0.573 0.812 0.113 82 45 18 0 0
-0.0080 0.2215 -0.6477 -0.411 0.908 0.081 85 45 16 0 0
-0.0082 0.2217 -0.6508 -0.411 0.908 0.081 86 45 17 0 0
-0.0083 0.2219 -0.6540 -0.411 0.908 0.081 84 43 16 0 0
-0.0085 0.2220 -0.6572 -0.439 0.896 0.069 80 40 14 0 0
-0.0086 0.2222 -0.6604 -0.439 0.896 0.069 76 37 12 0 0
-0.0087 0.2221 -0.6637 -0.315 0.948 -0.047 72 35 12 0 0
-0.0100 0.2243 -0.6758 -0.255 0.902 0.348 61 26 7 0 0
-0.0106 0.2253 -0.6787 -0.255 0.902 0.348 61 26 7 0 0
-0.0183 0.2388 -0.7384 -0.395 0.906 0.153 57 24 7 0 0
-0.0363 0.2732 -0.8239 -0.654 0.715 0.247 59 26 9 0 0
-0.0393 0.2738 -0.9276 -0.532 0.841 -0.101 70 43 24 0 0
-0.0395 0.2739 -0.9341 -0.410 0.822 0.394 74 43 23 0 0
-0.0514 0.2983 -0.9633 -0.473 0.801 0.368 105 83 72 0 0
-0.0522 0.2998 -0.9657 -0.434 0.747 0.504 98 76 65 0 0
-0.0533 0.3021 -0.9676 -0.326 0.737 0.592 95 73 62 0 0
-0.0613 0.3190 -0.9808 -0.304 0.915 0.266 102 78 66 0 0
-0.0768 0.3499 -1.0331 -0.486 0.872 0.065 94 53 21 0 0
-0.0770 0.3501 -1.0362 -0.486 0.872 0.065 93 54 22 0 0
-0.0771 0.3502 -1.0393 -0.490 0.858 0.157 93 56 25 0 0
-0.0812 0.3548 -1.1133 -0.398 0.872 0.287 98 64 35 0 0
0.0045 0.2431 0.0672 -0.390 0.902 0.184 96 60 27 0 0
0.0020 0.2414 -0.0539 -0.493 0.848 0.193 40 22 15 0 0
0.0015 0.2423 -0.0568 -0.528 0.846 0.066 72 53 44 0 0
-0.0293 0.3060 -0.1183 -0.277 0.848 0.451 148 123 111 0 0
-0.0313 0.3100 -0.1267 -0.450 0.869 0.207 89 44 14 0 0
-0.0316 0.3106 -0.1295 -0.432 0.869 0.241 84 39 8 0 0
-0.0327 0.3124 -0.1381 -0.284 0.940 0.188 66 30 6 0 0
-0.0296 0.3043 -0.1620 -0.587 0.807 -0.062 66 46 35 0 0
-0.0165 0.2666 -0.3190 -0.516 0.853 -0.074 69 36 15 0 0
-0.0154 0.2634 -0.3317 -0.701 0.479 0.529 65 39 23 0 0
-0.0179 0.2657 -0.3863 0.327 0.893 0.309 73 42 30 0 0
-0.0333 0.2976 -0.4156 -0.483 0.858 0.174 70 29 7 0 0
-0.0331 0.2972 -0.4188 -0.501 0.840 0.208 72 31 8 0 0
-0.0340 0.2986 -0.4275 -0.521 0.849 -0.089 77 39 17 0 0
-0.0021 0.2239 -0.5156 -0.307 0.943 0.130 68 36 14 0 0
-0.0031 0.2235 -0.5572 -0.398 0.916 -0.060 77 41 19 0 0
-0.0046 0.2216 -0.6482 -0.549 0.830 -0.094 85 45 16 0 0
-0.0076 0.2264 -0.6789 -0.580 0.732 0.358 60 25 6 0 0
-0.0081 0.2274 -0.6817 -0.580 0.732 0.358 61 26 7 0 0
-0.0141 0.2378 -0.7265 -0.261 0.835 0.484 54 22 7 0 0
-0.0156 0.2404 -0.7384 -0.186 0.973 0.138 59 23 7 0 0
-0.0214 0.2517 -0.7629 -0.441 0.891 0.106 59 23 7 0 0
-0.0232 0.2548 -0.7778 0.081 0.956 0.283 58 24 12 0 0
-0.0273 0.2627 -0.7937 -0.478 0.733 0.485 58 25 10 0 0
-0.0295 0.2673 -0.7981 -0.771 0.632 0.083 62 26 10 0 0
-0.0337 0.2752 -0.8204 -0.096 0.954 0.284 58 22 8 0 0
-0.0341 0.2760 -0.8232 -0.096 0.954 0.284 59 23 9 0 0
-0.0346 0.2768 -0.8261 -0.096 0.954 0.284 60 24 10 0 0
-0.0353 0.2782 -0.8287 -0.152 0.945 0.289 58 22 7 0 0
-0.0415 0.2894 -0.8716 -0.640 0.749 -0.174 80 52 31 0 0
-0.0488 0.3001 -0.9631 -0.198 0.965 0.174 102 80 69 0 0
-0.0498 0.3020 -0.9652 0.058 0.894 0.445 96 74 63 0 0
-0.0671 0.3376 -1.0029 -0.379 0.710 0.593 91 47 12 0 0
-0.0678 0.3391 -1.0052 -0.379 0.710 0.593 92 46 13 0 0
-0.0739 0.3510 -1.0301 -0.536 0.829 0.158 101 58 25 0 0
-0.0742 0.3514 -1.0330 -0.486 0.872 0.065 96 55 23 0 0
-0.0743 0.3515 -1.0361 -0.486 0.872 0.065 94 55 23 0 0
-0.0745 0.3517 -1.0392 -0.469 0.851 0.237 94 55 26 0 0
-0.0749 0.3524 -1.0420 -0.479 0.844 0.242 93 56 29 0 0
-0.0741 0.3490 -1.0729 -0.441 0.896 -0.055 82 54 34 0 0
0.0128 0.2338 0.0969 -0.617 0.656 0.434 139 112 100 0 0
0.0121 0.2351 0.0939 -0.617 0.656 0.434 123 98 86 0 0
0.0077 0.2429 0.0642 -0.457 0.888 0.048 87 42 13 0 0
0.0072 0.2440 0.0613 -0.558 0.695 0.454 82 40 11 0 0
0.0024 0.2467 -0.0716 -0.838 0.540 0.076 100 76 71 0 0
0.0030 0.2454 -0.0747 -0.334 0.923 0.191 110 91 83 0 0
-0.0269 0.3078 -0.1183 -0.165 0.907 0.388 153 129 118 0 0
-0.0288 0.3114 -0.1267 -0.355 0.935 0.005 85 39 11 0 0
-0.0291 0.3120 -0.1296 -0.448 0.890 0.078 84 39 8 0 0
-0.0272 0.3060 -0.1620 -0.587 0.807 -0.062 66 46 35 0 0
-0.0273 0.3061 -0.1649 -0.246 0.967 0.067 65 47 35 0 0
-0.0244 0.2980 -0.1950 -0.274 0.779 -0.564 63 43 32 0 0
-0.0093 0.2606 -0.2777 -0.574 0.818 -0.032 59 33 18 0 0
-0.0099 0.2610 -0.2929 -0.161 0.987 0.018 68 40 26 0 0
-0.0306 0.2987 -0.4188 -0.501 0.840 0.208 78 37 14 0 0
-0.0207 0.2757 -0.4458 -0.233 0.343 -0.910 89 57 37 0 0
0.0027 0.2224 -0.4878 -0.520 0.851 0.075 66 35 15 0 0
0.0001 0.2217 -0.6001 -0.494 0.855 0.156 85 45 19 0 0
-0.0028 0.2263 -0.6276 -0.198 0.943 0.269 85 48 19 0 0
-0.0068 0.2314 -0.6938 -0.427 0.903 0.050 61 26 8 0 0
-0.0079 0.2325 -0.7161 -0.521 0.812 0.262 51 20 3 0 0
-0.0107 0.2381 -0.7237 -0.349 0.807 0.477 54 22 7 0 0
-0.0115 0.2397 -0.7263 -0.303 0.783 0.543 54 22 7 0 0
-0.0123 0.2412 -0.7289 -0.303 0.783 0.543 54 22 5 0 0
-0.0122 0.2402 -0.7423 -0.398 0.909 0.124 57 24 7 0 0
-0.0134 0.2425 -0.7512 -0.228 0.974 -0.019 59 26 9 0 0
-0.0175 0.2502 -0.7706 -0.401 0.682 0.612 55 21 9 0 0
-0.0286 0.2720 -0.8129 -0.769 0.339 0.542 58 22 8 0 0
-0.0300 0.2748 -0.8180 -0.147 0.928 0.343 58 22 8 0 0
-0.0311 0.2768 -0.8235 -0.263 0.907 0.329 57 21 7 0 0
-0.0316 0.2777 -0.8264 -0.263 0.907 0.329 57 21 7 0 0
-0.0322 0.2789 -0.8290 -0.357 0.891 0.282 57 21 5 0 0
-0.0362 0.2825 -0.9180 -0.587 0.773 -0.241 69 41 28 0 0
-0.0449 0.2991 -0.9611 -0.191 0.833 0.519 101 79 68 0 0
-0.0452 0.2995 -0.9642 -0.314 0.948 0.056 105 83 72 0 0
-0.0555 0.3211 -0.9779 -0.303 0.903 0.305 99 80 66 0 0
-0.0559 0.3219 -0.9807 -0.303 0.903 0.305 103 82 69 0 0
-0.0565 0.3229 -0.9833 -0.192 0.942 0.274 101 78 65 0 0
-0.0599 0.3298 -0.9923 -0.329 0.944 -0.018 101 79 65 0 0
-0.0629 0.3359 -0.9983 -0.360 0.833 0.420 92 56 24 0 0
-0.0634 0.3370 -1.0009 -0.360 0.833 0.420 91 48 13 0 0
-0.0659 0.3421 -1.0075 -0.461 0.700 0.545 89 43 10 0 0
-0.0713 0.3523 -1.0333 -0.432 0.886 0.166 89 47 15 0 0
-0.0715 0.3526 -1.0363 -0.466 0.841 0.276 90 51 20 0 0
-0.0719 0.3533 -1.0391 -0.466 0.841 0.276 93 55 26 0 0
-0.0716 0.3494 -1.0960 -0.571 0.764 0.300 51 23 12 0 0
-0.0756 0.3569 -1.1169 -0.453 0.870 0.194 98 66 38 0 0
-0.0757 0.3556 -1.1436 -0.245 0.965 -0.093 89 61 40 0 0
-0.0757 0.3553 -1.1469 -0.281 0.956 -0.084 76 52 36 0 0
0.0314 0.2014 0.1106 0.166 0.534 0.829 123 94 78 0 0
0.0150 0.2361 0.0968 -0.458 0.684 0.568 140 112 100 0 0
0.0143 0.2373 0.0938 -0.617 0.656 0.434 131 104 92 0 0
0.0106 0.2438 0.0642 -0.391 0.920 -0.011 71 30 10 0 0
0.0056 0.2499 -0.0183 -0.501 0.865 -0.000 94 59 31 0 0
0.0048 0.2486 -0.0717 -0.775 0.624 0.102 100 76 67 0 0
0.0057 0.2467 -0.0748 -0.199 0.940 0.279 113 94 85 0 0
-0.0048 0.2684 -0.0915 -0.307 0.858 0.411 64 29 12 0 0
-0.0060 0.2709 -0.0944 -0.386 0.670 0.634 76 41 27 0 0
-0.0076 0.2740 -0.0971 -0.537 0.692 0.483 107 82 68 0 0
-0.0215 0.2989 -0.1922 -0.690 0.703 -0.172 63 44 32 0 0
-0.0099 0.2701 -0.2554 -0.070 0.997 -0.028 62 40 29 0 0
-0.0265 0.2961 -0.4349 -0.642 0.766 0.026 78 46 25 0 0
-0.0184 0.2778 -0.4456 -0.269 0.321 -0.908 84 52 32 0 0
0.0052 0.2243 -0.4877 -0.430 0.883 0.190 57 28 12 0 0
0.0022 0.2244 -0.6029 -0.451 0.889 -0.077 87 47 19 0 0
0.0025 0.2236 -0.6065 -0.546 0.836 0.053 84 45 16 0 0
0.0024 0.2237 -0.6096 -0.546 0.836 0.053 78 38 9 0 0
-0.0010 0.2303 -0.6235 -0.546 0.795 0.263 89 52 23 0 0
-0.0034 0.2318 -0.6877 -0.373 0.924 0.085 69 32 12 0 0
-0.0167 0.2556 -0.7787 -0.563 0.817 0.123 56 22 10 0 0
-0.0258 0.2733 -0.8129 -0.723 0.682 0.109 58 22 8 0 0
-0.0263 0.2741 -0.8157 -0.557 0.793 0.246 58 22 8 0 0
-0.0271 0.2757 -0.8182 -0.253 0.894 0.370 58 22 8 0 0
-0.0345 0.2904 -0.8436 -0.363 0.831 0.421 71 30 8 0 0
-0.0349 0.2912 -0.8464 -0.370 0.844 0.388 74 32 8 0 0
-0.0432 0.3023 -0.9666 -0.152 0.919 0.363 97 75 64 0 0
-0.0569 0.3307 -0.9925 -0.380 0.925 0.002 97 75 61 0 0
-0.0587 0.3342 -0.9969 -0.527 0.710 0.466 96 63 40 0 0
-0.0631 0.3436 -1.0010 -0.127 0.828 0.546 88 44 10 0 0
-0.0628 0.3424 -1.0081 -0.396 0.872 0.287 87 41 8 0 0
-0.0652 0.3474 -1.0115 -0.454 0.806 0.381 90 44 11 0 0
-0.0692 0.3547 -1.0390 -0.466 0.841 0.276 95 56 27 0 0
-0.0696 0.3554 -1.0418 -0.466 0.841 0.276 93 56 29 0 0
-0.0700 0.3561 -1.0446 -0.383 0.873 0.301 92 57 29 0 0
-0.0680 0.3500 -1.0740 -0.393 0.899 -0.193 83 55 34 0 0
-0.0677 0.3487 -1.0844 -0.512 0.853 0.103 53 33 24 0 0
-0.0685 0.3497 -1.0999 -0.219 0.971 0.099 57 24 12 0 0
-0.0687 0.3500 -1.1030 -0.124 0.971 0.206 66 29 8 0 0
-0.0729 0.3583 -1.1168 -0.349 0.884 0.311 96 64 36 0 0
-0.0721 0.3560 -1.1248 -0.394 0.916 0.078 94 63 37 0 0
-0.0723 0.3564 -1.1277 -0.450 0.882 0.138 93 61 36 0 0
-0.0728 0.3564 -1.1439 -0.361 0.931 -0.061 89 61 40 0 0
-0.0729 0.3566 -1.1470 -0.412 0.910 -0.049 77 53 37 0 0
0.0079 0.2559 0.0491 -0.759 0.647 0.069 138 106 83 0 0
0.0082 0.2483 -0.0748 -0.822 0.561 0.097 108 87 75 0 0
0.0069 0.2508 -0.0807 -0.561 0.795 0.232 97 69 56 0 0
-0.0025 0.2704 -0.0916 -0.252 0.831 0.495 64 30 11 0 0
-0.0199 0.3023 -0.1950 -0.005 0.996 -0.085 63 43 32 0 0
-0.0076 0.2689 -0.3164 -0.397 0.899 0.183 66 31 12 0 0
-0.0241 0.2981 -0.4348 -0.642 0.766 0.026 81 48 28 0 0
0.0071 0.2236 -0.5618 -0.442 0.897 -0.004 74 38 16 0 0
0.0060 0.2258 -0.5644 -0.330 0.912 0.243 73 37 16 0 0
0.0055 0.2267 -0.5705 -0.426 0.895 0.131 76 39 17 0 0
0.0033 0.2269 -0.6511 -0.329 0.937 -0.121 87 49 20 0 0
0.0035 0.2261 -0.6579 -0.329 0.937 -0.121 82 43 15 0 0
-0.0005 0.2336 -0.6779 -0.338 0.941 -0.012 67 31 9 0 0
-0.0003 0.2329 -0.6814 -0.330 0.933 0.143 69 33 12 0 0
-0.0002 0.2325 -0.6848 -0.343 0.920 0.191 69 32 12 0 0
-0.0005 0.2330 -0.6878 -0.373 0.924 0.085 69 32 12 0 0
-0.0013 0.2343 -0.6938 -0.448 0.882 0.149 68 32 13 0 0
-0.0060 0.2426 -0.7296 -0.324 0.909 0.263 56 24 7 0 0
-0.0134 0.2570 -0.7561 -0.383 0.919 0.091 59 26 9 0 0
-0.0110 0.2505 -0.7816 -0.658 0.691 0.300 55 22 10 0 0
-0.0233 0.2754 -0.8126 -0.395 0.898 0.192 58 22 8 0 0
-0.0237 0.2759 -0.8156 -0.557 0.793 0.246 58 22 8 0 0
-0.0241 0.2767 -0.8185 -0.437 0.868 0.235 58 24 9 0 0
-0.0491 0.3218 -0.9791 -0.198 0.829 0.522 105 82 69 0 0
-0.0578 0.3395 -0.9979 -0.635 0.773 0.000 91 54 26 0 0
-0.0643 0.3522 -1.0223 -0.247 0.946 0.211 94 50 16 0 0
-0.0648 0.3529 -1.0282 -0.511 0.827 0.235 95 51 17 0 0
-0.0670 0.3568 -1.0418 -0.466 0.841 0.276 94 58 32 0 0
-0.0679 0.3585 -1.0471 -0.501 0.866 0.014 93 59 32 0 0
-0.0683 0.3591 -1.0531 -0.693 0.662 0.287 89 56 31 0 0
-0.0686 0.3595 -1.0561 -0.505 0.812 0.293 88 55 31 0 0
-0.0657 0.3518 -1.0834 -0.198 0.979 0.051 53 33 22 0 0
-0.0657 0.3511 -1.0967 -0.556 0.814 -0.171 48 19 8 0 0
-0.0654 0.3502 -1.1005 -0.502 0.816 -0.285 57 23 9 0 0
-0.0663 0.3520 -1.1026 -0.516 0.855 0.048 65 28 7 0 0
-0.0692 0.3573 -1.1184 -0.363 0.926 -0.106 98 64 36 0 0
-0.0691 0.3570 -1.1218 -0.433 0.901 -0.041 97 66 38 0 0
-0.0698 0.3581 -1.1308 -0.377 0.879 0.292 94 62 39 0 0
-0.0691 0.3559 -1.1387 -0.234 0.971 0.040 92 62 37 0 0
0.0099 0.2586 0.0490 -0.158 0.875 0.457 137 106 85 0 0
0.0093 0.2597 0.0461 -0.431 0.847 0.311 137 97 64 0 0
0.0090 0.2593 0.0286 -0.638 0.770 0.005 100 63 36 0 0
0.0090 0.2593 0.0256 -0.638 0.770 0.005 101 64 37 0 0
0.0091 0.2587 0.0227 -0.334 0.872 0.359 106 69 42 0 0
0.0072 0.2623 0.0139 -0.400 0.916 -0.021 110 75 45 0 0
0.0072 0.2623 0.0110 -0.400 0.916 -0.021 113 78 48 0 0
0.0067 0.2623 -0.0066 -0.352 0.935 0.051 100 63 34 0 0
0.0069 0.2618 -0.0095 -0.571 0.820 0.044 102 65 36 0 0
0.0094 0.2552 -0.0302 -0.722 0.670 0.170 98 62 36 0 0
0.0090 0.2560 -0.0332 -0.620 0.740 0.260 95 59 32 0 0
0.0101 0.2528 -0.0480 -0.669 0.670 -0.320 17 7 3 0 0
-0.0209 0.3147 -0.1327 -0.329 0.864 0.381 80 38 14 0 0
-0.0035 0.2707 -0.2528 -0.326 0.921 0.213 62 40 29 0 0
-0.0024 0.2618 -0.3731 -0.257 0.931 0.258 44 20 13 0 0
-0.0226 0.3025 -0.4220 -0.541 0.829 0.140 73 36 10 0 0
0.0098 0.2288 -0.4968 -0.483 0.876 0.002 61 30 16 0 0
0.0024 0.2342 -0.6879 -0.373 0.924 0.085 66 30 10 0 0
0.0017 0.2353 -0.6940 -0.413 0.884 0.218 66 31 10 0 0
0.0014 0.2358 -0.6971 -0.344 0.909 0.235 65 30 9 0 0
-0.0031 0.2437 -0.7297 -0.341 0.911 0.232 59 28 10 0 0
-0.0035 0.2444 -0.7327 -0.326 0.904 0.276 55 24 8 0 0
-0.0045 0.2461 -0.7417 -0.478 0.760 0.441 59 28 10 0 0
-0.0104 0.2571 -0.7728 -0.294 0.931 0.216 53 21 7 0 0
-0.0148 0.2647 -0.8084 -0.450 0.881 0.145 57 24 9 0 0
-0.0198 0.2752 -0.8101 -0.141 0.975 0.171 60 24 10 0 0
-0.0201 0.2757 -0.8131 -0.141 0.975 0.171 58 22 8 0 0
-0.0203 0.2761 -0.8162 -0.116 0.972 0.204 58 22 8 0 0
-0.0300 0.2900 -0.9391 -0.335 0.942 0.005 76 42 18 0 0
-0.0274 0.2842 -0.9455 -0.550 0.733 0.399 78 42 17 0 0
-0.0304 0.2906 -0.9453 -0.240 0.965 0.110 74 38 12 0 0
-0.0393 0.3088 -0.9646 -0.089 0.671 0.736 96 76 65 0 0
-0.0404 0.3109 -0.9667 -0.089 0.671 0.736 91 71 60 0 0
-0.0434 0.3170 -0.9730 -0.137 0.718 0.683 99 79 67 0 0
-0.0462 0.3227 -0.9794 -0.270 0.771 0.577 97 75 62 0 0
-0.0554 0.3414 -0.9975 -0.635 0.773 0.000 84 45 20 0 0
-0.0560 0.3426 -1.0000 -0.612 0.735 0.292 88 42 15 0 0
-0.0565 0.3435 -1.0027 -0.431 0.869 0.244 84 38 8 0 0
-0.0572 0.3450 -1.0050 -0.512 0.784 0.352 82 37 6 0 0
-0.0612 0.3528 -1.0195 -0.358 0.867 0.346 88 43 10 0 0
-0.0617 0.3536 -1.0222 -0.378 0.841 0.386 92 47 14 0 0
-0.0622 0.3544 -1.0281 -0.511 0.827 0.235 93 50 16 0 0
-0.0636 0.3562 -1.0494 -0.584 0.812 0.008 97 62 36 0 0
-0.0657 0.3605 -1.0531 -0.679 0.725 0.118 90 58 35 0 0
-0.0624 0.3517 -1.0843 -0.511 0.852 0.115 51 31 20 0 0
-0.0629 0.3525 -1.0902 -0.569 0.819 -0.077 36 15 10 0 0
-0.0627 0.3519 -1.0938 -0.740 0.666 -0.093 41 17 8 0 0
-0.0630 0.3525 -1.0967 -0.627 0.752 -0.202 52 23 8 0 0
-0.0664 0.3582 -1.1251 -0.462 0.881 0.106 94 63 37 0 0
-0.0664 0.3579 -1.1318 -0.556 0.831 -0.031 94 62 39 0 0
-0.0665 0.3576 -1.1385 -0.492 0.861 0.128 91 60 35 0 0
0.0112 0.2616 0.0285 -0.659 0.732 -0.172 102 65 38 0 0
0.0113 0.2612 0.0256 -0.638 0.770 0.005 103 66 39 0 0
0.0113 0.2611 0.0226 -0.383 0.831 0.404 102 65 38 0 0
0.0103 0.2630 0.0168 -0.359 0.909 0.213 107 70 41 0 0
0.0100 0.2635 0.0138 -0.400 0.916 -0.021 111 74 45 0 0
0.0099 0.2634 0.0109 -0.400 0.916 -0.021 112 75 46 0 0
0.0085 0.2657 -0.0037 -0.319 0.938 0.132 105 68 39 0 0
0.0081 0.2660 -0.0125 -0.184 0.979 0.083 102 67 39 0 0
0.0081 0.2656 -0.0184 -0.252 0.952 0.173 99 64 36 0 0
0.0117 0.2575 -0.0303 -0.714 0.624 0.317 96 60 34 0 0
0.0111 0.2583 -0.0362 -0.835 0.541 0.100 88 53 26 0 0
0.0127 0.2542 -0.0511 -0.719 0.613 -0.327 8 5 6 0 0
0.0122 0.2539 -0.0748 -0.750 0.539 -0.382 110 84 71 0 0
-0.0011 0.2730 -0.2497 -0.060 0.998 0.024 61 40 30 0 0
-0.0013 0.2731 -0.2527 -0.093 0.993 -0.066 62 40 29 0 0
-0.0012 0.2727 -0.2558 -0.023 0.999 -0.027 63 41 30 0 0
0.0022 0.2633 -0.2966 -0.481 0.872 0.092 56 30 13 0 0
-0.0006 0.2676 -0.3294 -0.120 0.912 0.392 77 48 27 0 0
-0.0034 0.2731 -0.3345 -0.169 0.773 0.611 35 15 7 0 0
0.0005 0.2627 -0.3733 -0.194 0.930 0.312 45 21 14 0 0
0.0011 0.2612 -0.3767 -0.149 0.973 -0.176 44 19 12 0 0
-0.0094 0.2801 -0.4462 -0.171 0.364 -0.916 83 51 31 0 0
0.0120 0.2298 -0.5257 -0.544 0.804 0.239 60 31 15 0 0
0.0121 0.2284 -0.5485 -0.451 0.889 0.079 66 34 13 0 0
0.0123 0.2278 -0.5519 -0.388 0.919 0.076 69 35 13 0 0
0.0104 0.2278 -0.6292 -0.321 0.942 -0.102 89 52 23 0 0
-0.0002 0.2450 -0.7298 -0.497 0.864 -0.081 57 25 7 0 0
-0.0009 0.2461 -0.7358 -0.252 0.909 0.333 55 23 8 0 0
-0.0017 0.2474 -0.7451 -0.333 0.700 0.631 62 31 12 0 0
-0.0118 0.2663 -0.7954 -0.200 0.961 0.190 55 23 8 0 0
-0.0275 0.2919 -0.9421 -0.461 0.862 -0.212 80 44 19 0 0
-0.0398 0.3168 -0.9706 -0.172 0.630 0.757 98 78 67 0 0
