ply
format ascii 1.0
element vertex 871
property float x
property float y
property float z
property float nx
property float ny
property float nz
property uchar diffuse_red
property uchar diffuse_green
property uchar diffuse_blue
property uchar class
property uchar detection
end_header
-0.0612 0.2684 -0.9343 -0.554 0.832 -0.003 85 54 31 0 0
-0.0568 0.2622 -0.9514 -0.664 0.719 0.208 82 46 22 0 0
-0.0646 0.2721 -0.9583 -0.163 0.872 0.461 85 58 38 0 0
-0.0677 0.2761 -0.9656 -0.240 0.939 0.245 106 87 75 0 0
-0.0925 0.3077 -0.9937 -0.550 0.828 0.114 101 72 58 0 0
-0.1054 0.3239 -1.0182 -0.554 0.680 0.481 97 53 18 0 0
-0.1062 0.3246 -1.0305 -0.536 0.828 0.164 99 59 26 0 0
-0.1065 0.3240 -1.0665 -0.883 0.469 -0.015 84 53 32 0 0
-0.1035 0.3194 -1.0927 -0.577 0.765 0.286 45 20 13 0 0
-0.0053 0.2280 0.0705 -0.754 0.646 0.119 73 37 13 0 0
-0.0298 0.2558 -0.0824 -0.513 0.664 0.544 65 33 16 0 0
-0.0660 0.3017 -0.1341 -0.644 0.698 0.314 86 44 15 0 0
-0.0527 0.2831 -0.1741 -0.695 0.691 0.198 67 47 38 0 0
-0.0532 0.2838 -0.1769 -0.784 0.619 0.035 67 47 38 0 0
-0.0115 0.2202 -0.5107 -0.641 0.757 0.131 71 36 16 0 0
-0.0105 0.2184 -0.5305 -0.741 0.647 0.177 75 40 20 0 0
-0.0109 0.2188 -0.5336 -0.741 0.647 0.177 77 42 22 0 0
-0.0149 0.2223 -0.5968 -0.423 0.905 -0.038 81 44 18 0 0
-0.0148 0.2220 -0.6033 -0.420 0.907 0.012 84 47 18 0 0
-0.0217 0.2286 -0.6882 -0.760 0.531 0.375 57 24 7 0 0
-0.0245 0.2315 -0.7163 -0.887 0.373 0.271 55 23 9 0 0
-0.0269 0.2343 -0.7346 -0.891 0.405 -0.203 56 24 9 0 0
-0.0276 0.2347 -0.7507 -0.534 0.796 0.285 56 24 10 0 0
-0.0372 0.2462 -0.7874 -0.443 0.897 -0.013 54 18 6 0 0
-0.0375 0.2465 -0.7905 -0.308 0.930 0.201 55 19 7 0 0
-0.0625 0.2773 -0.8584 -0.518 0.841 -0.155 87 51 22 0 0
-0.0586 0.2701 -0.9345 -0.554 0.832 -0.003 84 50 29 0 0
-0.0587 0.2701 -0.9378 -0.554 0.832 -0.003 86 52 27 0 0
-0.0587 0.2700 -0.9411 -0.554 0.832 -0.003 83 48 24 0 0
-0.0588 0.2701 -0.9443 -0.479 0.840 0.257 80 44 20 0 0
-0.0610 0.2727 -0.9559 -0.792 0.511 0.335 81 48 25 0 0
-0.0652 0.2781 -0.9557 -0.222 0.867 0.446 88 60 42 0 0
-0.0659 0.2790 -0.9584 -0.290 0.862 0.415 89 65 52 0 0
-0.0667 0.2800 -0.9611 -0.290 0.862 0.415 94 72 60 0 0
-0.1034 0.3260 -1.0277 -0.641 0.717 0.274 97 54 18 0 0
-0.1026 0.3229 -1.1045 -0.352 0.907 0.232 74 36 9 0 0
0.0091 0.2151 0.1036 -0.078 0.834 0.546 135 114 106 0 0
-0.0030 0.2272 -0.0334 -0.809 0.580 0.095 73 37 13 0 0
-0.0034 0.2276 -0.0364 -0.805 0.557 0.205 75 39 15 0 0
-0.0254 0.2550 -0.0796 -0.469 0.720 0.512 105 81 69 0 0
-0.0365 0.2689 -0.0993 -0.346 0.348 0.871 105 78 67 0 0
-0.0262 0.2505 -0.2876 -0.711 0.693 -0.119 60 34 19 0 0
-0.0258 0.2497 -0.2938 -0.640 0.753 -0.153 64 38 23 0 0
-0.0244 0.2455 -0.3841 -0.719 0.695 0.019 48 21 9 0 0
-0.0513 0.2798 -0.4087 -0.663 0.663 0.346 114 89 74 0 0
-0.0519 0.2806 -0.4115 -0.604 0.739 0.297 85 48 26 0 0
-0.0103 0.2236 -0.5198 -0.675 0.732 0.092 72 37 17 0 0
-0.0217 0.2331 -0.7164 -0.544 0.828 0.136 56 24 10 0 0
-0.0220 0.2335 -0.7196 -0.544 0.828 0.136 56 24 9 0 0
-0.0362 0.2499 -0.7931 -0.545 0.836 0.064 55 19 5 0 0
-0.0408 0.2556 -0.7999 -0.714 0.668 0.209 55 19 5 0 0
-0.0603 0.2793 -0.8649 -0.437 0.895 0.091 85 52 29 0 0
-0.0497 0.2635 -0.9431 -0.172 0.981 -0.094 85 51 26 0 0
-0.0564 0.2722 -0.9443 -0.604 0.682 0.413 77 41 16 0 0
-0.0622 0.2793 -0.9562 -0.491 0.836 0.245 81 52 36 0 0
-0.0631 0.2804 -0.9588 -0.323 0.925 0.200 91 68 56 0 0
-0.0635 0.2809 -0.9618 -0.323 0.925 0.200 94 72 61 0 0
-0.1060 0.3319 -1.1187 -0.472 0.881 -0.041 96 65 36 0 0
0.0269 0.1971 0.1135 -0.075 0.380 0.922 124 99 87 0 0
0.0081 0.2213 0.1033 -0.653 0.702 0.285 127 105 96 0 0
-0.0061 0.2364 -0.0183 -0.642 0.766 -0.033 72 34 11 0 0
-0.0036 0.2331 -0.0244 -0.707 0.692 0.149 72 34 11 0 0
-0.0462 0.2862 -0.1069 -0.410 0.297 0.862 121 87 73 0 0
-0.0517 0.2915 -0.1765 -0.312 0.700 -0.643 69 49 40 0 0
-0.0235 0.2514 -0.3062 -0.315 0.948 -0.037 69 48 40 0 0
-0.0240 0.2518 -0.3153 -0.583 0.803 0.126 55 22 5 0 0
-0.0221 0.2477 -0.3810 -0.617 0.697 0.366 46 21 13 0 0
-0.0242 0.2501 -0.3897 -0.449 0.767 0.457 74 45 30 0 0
-0.0267 0.2533 -0.3950 -0.278 0.646 0.711 76 37 21 0 0
-0.0517 0.2849 -0.4200 -0.584 0.790 0.187 73 31 9 0 0
-0.0080 0.2252 -0.5360 -0.385 0.921 0.051 77 42 22 0 0
-0.0093 0.2253 -0.5972 -0.452 0.892 0.001 85 48 22 0 0
-0.0127 0.2275 -0.6807 -0.517 0.839 0.170 61 26 7 0 0
-0.0131 0.2279 -0.6838 -0.517 0.839 0.170 60 25 6 0 0
-0.0131 0.2277 -0.6937 -0.577 0.812 0.087 57 26 8 0 0
-0.0149 0.2297 -0.7026 -0.535 0.828 0.167 53 21 6 0 0
-0.0167 0.2318 -0.7180 -0.553 0.777 0.302 55 23 8 0 0
-0.0158 0.2305 -0.7219 -0.663 0.697 0.273 54 22 7 0 0
-0.0275 0.2446 -0.7609 -0.482 0.869 -0.107 60 28 13 0 0
-0.0278 0.2446 -0.7740 -0.837 0.519 0.175 56 20 8 0 0
-0.0414 0.2613 -0.8109 -0.898 0.323 0.298 58 23 9 0 0
-0.0584 0.2826 -0.8350 -0.347 0.772 0.533 68 30 11 0 0
-0.0581 0.2791 -0.9543 -0.498 0.668 0.553 81 48 26 0 0
-0.0601 0.2816 -0.9593 -0.406 0.864 0.300 99 75 65 0 0
-0.0616 0.2835 -0.9614 -0.476 0.580 0.661 100 78 68 0 0
-0.0893 0.3183 -1.0034 -0.512 0.787 0.345 88 41 9 0 0
-0.0974 0.3286 -1.0092 -0.421 0.886 0.192 91 45 12 0 0
-0.0961 0.3268 -1.0137 -0.502 0.842 0.198 93 47 12 0 0
-0.1007 0.3314 -1.0653 -0.668 0.723 -0.176 84 53 32 0 0
0.0303 0.1978 0.1135 -0.135 0.313 0.940 125 100 88 0 0
0.0066 0.2281 0.1030 -0.608 0.683 0.405 125 98 86 0 0
0.0059 0.2289 0.1000 -0.602 0.714 0.358 145 120 107 0 0
0.0051 0.2299 0.0970 -0.677 0.730 0.096 134 106 93 0 0
0.0049 0.2301 0.0940 -0.677 0.730 0.096 128 101 83 0 0
-0.0019 0.2378 0.0526 -0.711 0.702 -0.039 70 32 9 0 0
-0.0043 0.2379 -0.0631 -0.795 0.546 0.266 102 83 74 0 0
-0.0057 0.2396 -0.0660 -0.694 0.567 0.443 99 79 70 0 0
-0.0268 0.2628 -0.2255 -0.558 0.822 0.110 60 38 27 0 0
-0.0247 0.2590 -0.2685 -0.615 0.780 -0.120 58 34 23 0 0
-0.0252 0.2594 -0.2745 -0.684 0.729 0.004 66 41 28 0 0
-0.0243 0.2582 -0.2778 -0.757 0.646 0.098 64 39 26 0 0
-0.0200 0.2521 -0.2942 -0.542 0.749 0.382 61 34 18 0 0
-0.0210 0.2510 -0.3900 -0.345 0.735 0.583 70 40 25 0 0
-0.0051 0.2269 -0.5233 -0.501 0.865 -0.026 69 36 16 0 0
-0.0034 0.2244 -0.5338 -0.507 0.837 0.204 70 35 13 0 0
-0.0038 0.2249 -0.5368 -0.507 0.837 0.204 75 40 17 0 0
-0.0066 0.2269 -0.5973 -0.427 0.890 0.160 83 44 18 0 0
-0.0082 0.2275 -0.6555 -0.672 0.739 0.040 78 40 13 0 0
-0.0078 0.2269 -0.6590 -0.709 0.697 -0.111 77 37 12 0 0
-0.0111 0.2301 -0.7001 -0.732 0.657 -0.178 54 23 6 0 0
-0.0110 0.2298 -0.7035 -0.635 0.722 0.275 55 23 8 0 0
-0.0126 0.2319 -0.7058 -0.513 0.748 0.420 56 24 10 0 0
-0.0131 0.2324 -0.7088 -0.590 0.799 0.117 56 24 10 0 0
-0.0122 0.2312 -0.7127 -0.815 0.579 0.024 56 24 10 0 0
-0.0142 0.2336 -0.7181 -0.605 0.770 0.204 55 23 9 0 0
-0.0305 0.2530 -0.7870 -0.917 0.392 0.077 58 22 8 0 0
-0.0300 0.2522 -0.7907 -0.706 0.667 0.240 57 21 8 0 0
-0.0329 0.2559 -0.7920 -0.641 0.738 0.210 57 22 8 0 0
-0.0436 0.2687 -0.8275 -0.932 0.299 0.206 61 25 9 0 0
-0.0441 0.2693 -0.8305 -0.932 0.299 0.206 61 24 7 0 0
-0.0618 0.2912 -0.8699 -0.468 0.810 0.352 78 50 33 0 0
-0.0489 0.2725 -0.9499 -0.734 0.576 0.360 74 37 12 0 0
-0.0556 0.2810 -0.9543 -0.498 0.668 0.553 82 48 27 0 0
-0.0567 0.2823 -0.9568 -0.486 0.686 0.541 89 60 45 0 0
-0.0577 0.2836 -0.9593 -0.457 0.737 0.498 88 66 53 0 0
-0.0589 0.2851 -0.9616 -0.377 0.469 0.799 92 72 61 0 0
-0.0868 0.3200 -1.0036 -0.512 0.787 0.345 89 40 9 0 0
-0.0915 0.3258 -1.0157 -0.413 0.903 0.118 93 48 14 0 0
-0.0006 0.2389 -0.0274 -0.596 0.802 0.027 74 36 12 0 0
0.0008 0.2371 -0.0304 -0.906 0.422 0.011 73 36 10 0 0
-0.0024 0.2405 -0.0601 -0.546 0.822 0.164 92 68 59 0 0
-0.0023 0.2402 -0.0631 -0.616 0.788 -0.009 92 73 63 0 0
-0.0023 0.2401 -0.0661 -0.616 0.788 -0.009 95 75 64 0 0
-0.0401 0.2877 -0.1101 -0.193 0.663 0.724 128 97 80 0 0
-0.0507 0.3010 -0.1234 -0.705 0.697 0.132 122 85 59 0 0
-0.0513 0.3011 -0.1525 -0.519 0.854 0.025 71 49 37 0 0
-0.0259 0.2666 -0.2222 -0.861 0.506 0.048 61 39 28 0 0
-0.0243 0.2644 -0.2256 -0.103 0.994 0.032 61 39 28 0 0
-0.0225 0.2595 -0.3267 -0.628 0.767 0.132 77 46 27 0 0
0.0008 0.2259 -0.4668 -0.785 0.613 -0.094 80 49 28 0 0
0.0014 0.2239 -0.5154 -0.636 0.763 -0.113 67 35 14 0 0
0.0012 0.2240 -0.5186 -0.675 0.690 0.260 68 36 15 0 0
0.0010 0.2242 -0.5250 -0.768 0.619 0.165 67 35 14 0 0
-0.0007 0.2256 -0.5502 -0.593 0.805 0.017 70 34 12 0 0
-0.0009 0.2258 -0.5533 -0.514 0.858 -0.011 70 34 12 0 0
0.0051 0.2180 -0.5594 -0.534 0.843 0.065 73 37 15 0 0
0.0055 0.2172 -0.5662 -0.663 0.741 0.105 78 42 19 0 0
0.0055 0.2172 -0.5694 -0.587 0.810 -0.006 80 43 19 0 0
-0.0051 0.2285 -0.6625 -0.481 0.872 -0.091 80 40 15 0 0
-0.0043 0.2270 -0.6762 -0.719 0.643 0.263 65 29 9 0 0
-0.0113 0.2351 -0.7151 -0.781 0.624 0.024 54 22 9 0 0
-0.0186 0.2437 -0.7437 -0.620 0.746 0.243 56 25 7 0 0
-0.0224 0.2484 -0.7545 -0.412 0.878 0.244 60 29 11 0 0
-0.0480 0.2765 -0.9453 -0.540 0.826 0.161 73 36 12 0 0
-0.0469 0.2749 -0.9496 -0.734 0.576 0.360 72 34 11 0 0
-0.0527 0.2824 -0.9514 -0.440 0.822 0.362 73 34 12 0 0
-0.0544 0.2845 -0.9567 -0.492 0.743 0.455 90 61 45 0 0
-0.0553 0.2855 -0.9593 -0.492 0.743 0.455 88 67 53 0 0
-0.0857 0.3239 -0.9925 -0.574 0.814 0.090 99 65 46 0 0
-0.0954 0.3355 -1.0264 -0.417 0.710 0.568 97 53 20 0 0
-0.1031 0.3427 -1.1343 -0.579 0.814 -0.031 89 59 36 0 0
-0.1080 0.3491 -1.1325 -0.422 0.748 0.511 86 59 37 0 0
0.0388 0.1967 0.1137 -0.022 0.430 0.903 127 105 91 0 0
0.0360 0.2003 0.1105 -0.066 0.469 0.881 127 96 78 0 0
0.0187 0.2223 0.1063 -0.055 0.991 0.124 125 95 78 0 0
0.0028 0.2390 -0.0424 -0.726 0.685 -0.064 62 27 7 0 0
-0.0370 0.2885 -0.1102 -0.151 0.700 0.698 120 89 73 0 0
-0.0486 0.3031 -0.1235 -0.705 0.697 0.132 121 85 57 0 0
-0.0474 0.3007 -0.1586 -0.520 0.829 -0.205 69 50 36 0 0
-0.0441 0.2957 -0.1886 -0.702 0.688 0.183 65 45 36 0 0
-0.0253 0.2706 -0.2220 -0.977 0.208 -0.037 62 40 29 0 0
-0.0198 0.2622 -0.2748 -0.694 0.720 0.013 66 39 27 0 0
-0.0198 0.2622 -0.2778 -0.694 0.720 0.013 63 37 24 0 0
-0.0156 0.2560 -0.3096 -0.713 0.678 0.177 67 41 28 0 0
-0.0162 0.2565 -0.3217 -0.586 0.781 0.217 73 41 20 0 0
0.0035 0.2262 -0.5186 -0.675 0.690 0.260 70 38 17 0 0
0.0025 0.2271 -0.5343 -0.689 0.696 0.203 69 34 12 0 0
0.0024 0.2251 -0.6192 -0.485 0.823 0.295 87 50 22 0 0
-0.0008 0.2286 -0.6405 -0.481 0.872 0.089 88 49 20 0 0
-0.0066 0.2345 -0.6999 -0.521 0.853 0.034 60 28 9 0 0
-0.0087 0.2370 -0.7086 -0.516 0.838 0.178 56 24 11 0 0
-0.0091 0.2375 -0.7116 -0.516 0.838 0.178 53 21 8 0 0
-0.0097 0.2382 -0.7146 -0.499 0.845 0.194 50 18 5 0 0
-0.0153 0.2448 -0.7376 -0.275 0.835 0.476 56 25 7 0 0
-0.0135 0.2423 -0.7454 -0.687 0.609 0.396 56 25 7 0 0
-0.0165 0.2462 -0.7467 -0.357 0.934 -0.026 57 26 8 0 0
-0.0183 0.2482 -0.7523 -0.529 0.817 0.232 57 26 9 0 0
-0.0452 0.2808 -0.8361 -0.626 0.438 0.645 61 24 8 0 0
-0.0501 0.2869 -0.8423 -0.538 0.831 0.139 75 33 9 0 0
-0.0498 0.2864 -0.8458 -0.537 0.843 -0.010 81 37 11 0 0
-0.0553 0.2929 -0.8680 -0.314 0.840 0.443 82 53 33 0 0
-0.0398 0.2720 -0.9065 -0.919 0.395 -0.019 63 37 24 0 0
-0.0463 0.2801 -0.9180 -0.344 0.938 0.051 69 40 24 0 0
-0.0443 0.2773 -0.9263 -0.702 0.712 -0.011 71 42 25 0 0
-0.0504 0.2846 -0.9513 -0.562 0.733 0.384 76 38 15 0 0
-0.0512 0.2854 -0.9540 -0.562 0.733 0.384 79 44 24 0 0
-0.0518 0.2862 -0.9568 -0.492 0.743 0.455 82 51 36 0 0
-0.0527 0.2873 -0.9594 -0.492 0.743 0.455 83 60 47 0 0
-0.0540 0.2889 -0.9617 -0.309 0.664 0.681 89 69 58 0 0
-0.0863 0.3289 -1.0195 -0.392 0.911 0.130 96 52 17 0 0
-0.0951 0.3401 -1.0244 -0.577 0.812 -0.090 99 55 21 0 0
-0.0981 0.3423 -1.0906 -0.587 0.787 -0.190 62 33 14 0 0
-0.1038 0.3485 -1.1344 -0.366 0.897 0.247 84 57 33 0 0
0.0433 0.1959 0.1138 -0.030 0.471 0.882 133 112 98 0 0
0.0400 0.2001 0.1106 -0.121 0.501 0.857 129 97 81 0 0
0.0086 0.2399 0.0908 -0.600 0.715 0.359 95 66 50 0 0
-0.0032 0.2542 0.0581 -0.650 0.558 0.516 82 41 12 0 0
-0.0043 0.2555 0.0551 -0.521 0.680 0.516 84 43 13 0 0
-0.0058 0.2573 0.0521 -0.682 0.623 0.382 85 44 16 0 0
0.0029 0.2453 0.0200 -0.604 0.675 0.425 76 38 12 0 0
-0.0418 0.2993 -0.1153 -0.388 0.719 0.576 161 130 114 0 0
-0.0434 0.3012 -0.1180 -0.553 0.814 0.179 147 119 105 0 0
-0.0481 0.3069 -0.1349 -0.712 0.699 -0.063 79 40 14 0 0
-0.0424 0.2982 -0.1885 -0.806 0.511 0.299 65 45 36 0 0
-0.0078 0.2501 -0.3422 -0.187 0.869 -0.458 39 22 13 0 0
-0.0090 0.2505 -0.3855 -0.249 0.922 0.297 49 22 13 0 0
-0.0187 0.2613 -0.4510 -0.234 0.356 -0.905 80 47 26 0 0
0.0082 0.2257 -0.4969 -0.601 0.791 0.113 60 28 8 0 0
0.0062 0.2279 -0.5187 -0.583 0.807 0.097 66 34 13 0 0
0.0042 0.2288 -0.5795 -0.698 0.711 -0.085 82 45 19 0 0
0.0046 0.2275 -0.6125 -0.633 0.773 -0.051 81 41 15 0 0
0.0043 0.2278 -0.6156 -0.544 0.839 -0.005 84 46 19 0 0
0.0037 0.2283 -0.6252 -0.343 0.895 0.284 87 50 21 0 0
0.0031 0.2290 -0.6281 -0.343 0.895 0.284 88 51 22 0 0
0.0034 0.2283 -0.6415 -0.445 0.860 0.249 88 49 20 0 0
0.0001 0.2317 -0.6759 -0.443 0.880 0.172 68 30 10 0 0
-0.0039 0.2362 -0.7001 -0.521 0.853 0.034 65 32 12 0 0
-0.0115 0.2448 -0.7451 -0.349 0.750 0.562 57 26 8 0 0
-0.0155 0.2498 -0.7525 -0.478 0.860 0.179 56 25 9 0 0
-0.0160 0.2504 -0.7554 -0.464 0.883 0.068 56 24 9 0 0
-0.0163 0.2507 -0.7586 -0.478 0.860 0.179 56 24 9 0 0
-0.0166 0.2510 -0.7617 -0.600 0.770 0.217 55 23 9 0 0
-0.0170 0.2515 -0.7647 -0.600 0.770 0.217 55 23 8 0 0
-0.0289 0.2655 -0.8097 -0.458 0.888 0.042 58 22 9 0 0
-0.0403 0.2768 -0.9410 -0.694 0.720 0.006 76 42 18 0 0
-0.0424 0.2794 -0.9459 -0.482 0.863 0.149 76 39 15 0 0
-0.0487 0.2873 -0.9541 -0.562 0.733 0.384 80 47 26 0 0
-0.0495 0.2882 -0.9568 -0.562 0.733 0.384 81 49 35 0 0
-0.0502 0.2891 -0.9595 -0.562 0.733 0.384 92 67 55 0 0
-0.0820 0.3287 -1.0015 -0.796 0.587 0.148 90 41 10 0 0
-0.0830 0.3299 -1.0104 -0.553 0.832 0.040 85 38 8 0 0
-0.0831 0.3299 -1.0136 -0.553 0.832 0.040 87 41 8 0 0
-0.0850 0.3307 -1.0780 -0.561 0.796 0.228 79 50 33 0 0
-0.0948 0.3431 -1.0882 -0.527 0.840 0.126 46 21 9 0 0
-0.0951 0.3434 -1.0912 -0.527 0.840 0.126 61 31 13 0 0
-0.0967 0.3449 -1.1095 -0.659 0.751 0.041 91 54 21 0 0
0.0467 0.1966 0.1138 -0.036 0.585 0.810 138 119 109 0 0
0.0431 0.2011 0.1106 -0.061 0.540 0.839 128 98 83 0 0
-0.0011 0.2561 0.0492 -0.450 0.612 0.651 88 46 16 0 0
0.0050 0.2468 -0.0126 -0.775 0.626 -0.086 81 41 15 0 0
0.0051 0.2465 -0.0156 -0.665 0.737 -0.124 83 43 17 0 0
0.0062 0.2440 -0.0634 -0.456 0.888 0.066 61 37 25 0 0
0.0057 0.2446 -0.0663 -0.319 0.941 0.112 67 39 27 0 0
-0.0460 0.3089 -0.1349 -0.781 0.625 -0.020 78 39 13 0 0
-0.0415 0.3024 -0.1648 -0.683 0.639 -0.355 70 50 39 0 0
-0.0403 0.3008 -0.1679 -0.836 0.457 -0.302 68 48 37 0 0
-0.0166 0.2681 -0.2714 -0.588 0.710 -0.388 62 39 25 0 0
-0.0156 0.2666 -0.2777 -0.751 0.531 -0.392 65 39 24 0 0
-0.0115 0.2610 -0.2910 -0.564 0.813 -0.143 69 42 25 0 0
-0.0014 0.2467 -0.3496 -0.416 0.887 -0.201 52 30 17 0 0
-0.0058 0.2514 -0.3858 -0.249 0.922 0.297 51 24 11 0 0
-0.0301 0.2820 -0.4053 -0.541 0.825 0.165 86 51 33 0 0
-0.0306 0.2825 -0.4083 -0.471 0.781 0.410 100 72 61 0 0
-0.0308 0.2828 -0.4113 -0.541 0.825 0.165 95 66 51 0 0
-0.0363 0.2897 -0.4124 -0.624 0.656 0.425 76 36 12 0 0
-0.0365 0.2899 -0.4154 -0.559 0.793 0.242 70 31 8 0 0
-0.0157 0.2625 -0.4512 -0.273 0.312 -0.910 81 47 25 0 0
0.0102 0.2267 -0.5617 -0.703 0.692 0.165 73 37 15 0 0
0.0077 0.2291 -0.5964 -0.677 0.736 0.015 86 46 21 0 0
0.0074 0.2294 -0.5996 -0.678 0.720 0.145 84 45 19 0 0
-0.0094 0.2475 -0.7382 -0.259 0.919 0.299 58 25 8 0 0
-0.0115 0.2499 -0.7469 -0.809 0.511 0.291 58 27 9 0 0
-0.0124 0.2510 -0.7496 -0.508 0.800 0.321 58 27 9 0 0
-0.0128 0.2514 -0.7527 -0.478 0.860 0.179 58 27 9 0 0
-0.0132 0.2519 -0.7557 -0.464 0.883 0.068 57 25 9 0 0
-0.0133 0.2519 -0.7589 -0.614 0.778 0.134 56 24 10 0 0
-0.0141 0.2529 -0.7617 -0.600 0.770 0.217 56 24 10 0 0
-0.0395 0.2816 -0.9129 -0.329 0.919 0.218 65 37 23 0 0
-0.0392 0.2811 -0.9165 -0.247 0.958 -0.145 69 41 27 0 0
-0.0397 0.2810 -0.9462 -0.348 0.907 0.235 75 39 15 0 0
-0.0461 0.2890 -0.9543 -0.505 0.756 0.416 91 57 39 0 0
-0.0469 0.2900 -0.9569 -0.503 0.761 0.410 86 55 43 0 0
-0.0477 0.2910 -0.9596 -0.562 0.733 0.384 95 69 58 0 0
-0.0648 0.3123 -0.9783 -0.602 0.716 0.354 108 86 76 0 0
-0.0788 0.3294 -1.0088 -0.457 0.726 0.514 87 40 10 0 0
-0.0804 0.3315 -1.0106 -0.605 0.776 0.177 86 40 7 0 0
-0.0807 0.3317 -1.0169 -0.588 0.809 0.016 90 44 11 0 0
-0.0830 0.3330 -1.0809 -0.509 0.811 -0.288 72 46 34 0 0
-0.0975 0.3504 -1.1295 -0.532 0.831 0.161 83 55 31 0 0
-0.0988 0.3519 -1.1347 -0.868 0.441 0.227 83 55 33 0 0
0.0501 0.1972 0.1139 -0.609 0.490 -0.623 149 135 128 0 0
0.0467 0.2014 0.1106 -0.061 0.540 0.839 130 104 89 0 0
0.0175 0.2382 0.0909 -0.242 0.765 0.596 111 84 67 0 0
0.0069 0.2492 -0.0127 -0.699 0.707 -0.105 81 41 14 0 0
0.0068 0.2493 -0.0156 -0.651 0.756 -0.058 82 42 15 0 0
0.0071 0.2487 -0.0245 -0.576 0.798 0.175 77 40 14 0 0
-0.0413 0.3072 -0.1499 -0.661 0.733 -0.160 67 45 32 0 0
-0.0413 0.3071 -0.1528 -0.475 0.870 -0.135 72 50 37 0 0
-0.0410 0.3068 -0.1558 -0.475 0.870 -0.135 70 50 38 0 0
-0.0188 0.2764 -0.2431 -0.034 0.988 -0.149 64 42 31 0 0
-0.0088 0.2624 -0.2912 -0.655 0.699 0.287 62 35 18 0 0
0.0008 0.2488 -0.3527 -0.498 0.866 0.044 57 33 22 0 0
-0.0280 0.2840 -0.4115 -0.264 0.955 0.135 102 74 58 0 0
-0.0035 0.2518 -0.4582 -0.005 0.534 -0.846 76 45 24 0 0
0.0124 0.2289 -0.5649 -0.642 0.757 0.124 75 40 18 0 0
0.0116 0.2299 -0.5677 -0.618 0.769 0.162 79 43 21 0 0
0.0119 0.2286 -0.6072 -0.648 0.626 0.433 86 49 20 0 0
0.0113 0.2293 -0.6102 -0.755 0.562 0.339 85 48 21 0 0
0.0103 0.2303 -0.6195 -0.762 0.626 0.164 87 50 22 0 0
0.0015 0.2395 -0.7004 -0.521 0.853 0.034 70 35 13 0 0
-0.0098 0.2527 -0.7497 -0.572 0.773 0.274 62 30 10 0 0
-0.0105 0.2535 -0.7526 -0.634 0.771 0.062 61 29 10 0 0
-0.0103 0.2533 -0.7560 -0.578 0.815 -0.046 60 28 10 0 0
-0.0091 0.2513 -0.7701 -0.388 0.756 0.527 56 22 7 0 0
-0.0131 0.2562 -0.7807 -0.427 0.865 0.264 55 22 7 0 0
-0.0137 0.2569 -0.7836 -0.427 0.865 0.264 55 22 7 0 0
-0.0367 0.2850 -0.8337 -0.748 0.653 0.118 57 21 7 0 0
-0.0426 0.2921 -0.8524 -0.767 0.634 0.102 84 45 15 0 0
-0.0358 0.2812 -0.9440 -0.550 0.668 0.502 75 41 17 0 0
-0.0435 0.2908 -0.9544 -0.503 0.761 0.410 82 47 29 0 0
-0.0453 0.2929 -0.9596 -0.562 0.733 0.384 86 60 49 0 0
-0.0620 0.3137 -0.9787 -0.384 0.887 0.257 103 81 71 0 0
-0.0781 0.3336 -1.0040 -0.508 0.861 0.040 87 41 9 0 0
-0.0777 0.3330 -1.0077 -0.478 0.879 -0.009 87 40 10 0 0
-0.0781 0.3334 -1.0106 -0.467 0.884 -0.028 87 41 8 0 0
-0.0782 0.3335 -1.0138 -0.553 0.832 0.041 88 42 9 0 0
-0.0783 0.3335 -1.0170 -0.588 0.809 0.016 91 45 12 0 0
-0.0823 0.3369 -1.0893 -0.705 0.694 0.147 41 22 16 0 0
-0.0909 0.3476 -1.1007 -0.577 0.740 0.346 82 41 10 0 0
-0.0922 0.3492 -1.1059 -0.414 0.905 0.097 86 46 14 0 0
-0.0926 0.3496 -1.1089 -0.798 0.599 0.068 85 49 18 0 0
-0.0928 0.3497 -1.1120 -0.798 0.599 0.068 89 55 27 0 0
-0.0932 0.3502 -1.1149 -0.830 0.539 0.143 93 59 32 0 0
-0.0950 0.3521 -1.1297 -0.532 0.831 0.161 83 54 30 0 0
-0.0958 0.3529 -1.1355 -0.439 0.898 -0.029 85 57 35 0 0
0.0523 0.1994 0.1138 -0.459 0.615 -0.641 159 148 146 0 0
0.0504 0.2017 0.1106 -0.034 0.549 0.835 133 107 94 0 0
0.0090 0.2512 -0.0157 -0.651 0.756 -0.058 81 42 13 0 0
0.0084 0.2520 -0.0186 -0.667 0.736 0.114 77 39 10 0 0
0.0082 0.2521 -0.0216 -0.608 0.794 -0.006 78 41 13 0 0
0.0082 0.2520 -0.0246 -0.687 0.710 0.156 79 42 14 0 0
0.0111 0.2474 -0.0635 -0.872 0.337 0.355 26 13 10 0 0
-0.0147 0.2760 -0.2435 0.111 0.989 -0.098 63 41 30 0 0
-0.0087 0.2672 -0.2937 -0.646 0.675 0.355 64 37 20 0 0
0.0005 0.2544 -0.3395 -0.275 0.807 -0.522 32 13 7 0 0
0.0039 0.2497 -0.3530 -0.302 0.931 -0.206 52 28 16 0 0
-0.0260 0.2863 -0.4114 -0.284 0.918 0.276 103 76 58 0 0
-0.0014 0.2541 -0.4582 -0.273 0.311 -0.910 79 49 27 0 0
0.0178 0.2290 -0.4850 -0.409 0.906 0.104 62 30 15 0 0
0.0175 0.2293 -0.4882 -0.571 0.819 -0.061 66 34 19 0 0
0.0171 0.2298 -0.4912 -0.522 0.841 0.140 53 21 6 0 0
0.0160 0.2305 -0.5166 -0.801 0.550 0.239 61 28 11 0 0
0.0149 0.2311 -0.5519 -0.467 0.873 0.140 78 45 22 0 0
0.0135 0.2315 -0.6101 -0.601 0.766 0.228 84 47 20 0 0
-0.0007 0.2471 -0.7142 -0.733 0.652 0.194 65 30 10 0 0
-0.0014 0.2479 -0.7171 -0.747 0.665 0.012 67 32 12 0 0
-0.0367 0.2900 -0.8320 -0.355 0.871 0.339 57 21 7 0 0
-0.0394 0.2929 -0.8531 -0.515 0.796 -0.318 85 46 17 0 0
-0.0383 0.2909 -0.8802 -0.433 0.870 0.234 71 44 29 0 0
-0.0381 0.2906 -0.8837 -0.403 0.915 0.012 70 44 29 0 0
-0.0413 0.2929 -0.9609 -0.229 0.888 0.398 82 56 45 0 0
-0.0525 0.3069 -0.9682 -0.479 0.546 0.688 92 72 63 0 0
-0.0617 0.3181 -0.9868 -0.440 0.754 0.489 104 80 70 0 0
-0.0759 0.3359 -0.9973 -0.562 0.796 -0.225 93 51 24 0 0
-0.0758 0.3355 -1.0040 -0.579 0.815 0.011 89 42 10 0 0
-0.0756 0.3352 -1.0075 -0.649 0.760 0.037 88 41 11 0 0
-0.0754 0.3349 -1.0109 -0.467 0.884 -0.028 85 39 6 0 0
-0.0850 0.3453 -1.0876 -0.796 0.584 -0.160 38 18 11 0 0
-0.0853 0.3455 -1.0907 -0.302 0.860 0.412 47 22 10 0 0
-0.0910 0.3524 -1.1082 -0.276 0.946 0.170 91 55 24 0 0
-0.0914 0.3528 -1.1111 -0.261 0.964 0.047 93 59 31 0 0
0.0544 0.2017 0.1137 -0.552 0.510 -0.659 173 167 166 0 0
0.0541 0.2019 0.1107 -0.034 0.549 0.835 138 114 102 0 0
0.0385 0.2215 0.1006 0.052 0.685 0.727 130 96 77 0 0
-0.0033 0.2701 -0.0861 -0.544 0.760 0.355 62 24 8 0 0
-0.0387 0.3138 -0.1322 -0.506 0.859 0.077 84 43 13 0 0
0.0063 0.2519 -0.3436 -0.187 0.978 -0.088 56 38 27 0 0
0.0061 0.2521 -0.3467 -0.384 0.854 -0.351 59 40 27 0 0
-0.0069 0.2676 -0.3862 -0.080 0.997 -0.020 67 34 20 0 0
-0.0074 0.2682 -0.3892 -0.129 0.977 0.167 67 33 17 0 0
-0.0085 0.2696 -0.3919 -0.140 0.889 0.435 71 35 17 0 0
-0.0219 0.2862 -0.4028 -0.583 0.719 0.380 73 35 15 0 0
-0.0234 0.2878 -0.4146 -0.443 0.700 0.560 75 36 10 0 0
0.0192 0.2327 -0.4685 -0.315 0.829 -0.463 81 53 32 0 0
0.0204 0.2308 -0.4851 -0.522 0.841 0.140 57 26 9 0 0
0.0201 0.2311 -0.4882 -0.522 0.841 0.140 58 26 10 0 0
0.0198 0.2315 -0.4913 -0.522 0.841 0.140 61 30 13 0 0
0.0180 0.2325 -0.5424 -0.528 0.764 0.370 77 44 23 0 0
0.0155 0.2341 -0.6099 -0.418 0.891 0.177 84 47 19 0 0
0.0153 0.2344 -0.6130 -0.453 0.859 0.239 84 47 19 0 0
0.0150 0.2346 -0.6162 -0.322 0.946 0.020 87 50 22 0 0
0.0152 0.2343 -0.6195 -0.228 0.960 -0.164 87 50 22 0 0
0.0012 0.2495 -0.7271 -0.565 0.806 -0.175 61 27 8 0 0
-0.0349 0.2928 -0.8283 -0.638 0.734 0.233 60 24 9 0 0
-0.0352 0.2921 -0.8742 -0.660 0.690 0.296 82 50 32 0 0
-0.0302 0.2849 -0.9112 -0.616 0.786 0.057 63 34 20 0 0
-0.0300 0.2846 -0.9147 -0.748 0.662 -0.042 66 38 23 0 0
-0.0286 0.2828 -0.9191 -0.762 0.585 -0.276 69 40 25 0 0
-0.0740 0.3382 -1.0035 -0.845 0.535 0.013 91 46 12 0 0
-0.0737 0.3377 -1.0071 -0.844 0.517 0.142 92 46 15 0 0
-0.0780 0.3430 -1.0163 -0.610 0.742 0.278 92 48 13 0 0
-0.0763 0.3406 -1.0276 -0.686 0.695 0.215 99 59 23 0 0
-0.0840 0.3498 -1.0468 -0.422 0.907 0.013 89 54 27 0 0
-0.0875 0.3530 -1.1027 -0.635 0.765 0.111 91 48 15 0 0
-0.0917 0.3577 -1.1314 -0.698 0.713 0.064 90 60 38 0 0
0.0576 0.2025 0.1107 -0.123 0.791 0.600 150 131 122 0 0
0.0574 0.2027 0.1077 -0.135 0.728 0.672 135 105 87 0 0
0.0409 0.2233 0.1006 -0.151 0.653 0.742 125 91 71 0 0
0.0229 0.2424 -0.0550 -0.722 0.667 -0.186 12 6 6 0 0
-0.0093 0.2820 -0.1002 -0.682 0.368 0.632 90 56 38 0 0
-0.0134 0.2872 -0.1027 -0.564 0.807 0.173 100 64 45 0 0
-0.0161 0.2882 -0.2033 -0.417 0.736 -0.533 64 44 35 0 0
-0.0030 0.2704 -0.2634 -0.632 0.756 -0.168 72 47 34 0 0
-0.0035 0.2709 -0.2664 -0.823 0.563 0.077 71 45 32 0 0
0.0051 0.2595 -0.2930 -0.404 0.910 0.090 66 38 24 0 0
0.0098 0.2524 -0.3471 -0.636 0.770 -0.056 55 35 24 0 0
0.0099 0.2522 -0.3503 -0.636 0.770 -0.056 47 25 14 0 0
-0.0024 0.2668 -0.3839 -0.465 0.811 0.354 54 26 11 0 0
-0.0062 0.2715 -0.3919 -0.062 0.918 0.391 71 34 17 0 0
-0.0186 0.2869 -0.4001 -0.623 0.595 0.508 72 33 12 0 0
-0.0197 0.2883 -0.4028 -0.589 0.775 0.226 70 33 14 0 0
-0.0301 0.3009 -0.4236 -0.595 0.750 -0.290 77 37 12 0 0
0.0254 0.2298 -0.4733 -0.560 0.738 0.376 65 36 19 0 0
0.0231 0.2325 -0.4853 -0.522 0.841 0.140 69 38 20 0 0
0.0031 0.2524 -0.7169 -0.748 0.661 -0.058 71 36 14 0 0
-0.0047 0.2611 -0.7682 -0.698 0.707 -0.110 61 26 7 0 0
-0.0342 0.2957 -0.8830 -0.617 0.781 0.091 71 44 30 0 0
-0.0311 0.2906 -0.9319 -0.371 0.928 0.009 74 41 22 0 0
-0.0320 0.2917 -0.9345 -0.520 0.845 0.125 77 42 22 0 0
-0.0750 0.3441 -1.0136 -0.359 0.888 0.287 91 47 12 0 0
-0.0755 0.3447 -1.0164 -0.359 0.888 0.287 93 50 15 0 0
-0.0812 0.3511 -1.0473 -0.422 0.907 0.013 92 57 30 0 0
-0.0843 0.3548 -1.0607 -0.327 0.867 -0.377 88 57 36 0 0
-0.0831 0.3524 -1.1014 -0.696 0.638 0.329 85 43 13 0 0
-0.0843 0.3538 -1.1035 -0.578 0.815 0.036 90 48 15 0 0
-0.0851 0.3548 -1.1060 -0.543 0.830 0.129 91 51 20 0 0
-0.0854 0.3551 -1.1090 -0.551 0.826 0.119 94 58 28 0 0
-0.0857 0.3554 -1.1120 -0.543 0.830 0.129 99 66 40 0 0
-0.0888 0.3584 -1.1519 -0.414 0.909 0.051 141 134 127 0 0
0.0608 0.2034 0.1107 -0.263 0.803 0.534 161 150 143 0 0
0.0608 0.2033 0.1077 -0.382 0.846 0.371 139 112 99 0 0
0.0459 0.2219 0.1007 -0.024 0.806 0.592 126 92 70 0 0
0.0268 0.2453 0.0760 -0.115 0.738 0.665 105 76 57 0 0
-0.0088 0.2836 -0.2133 -0.362 0.896 -0.258 62 42 33 0 0
-0.0008 0.2726 -0.2604 -0.791 0.592 -0.154 72 49 35 0 0
-0.0005 0.2721 -0.2635 -0.791 0.592 -0.154 73 49 35 0 0
-0.0005 0.2719 -0.2696 -0.969 0.248 -0.013 70 44 31 0 0
0.0079 0.2608 -0.2932 -0.404 0.910 0.090 66 38 24 0 0
0.0105 0.2566 -0.3404 -0.488 0.721 -0.493 32 13 6 0 0
0.0127 0.2537 -0.3442 -0.680 0.733 -0.023 67 47 37 0 0
0.0130 0.2533 -0.3474 -0.415 0.905 -0.095 52 31 20 0 0
0.0130 0.2532 -0.3505 -0.438 0.893 -0.101 56 33 22 0 0
-0.0018 0.2710 -0.3864 -0.159 0.986 -0.043 55 26 12 0 0
-0.0017 0.2708 -0.3896 -0.159 0.986 -0.043 61 28 14 0 0
-0.0030 0.2724 -0.3923 -0.086 0.886 0.455 63 28 12 0 0
-0.0277 0.3027 -0.4267 -0.395 0.916 -0.061 76 35 13 0 0
0.0289 0.2298 -0.5029 -0.193 0.937 0.290 73 44 26 0 0
0.0273 0.2316 -0.5119 -0.248 0.930 0.273 67 36 18 0 0
0.0266 0.2324 -0.5149 -0.406 0.896 0.179 65 34 16 0 0
0.0265 0.2323 -0.5246 -0.439 0.894 0.087 68 35 18 0 0
0.0257 0.2327 -0.5503 -0.526 0.844 0.103 74 42 21 0 0
0.0255 0.2327 -0.5633 -0.535 0.845 0.005 75 42 21 0 0
0.0244 0.2338 -0.5726 -0.539 0.828 -0.152 75 40 20 0 0
0.0244 0.2338 -0.5759 -0.664 0.729 -0.164 73 39 18 0 0
0.0220 0.2352 -0.6503 -0.255 0.963 -0.085 87 50 21 0 0
0.0049 0.2552 -0.7165 -0.517 0.700 0.492 71 36 14 0 0
0.0064 0.2531 -0.7273 -0.565 0.806 -0.175 63 28 9 0 0
-0.0277 0.2936 -0.8301 -0.459 0.868 0.188 61 25 9 0 0
-0.0368 0.3046 -0.8497 -0.683 0.705 0.193 86 46 20 0 0
-0.0329 0.2995 -0.8592 -0.538 0.819 0.199 85 49 24 0 0
-0.0284 0.2923 -0.9288 -0.333 0.905 0.266 76 44 25 0 0
-0.0264 0.2893 -0.9505 -0.270 0.860 0.433 72 35 9 0 0
-0.0332 0.2979 -0.9483 -0.650 0.688 0.322 72 34 11 0 0
-0.0297 0.2934 -0.9545 -0.649 0.423 0.632 74 36 15 0 0
-0.0552 0.3246 -0.9895 -0.715 0.550 0.432 100 78 67 0 0
-0.0724 0.3458 -1.0138 -0.723 0.683 0.107 93 49 14 0 0
-0.0727 0.3460 -1.0168 -0.359 0.888 0.287 97 54 19 0 0
-0.0778 0.3519 -1.0416 -0.484 0.799 0.356 92 57 29 0 0
-0.0785 0.3527 -1.0443 -0.484 0.799 0.356 92 57 29 0 0
-0.0792 0.3532 -1.0633 -0.488 0.844 0.222 87 56 35 0 0
-0.0795 0.3535 -1.0663 -0.561 0.825 -0.066 83 55 33 0 0
-0.0717 0.3428 -1.1069 -0.608 0.759 0.233 73 34 10 0 0
-0.0826 0.3565 -1.1062 -0.543 0.830 0.129 89 50 18 0 0
-0.0829 0.3568 -1.1092 -0.543 0.830 0.129 92 56 27 0 0
0.0629 0.2057 0.1106 -0.516 0.853 0.076 176 171 167 0 0
0.0628 0.2057 0.1076 -0.430 0.871 0.238 138 121 109 0 0
0.0635 0.2049 0.1046 -0.559 0.827 -0.055 138 108 87 0 0
0.0509 0.2205 0.1008 0.074 0.875 0.478 128 93 69 0 0
0.0498 0.2218 0.0978 -0.182 0.672 0.717 120 87 68 0 0
0.0288 0.2475 0.0700 -0.345 0.887 0.306 81 50 29 0 0
0.0090 0.2715 0.0313 -0.372 0.891 0.261 82 37 8 0 0
0.0085 0.2721 0.0284 -0.372 0.891 0.261 82 38 9 0 0
0.0117 0.2676 0.0079 -0.381 0.923 -0.062 92 51 21 0 0
0.0115 0.2677 0.0049 -0.568 0.823 0.012 94 53 23 0 0
0.0014 0.2784 -0.0890 -0.702 0.583 0.410 69 33 13 0 0
-0.0158 0.2996 -0.1050 -0.398 0.575 0.715 101 65 47 0 0
-0.0189 0.3034 -0.1076 -0.618 0.709 0.341 103 68 48 0 0
-0.0186 0.3030 -0.1106 -0.509 0.856 -0.085 107 71 48 0 0
-0.0063 0.2852 -0.2193 -0.452 0.860 0.236 65 43 35 0 0
0.0000 0.2766 -0.2509 -0.256 0.961 -0.110 65 43 32 0 0
0.0022 0.2736 -0.2575 -0.506 0.803 -0.316 69 45 34 0 0
0.0085 0.2654 -0.2743 -0.175 0.921 -0.347 70 44 31 0 0
0.0048 0.2677 -0.3847 -0.643 0.564 0.519 53 26 13 0 0
0.0031 0.2697 -0.3873 -0.596 0.800 0.069 60 31 19 0 0
0.0026 0.2702 -0.3903 -0.507 0.852 0.130 59 28 14 0 0
-0.0005 0.2741 -0.3924 -0.457 0.735 0.501 60 27 12 0 0
-0.0156 0.2929 -0.3995 -0.314 0.842 0.440 70 30 9 0 0
-0.0154 0.2925 -0.4027 -0.253 0.962 -0.105 79 41 23 0 0
-0.0150 0.2919 -0.4059 -0.236 0.961 -0.145 95 67 53 0 0
-0.0149 0.2917 -0.4091 -0.381 0.904 0.197 97 70 53 0 0
-0.0153 0.2923 -0.4120 -0.320 0.942 0.098 79 46 22 0 0
-0.0195 0.2973 -0.4167 -0.550 0.816 0.177 69 30 5 0 0
0.0287 0.2338 -0.5571 -0.529 0.847 0.057 68 36 15 0 0
0.0286 0.2340 -0.5603 -0.529 0.847 0.057 70 38 17 0 0
0.0285 0.2340 -0.5668 -0.730 0.671 0.130 76 41 22 0 0
0.0329 0.2271 -0.6283 -0.643 0.762 0.078 94 57 28 0 0
0.0322 0.2277 -0.6378 -0.573 0.761 0.305 90 53 23 0 0
0.0316 0.2284 -0.6408 -0.715 0.679 0.165 92 53 24 0 0
0.0287 0.2319 -0.6459 -0.360 0.911 0.201 95 56 27 0 0
0.0074 0.2569 -0.7232 -0.712 0.578 -0.399 65 30 10 0 0
-0.0018 0.2678 -0.7537 -0.401 0.915 -0.050 69 34 14 0 0
-0.0240 0.2937 -0.8376 -0.758 0.557 0.340 67 32 14 0 0
-0.0210 0.2881 -0.9260 -0.554 0.824 0.117 72 43 26 0 0
-0.0308 0.2998 -0.9483 -0.582 0.732 0.356 74 36 14 0 0
-0.0323 0.3017 -0.9504 -0.366 0.911 0.189 78 41 20 0 0
-0.0472 0.3198 -0.9778 -0.533 0.698 0.478 99 77 64 0 0
-0.0511 0.3245 -0.9844 -0.430 0.582 0.690 101 79 66 0 0
-0.0642 0.3406 -1.0026 -0.621 0.717 0.316 88 43 12 0 0
-0.0654 0.3420 -1.0048 -0.305 0.941 0.146 88 43 11 0 0
-0.0676 0.3446 -1.0095 -0.336 0.816 0.470 88 43 10 0 0
-0.0697 0.3471 -1.0174 -0.578 0.705 0.410 98 55 20 0 0
-0.0786 0.3565 -1.1011 -0.555 0.775 0.303 83 40 10 0 0
-0.0793 0.3573 -1.1037 -0.645 0.739 0.197 87 44 12 0 0
-0.0826 0.3603 -1.1534 -0.289 0.940 0.180 146 140 133 0 0
0.0656 0.2072 0.1076 -0.522 0.852 -0.040 152 141 131 0 0
0.0660 0.2066 0.1046 -0.427 0.901 0.081 137 108 87 0 0
0.0582 0.2163 0.1011 -0.061 0.822 0.566 125 90 66 0 0
0.0571 0.2176 0.0980 -0.247 0.704 0.666 118 85 65 0 0
0.0311 0.2494 0.0699 -0.196 0.856 0.477 87 55 34 0 0
0.0116 0.2718 -0.0245 -0.585 0.806 0.093 78 40 13 0 0
0.0310 0.2469 -0.0552 0.053 0.923 0.382 13 7 7 0 0
-0.0135 0.3014 -0.1051 -0.369 0.516 0.773 99 62 41 0 0
-0.0170 0.3057 -0.1076 -0.530 0.782 0.326 108 72 52 0 0
-0.0240 0.3134 -0.1565 -0.372 0.872 -0.318 70 50 37 0 0
0.0026 0.2779 -0.2632 -0.879 0.350 -0.323 71 45 31 0 0
0.0033 0.2769 -0.2664 -0.879 0.350 -0.323 72 46 31 0 0
0.0120 0.2659 -0.2746 -0.175 0.921 -0.347 71 45 30 0 0
0.0339 0.2335 -0.5095 -0.287 0.908 0.306 63 34 18 0 0
0.0336 0.2337 -0.5126 -0.541 0.829 0.140 59 30 14 0 0
0.0353 0.2291 -0.6283 -0.643 0.762 0.078 98 62 28 0 0
0.0154 0.2516 -0.7398 -0.590 0.690 0.419 61 25 9 0 0
0.0146 0.2526 -0.7426 -0.590 0.690 0.419 61 25 8 0 0
0.0020 0.2679 -0.7580 -0.287 0.941 -0.178 69 34 14 0 0
0.0027 0.2670 -0.7617 -0.473 0.845 -0.248 68 31 12 0 0
-0.0226 0.2970 -0.8336 -0.682 0.731 -0.029 62 25 9 0 0
-0.0250 0.2989 -0.8911 -0.756 0.646 -0.108 66 38 24 0 0
-0.0225 0.2945 -0.9464 -0.484 0.849 0.212 73 38 14 0 0
-0.0462 0.3235 -0.9767 -0.669 0.642 0.376 95 73 62 0 0
-0.0628 0.3436 -1.0050 -0.460 0.886 0.052 86 41 10 0 0
-0.0648 0.3460 -1.0098 -0.336 0.816 0.470 87 42 11 0 0
-0.0732 0.3555 -1.0579 -0.614 0.761 0.210 85 54 31 0 0
-0.0709 0.3525 -1.0634 -0.727 0.680 -0.094 84 53 32 0 0
-0.0770 0.3593 -1.1037 -0.645 0.739 0.197 85 44 12 0 0
-0.0786 0.3608 -1.1253 -0.346 0.938 -0.035 88 57 32 0 0
-0.0783 0.3603 -1.1289 -0.567 0.816 0.112 89 59 35 0 0
-0.0817 0.3640 -1.1552 -0.353 0.639 0.684 171 169 166 0 0
0.0694 0.2072 0.1046 -0.686 0.667 -0.289 140 117 104 0 0
0.0142 0.2744 0.0312 -0.544 0.740 0.397 117 74 42 0 0
0.0157 0.2723 0.0195 -0.605 0.797 0.004 86 42 13 0 0
0.0157 0.2723 0.0166 -0.605 0.797 0.004 86 41 13 0 0
0.0156 0.2723 0.0137 -0.605 0.797 0.004 86 41 13 0 0
0.0131 0.2750 -0.0098 -0.770 0.626 0.122 86 47 17 0 0
0.0139 0.2737 -0.0216 -0.616 0.763 -0.194 80 42 15 0 0
0.0143 0.2732 -0.0246 -0.706 0.705 -0.068 75 39 15 0 0
0.0353 0.2463 -0.0554 0.113 0.885 0.451 13 7 7 0 0
-0.0280 0.3234 -0.1382 -0.719 0.679 0.148 76 39 17 0 0
-0.0216 0.3150 -0.1566 -0.452 0.786 -0.422 70 50 37 0 0
-0.0030 0.2906 -0.2192 -0.649 0.711 0.269 64 44 35 0 0
0.0100 0.2738 -0.2491 -0.597 0.782 -0.178 67 44 32 0 0
0.0093 0.2746 -0.2520 -0.640 0.747 0.182 66 42 30 0 0
0.0088 0.2751 -0.2550 -0.329 0.876 0.352 66 42 30 0 0
0.0073 0.2741 -0.3965 -0.375 0.876 0.303 64 30 16 0 0
0.0261 0.2442 -0.6982 -0.825 0.552 -0.120 72 36 14 0 0
0.0161 0.2561 -0.7288 -0.749 0.648 0.134 65 30 11 0 0
0.0174 0.2541 -0.7396 -0.698 0.659 0.280 63 28 10 0 0
0.0165 0.2552 -0.7424 -0.484 0.800 0.355 63 28 10 0 0
0.0158 0.2560 -0.7452 -0.484 0.800 0.355 65 30 12 0 0
0.0057 0.2683 -0.7621 -0.422 0.813 0.401 65 30 10 0 0
-0.0156 0.2913 -0.9266 -0.589 0.805 0.065 70 41 25 0 0
-0.0157 0.2914 -0.9298 -0.589 0.805 0.065 73 43 24 0 0
-0.0198 0.2961 -0.9466 -0.484 0.849 0.212 73 38 14 0 0
-0.0409 0.3218 -0.9758 -0.437 0.768 0.468 92 70 59 0 0
-0.0440 0.3256 -0.9765 -0.635 0.714 0.294 90 68 57 0 0
-0.0597 0.3448 -0.9991 -0.661 0.659 0.360 86 42 13 0 0
-0.0604 0.3455 -1.0018 -0.776 0.601 0.192 84 39 9 0 0
-0.0637 0.3494 -1.0120 -0.505 0.793 0.339 87 42 11 0 0
-0.0751 0.3612 -1.1297 -0.406 0.889 0.211 92 62 38 0 0
-0.0748 0.3607 -1.1366 -0.487 0.865 0.122 91 61 37 0 0
0.0717 0.2093 0.1015 -0.590 0.788 -0.176 132 107 91 0 0
0.0159 0.2764 -0.0010 -0.598 0.787 0.153 86 47 16 0 0
0.0148 0.2777 -0.0040 -0.622 0.649 0.438 86 47 16 0 0
0.0148 0.2777 -0.0069 -0.762 0.576 0.297 87 48 17 0 0
0.0419 0.2431 -0.0527 0.012 0.906 0.422 14 8 8 0 0
-0.0108 0.3072 -0.1167 -0.670 0.666 0.327 136 109 89 0 0
-0.0219 0.3207 -0.1300 -0.173 0.885 0.433 83 40 15 0 0
0.0106 0.2778 -0.2488 -0.868 0.482 0.121 67 44 32 0 0
0.0101 0.2784 -0.2517 -0.763 0.647 -0.002 67 43 31 0 0
0.0106 0.2777 -0.2549 -0.666 0.712 -0.224 66 42 30 0 0
0.0177 0.2685 -0.2780 -0.070 0.989 -0.130 68 40 26 0 0
0.0200 0.2654 -0.2878 -0.803 0.529 -0.274 68 40 26 0 0
0.0213 0.2636 -0.2943 -0.131 0.940 -0.315 69 41 25 0 0
0.0209 0.2625 -0.3752 -0.101 0.828 0.552 53 25 12 0 0
0.0101 0.2677 -0.7667 -0.522 0.846 0.104 60 27 9 0 0
0.0112 0.2661 -0.7740 0.065 0.904 -0.423 61 27 10 0 0
0.0110 0.2663 -0.7805 -0.047 0.967 -0.250 61 25 9 0 0
0.0118 0.2653 -0.7843 -0.408 0.909 -0.084 60 24 8 0 0
-0.0038 0.2842 -0.8071 -0.368 0.908 0.199 68 31 13 0 0
-0.0047 0.2850 -0.8164 -0.654 0.741 0.153 64 27 9 0 0
-0.0191 0.3022 -0.8491 -0.578 0.805 0.135 81 39 14 0 0
-0.0379 0.3230 -0.9730 -0.420 0.337 0.842 91 70 59 0 0
-0.0683 0.3589 -1.0647 -0.654 0.757 -0.004 85 54 34 0 0
-0.0725 0.3626 -1.1366 -0.527 0.849 -0.031 90 60 36 0 0
-0.0184 0.3209 -0.1302 -0.291 0.895 0.337 78 37 12 0 0
0.0148 0.2775 -0.2462 0.002 0.998 -0.062 67 45 34 0 0
0.0122 0.2806 -0.2487 -0.838 0.540 0.080 67 44 33 0 0
0.0216 0.2683 -0.2846 -0.837 0.542 -0.078 69 41 27 0 0
0.0271 0.2611 -0.3045 -0.169 0.701 0.693 69 43 34 0 0
0.0203 0.2693 -0.3121 -0.335 0.487 0.807 57 26 13 0 0
0.0337 0.2520 -0.3502 -0.392 0.859 -0.330 65 41 28 0 0
0.0248 0.2625 -0.3758 -0.060 0.861 0.506 55 28 14 0 0
0.0116 0.2784 -0.3965 -0.120 0.764 0.634 66 31 17 0 0
0.0528 0.2252 -0.5046 -0.454 0.876 0.162 73 46 30 0 0
0.0520 0.2262 -0.5075 -0.686 0.683 0.253 69 41 24 0 0
0.0499 0.2271 -0.5855 -0.448 0.854 0.265 79 46 25 0 0
0.0409 0.2366 -0.6705 -0.216 0.974 -0.072 80 41 18 0 0
0.0173 0.2635 -0.7797 -0.436 0.800 -0.412 60 25 9 0 0
-0.0014 0.2862 -0.8038 -0.463 0.884 0.065 64 28 10 0 0
-0.0016 0.2863 -0.8103 -0.460 0.887 -0.050 68 32 13 0 0
-0.0124 0.2992 -0.8325 -0.718 0.695 0.039 66 29 11 0 0
-0.0143 0.3009 -0.8673 -0.781 0.619 -0.089 84 50 29 0 0
-0.0143 0.3008 -0.8706 -0.739 0.659 -0.139 83 51 30 0 0
-0.0170 0.3041 -0.8752 -0.530 0.826 -0.190 75 46 29 0 0
-0.0180 0.3052 -0.8811 -0.819 0.562 -0.118 73 44 31 0 0
-0.0051 0.2885 -0.9175 -0.612 0.758 -0.227 66 38 23 0 0
-0.0207 0.3071 -0.9553 -0.804 0.502 -0.318 83 55 41 0 0
-0.0488 0.3409 -0.9947 -0.836 0.542 0.085 91 63 46 0 0
-0.0641 0.3587 -1.0598 -0.731 0.672 0.115 88 57 34 0 0
-0.0601 0.3531 -1.0900 -0.662 0.714 0.227 38 18 8 0 0
-0.0704 0.3648 -1.1363 -0.811 0.558 -0.176 88 59 36 0 0
0.0777 0.2114 0.0924 -0.501 0.865 0.011 119 89 66 0 0
0.0183 0.2833 0.0194 -0.496 0.686 0.532 73 29 3 0 0
0.0181 0.2834 0.0135 -0.665 0.746 -0.028 69 27 4 0 0
0.0213 0.2743 -0.2441 -0.962 0.062 -0.265 67 46 35 0 0
0.0241 0.2700 -0.2877 -0.494 0.855 -0.155 62 34 20 0 0
0.0184 0.2765 -0.3140 -0.575 0.621 0.532 67 29 11 0 0
0.0378 0.2518 -0.3539 -0.354 0.931 -0.085 63 39 27 0 0
0.0366 0.2531 -0.3567 -0.500 0.860 -0.098 53 31 20 0 0
0.0360 0.2539 -0.3596 -0.327 0.925 0.196 47 28 17 0 0
0.0354 0.2545 -0.3626 -0.288 0.953 0.094 47 27 18 0 0
0.0359 0.2539 -0.3659 -0.245 0.962 0.120 43 23 14 0 0
0.0356 0.2542 -0.3690 -0.245 0.962 0.120 59 39 30 0 0
0.0367 0.2525 -0.3788 -0.199 0.968 -0.153 56 30 16 0 0
0.0138 0.2806 -0.3964 -0.265 0.644 0.718 68 34 18 0 0
0.0525 0.2290 -0.5856 -0.529 0.780 0.333 81 46 26 0 0
0.0431 0.2389 -0.6704 -0.086 0.975 0.203 80 42 21 0 0
0.0453 0.2360 -0.6816 -0.593 0.803 -0.068 78 40 21 0 0
0.0455 0.2355 -0.6884 -0.619 0.785 -0.026 76 40 18 0 0
0.0453 0.2357 -0.6917 -0.726 0.688 -0.009 74 38 16 0 0
0.0454 0.2355 -0.6951 -0.745 0.656 0.126 73 37 15 0 0
0.0451 0.2359 -0.6982 -0.608 0.793 0.014 72 37 15 0 0
0.0455 0.2353 -0.7018 -0.617 0.757 -0.216 71 36 14 0 0
0.0460 0.2346 -0.7054 -0.617 0.757 -0.216 69 34 13 0 0
0.0143 0.2720 -0.7895 0.091 0.918 0.387 59 25 8 0 0
0.0008 0.2884 -0.8070 -0.845 0.535 0.029 68 31 13 0 0
-0.0141 0.3053 -0.8757 -0.604 0.738 -0.302 75 46 30 0 0
-0.0016 0.2890 -0.9217 -0.433 0.594 0.678 68 40 26 0 0
-0.0092 0.2979 -0.9459 -0.755 0.592 0.281 67 32 10 0 0
-0.0618 0.3601 -1.0796 -0.421 0.894 -0.154 51 33 22 0 0
-0.0570 0.3542 -1.0874 -0.455 0.841 0.292 40 21 13 0 0
-0.0573 0.3544 -1.0904 -0.520 0.776 0.357 40 20 11 0 0
-0.0668 0.3650 -1.1443 -0.465 0.848 -0.255 75 50 28 0 0
-0.0621 0.3588 -1.1657 -0.256 0.964 -0.076 175 174 170 0 0
0.0793 0.2142 0.0893 -0.413 0.904 0.112 114 83 65 0 0
0.0269 0.2764 -0.0308 -0.394 0.911 0.125 61 32 18 0 0
0.0261 0.2773 -0.0337 -0.639 0.735 -0.226 52 25 13 0 0
0.0359 0.2641 -0.0911 -0.743 0.657 0.126 65 34 18 0 0
0.0410 0.2527 -0.3542 -0.318 0.946 -0.056 52 29 16 0 0
0.0396 0.2544 -0.3569 -0.357 0.930 -0.088 50 28 17 0 0
0.0386 0.2555 -0.3629 -0.288 0.953 0.094 50 30 23 0 0
0.0392 0.2547 -0.3662 -0.245 0.962 0.120 43 23 15 0 0
0.0380 0.2561 -0.3690 -0.170 0.866 0.471 60 40 32 0 0
0.0106 0.2892 -0.3977 -0.395 0.901 0.179 70 32 14 0 0
0.0619 0.2242 -0.4998 -0.544 0.839 -0.006 74 46 31 0 0
0.0618 0.2242 -0.5031 -0.544 0.839 -0.006 73 46 31 0 0
0.0618 0.2242 -0.5063 -0.502 0.865 -0.022 72 46 30 0 0
0.0557 0.2302 -0.5827 -0.625 0.771 0.121 83 50 30 0 0
0.0475 0.2386 -0.6648 -0.322 0.946 -0.027 80 44 20 0 0
0.0505 0.2344 -0.6899 -0.199 0.978 0.067 75 40 20 0 0
0.0472 0.2382 -0.7014 -0.229 0.951 0.210 71 36 16 0 0
-0.0114 0.3071 -0.8725 -0.880 0.468 -0.078 83 55 34 0 0
-0.0001 0.2925 -0.9076 -0.674 0.713 -0.192 61 33 19 0 0
-0.0070 0.3002 -0.9458 -0.774 0.598 0.209 66 31 11 0 0
-0.0161 0.3114 -0.9419 -0.205 0.964 0.168 66 34 13 0 0
-0.0152 0.3102 -0.9459 -0.538 0.646 0.541 67 37 13 0 0
-0.0170 0.3124 -0.9511 -0.809 0.548 0.211 80 51 36 0 0
-0.0174 0.3129 -0.9541 -0.809 0.548 0.211 79 51 39 0 0
-0.0241 0.3208 -0.9652 -0.801 0.301 0.517 92 70 59 0 0
-0.0418 0.3422 -0.9868 -0.488 0.792 0.366 89 66 52 0 0
-0.0622 0.3647 -1.1232 -0.622 0.770 0.142 97 65 42 0 0
-0.0636 0.3661 -1.1318 -0.785 0.618 0.036 93 62 37 0 0
0.0720 0.2278 0.0737 0.236 0.878 0.417 94 63 45 0 0
0.0701 0.2301 0.0706 0.157 0.828 0.538 95 64 46 0 0
0.0686 0.2319 0.0675 0.134 0.871 0.472 85 54 36 0 0
0.0228 0.2869 0.0105 -0.731 0.682 -0.020 77 35 10 0 0
0.0243 0.2846 -0.0130 -0.918 0.387 -0.092 78 42 19 0 0
0.0071 0.3029 -0.1593 -0.324 0.815 -0.481 69 49 36 0 0
0.0234 0.2813 -0.2405 -0.047 0.999 0.015 64 44 33 0 0
0.0216 0.2834 -0.2493 -0.691 0.668 0.274 70 46 36 0 0
0.0443 0.2534 -0.3576 -0.250 0.963 -0.097 59 37 26 0 0
0.0433 0.2546 -0.3636 -0.304 0.946 0.109 49 29 22 0 0
0.0434 0.2544 -0.3668 -0.360 0.878 0.315 43 22 18 0 0
0.0427 0.2552 -0.3698 -0.360 0.878 0.315 60 39 34 0 0
0.0144 0.2895 -0.3951 -0.616 0.640 0.460 77 43 28 0 0
0.0014 0.3049 -0.4247 -0.521 0.771 0.366 75 38 19 0 0
-0.0026 0.3097 -0.4294 -0.684 0.728 -0.032 82 48 28 0 0
0.0612 0.2294 -0.5314 0.122 0.992 0.027 80 51 35 0 0
0.0600 0.2300 -0.5737 0.073 0.963 0.260 84 55 37 0 0
0.0593 0.2309 -0.5766 0.073 0.963 0.260 85 57 36 0 0
0.0585 0.2318 -0.5796 0.131 0.940 0.315 87 59 37 0 0
0.0549 0.2340 -0.6910 -0.181 0.752 0.634 75 40 21 0 0
0.0506 0.2391 -0.7019 -0.229 0.951 0.210 72 37 18 0 0
0.0501 0.2397 -0.7050 -0.213 0.973 0.091 72 37 18 0 0
0.0497 0.2402 -0.7081 0.217 0.868 0.446 72 37 18 0 0
0.0466 0.2437 -0.7197 -0.197 0.966 0.168 69 34 14 0 0
-0.0112 0.3123 -0.8446 -0.671 0.572 0.472 81 40 14 0 0
-0.0083 0.3086 -0.8500 -0.287 0.913 0.288 86 46 17 0 0
0.0001 0.2970 -0.9159 -0.776 0.599 0.198 70 42 28 0 0
-0.0167 0.3168 -0.9560 -0.657 0.574 0.488 80 57 46 0 0
-0.0514 0.3581 -1.0191 -0.525 0.851 0.029 85 38 9 0 0
0.0710 0.2314 -0.0570 -0.015 0.929 0.371 26 18 19 0 0
0.0398 0.2691 -0.0821 -0.239 0.956 -0.169 75 51 39 0 0
0.0380 0.2712 -0.0850 -0.670 0.737 -0.093 68 45 31 0 0
0.0393 0.2696 -0.0881 -0.687 0.723 0.072 69 46 32 0 0
0.0407 0.2678 -0.0912 -0.401 0.755 0.519 71 48 34 0 0
-0.0074 0.3257 -0.1364 -0.621 0.782 0.054 72 37 14 0 0
0.0477 0.2542 -0.3579 -0.407 0.875 -0.263 66 42 33 0 0
0.0475 0.2543 -0.3611 -0.430 0.899 -0.088 63 44 32 0 0
0.0471 0.2547 -0.3673 -0.295 0.909 0.294 42 23 19 0 0
0.0461 0.2559 -0.3701 -0.255 0.928 0.271 58 39 33 0 0
0.0434 0.2591 -0.3787 -0.191 0.946 0.260 60 34 22 0 0
0.0038 0.3066 -0.4248 -0.521 0.771 0.366 75 39 19 0 0
0.0035 0.3070 -0.4277 -0.591 0.785 0.186 81 47 27 0 0
0.0680 0.2240 -0.6396 0.199 0.980 -0.022 93 57 30 0 0
0.0688 0.2231 -0.6434 0.162 0.875 0.457 94 57 30 0 0
0.0684 0.2234 -0.6465 0.071 0.866 0.495 93 57 29 0 0
0.0659 0.2265 -0.6486 -0.035 0.997 0.068 92 57 29 0 0
0.0652 0.2273 -0.6516 0.169 0.940 0.297 92 56 28 0 0
0.0637 0.2291 -0.6542 0.053 0.974 0.219 91 54 27 0 0
0.0626 0.2304 -0.6569 0.069 0.933 0.353 92 56 29 0 0
0.0610 0.2319 -0.6795 0.028 0.995 0.095 77 42 22 0 0
0.0537 0.2404 -0.7023 -0.148 0.895 0.421 73 40 21 0 0
0.0537 0.2403 -0.7057 -0.168 0.904 0.393 71 38 19 0 0
0.0511 0.2432 -0.7176 -0.153 0.834 0.530 69 36 17 0 0
0.0510 0.2434 -0.7208 -0.366 0.808 0.462 69 37 16 0 0
0.0156 0.2850 -0.8121 -0.843 0.527 -0.106 58 25 9 0 0
0.0158 0.2846 -0.8156 -0.775 0.630 -0.050 58 25 10 0 0
-0.0015 0.3042 -0.8996 -0.656 0.714 -0.244 63 36 19 0 0
-0.0410 0.3507 -0.9965 -0.402 0.914 -0.046 82 43 21 0 0
-0.0502 0.3610 -1.0475 -0.416 0.871 0.261 103 72 44 0 0
-0.0482 0.3578 -1.0890 -0.195 0.945 0.262 37 18 10 0 0
0.0435 0.2693 -0.0823 -0.185 0.959 -0.212 71 47 35 0 0
0.0512 0.2549 -0.3551 -0.320 0.911 -0.259 69 42 28 0 0
0.0509 0.2552 -0.3582 -0.480 0.866 -0.140 70 47 38 0 0
0.0500 0.2562 -0.3674 -0.402 0.855 0.326 55 37 31 0 0
0.0490 0.2573 -0.3703 -0.311 0.909 0.277 66 47 41 0 0
0.0482 0.2582 -0.3732 -0.433 0.774 0.462 60 41 32 0 0
0.0513 0.2541 -0.3901 -0.779 0.465 0.420 74 46 35 0 0
0.0630 0.2346 -0.6759 0.116 0.984 0.135 76 45 23 0 0
0.0601 0.2378 -0.6944 -0.342 0.914 0.220 75 42 23 0 0
0.0604 0.2373 -0.6980 0.039 0.905 0.425 75 42 25 0 0
0.0588 0.2393 -0.7004 -0.424 0.864 0.271 75 42 25 0 0
0.0545 0.2443 -0.7147 -0.106 0.811 0.575 74 41 22 0 0
0.0501 0.2496 -0.7155 -0.745 0.600 0.292 72 40 20 0 0
0.0495 0.2503 -0.7185 -0.745 0.600 0.292 72 40 20 0 0
0.0489 0.2510 -0.7215 -0.525 0.851 0.020 73 41 22 0 0
0.0338 0.2676 -0.8193 0.588 0.779 0.219 61 28 11 0 0
0.0033 0.3032 -0.9014 -0.443 0.875 -0.196 64 37 20 0 0
0.0031 0.3034 -0.9045 -0.347 0.935 -0.071 63 36 19 0 0
-0.0331 0.3461 -0.9881 -0.480 0.870 0.114 92 68 56 0 0
-0.0381 0.3520 -0.9970 -0.402 0.914 -0.046 79 39 16 0 0
-0.0383 0.3521 -1.0001 -0.394 0.916 -0.074 78 34 6 0 0
-0.0468 0.3621 -1.0222 -0.774 0.621 -0.128 91 46 13 0 0
-0.0556 0.3724 -1.0437 -0.564 0.798 0.215 104 73 45 0 0
-0.0492 0.3645 -1.0528 -0.417 0.844 0.337 101 70 42 0 0
-0.0515 0.3672 -1.0573 -0.462 0.817 0.344 94 62 37 0 0
-0.0475 0.3616 -1.0974 -0.486 0.854 0.184 57 26 10 0 0
-0.0477 0.3617 -1.1005 -0.468 0.880 0.086 65 29 10 0 0
-0.0475 0.3614 -1.1041 -0.709 0.703 0.062 70 34 12 0 0
0.0412 0.2780 -0.0134 -0.174 0.956 0.237 69 37 16 0 0
0.0313 0.2898 -0.0308 -0.538 0.816 -0.212 64 39 28 0 0
0.0484 0.2680 -0.0825 -0.138 0.987 -0.080 66 42 30 0 0
0.0493 0.2669 -0.0886 -0.235 0.919 0.318 66 42 30 0 0
0.0160 0.3057 -0.1776 -0.811 0.584 0.048 66 48 36 0 0
0.0557 0.2541 -0.3653 0.027 0.899 0.438 41 23 17 0 0
0.0545 0.2551 -0.3872 -0.538 0.839 -0.083 64 38 25 0 0
0.0539 0.2558 -0.3902 -0.193 0.448 0.873 67 40 29 0 0
0.0258 0.2898 -0.4029 0.029 0.969 -0.245 71 35 19 0 0
0.0770 0.2232 -0.6451 0.433 0.898 0.079 92 62 42 0 0
0.0776 0.2224 -0.6487 0.427 0.890 0.157 91 60 38 0 0
0.0657 0.2362 -0.6861 -0.215 0.941 0.262 76 45 27 0 0
0.0646 0.2375 -0.6889 -0.093 0.962 0.256 76 46 27 0 0
0.0638 0.2383 -0.6918 -0.084 0.985 0.148 76 45 27 0 0
0.0634 0.2388 -0.6949 -0.293 0.927 0.235 75 45 27 0 0
0.0633 0.2389 -0.6982 0.008 0.892 0.453 75 44 27 0 0
0.0606 0.2422 -0.7001 -0.462 0.819 0.339 75 43 27 0 0
0.0579 0.2454 -0.7019 0.111 0.802 0.587 75 43 27 0 0
0.0578 0.2453 -0.7152 -0.193 0.783 0.591 74 42 24 0 0
0.0564 0.2469 -0.7178 -0.193 0.783 0.591 72 41 23 0 0
0.0532 0.2507 -0.7193 -0.735 0.624 0.265 73 42 23 0 0
0.0522 0.2519 -0.7221 -0.443 0.879 -0.178 73 42 24 0 0
0.0511 0.2523 -0.7751 -0.856 0.185 0.483 72 39 23 0 0
0.0406 0.2646 -0.7987 -0.719 0.325 -0.615 65 32 15 0 0
0.0481 0.2552 -0.8204 -0.874 0.466 0.136 63 30 13 0 0
0.0059 0.3050 -0.9014 -0.294 0.935 -0.198 67 40 23 0 0
-0.0157 0.3299 -0.9742 -0.392 0.912 0.119 83 61 50 0 0
-0.0160 0.3302 -0.9773 -0.392 0.912 0.119 88 67 56 0 0
-0.0288 0.3456 -0.9897 -0.387 0.870 0.305 93 69 57 0 0
-0.0344 0.3521 -1.0047 -0.464 0.885 -0.036 77 31 4 0 0
-0.0483 0.3684 -1.0352 -0.604 0.771 0.202 98 66 38 0 0
-0.0492 0.3695 -1.0376 -0.642 0.721 0.260 101 68 40 0 0
-0.0475 0.3673 -1.0424 -0.389 0.914 0.118 100 69 41 0 0
-0.0489 0.3688 -1.0575 -0.462 0.817 0.344 94 62 37 0 0
-0.0453 0.3636 -1.0973 -0.643 0.728 0.239 64 31 13 0 0
-0.0457 0.3642 -1.1001 -0.643 0.728 0.239 67 30 11 0 0
0.0435 0.2799 -0.0194 -0.759 0.604 0.243 65 38 23 0 0
0.0034 0.3264 -0.1342 -0.220 0.911 0.350 70 33 9 0 0
0.0028 0.3271 -0.1370 -0.200 0.980 -0.025 70 35 13 0 0
0.0083 0.3203 -0.1465 -0.648 0.710 0.276 69 44 28 0 0
0.0542 0.2621 -0.2919 -0.653 0.589 -0.475 70 42 28 0 0
0.0605 0.2532 -0.3629 -0.596 0.655 0.464 52 32 25 0 0
0.0565 0.2577 -0.3839 0.006 0.976 0.217 64 38 26 0 0
0.0252 0.2953 -0.4019 -0.142 0.635 0.759 75 40 26 0 0
0.0967 0.2070 -0.4956 0.528 0.849 -0.012 156 152 152 0 0
0.0972 0.2063 -0.4992 0.533 0.841 -0.091 159 154 154 0 0
0.0624 0.2449 -0.6997 -0.830 0.548 0.104 77 47 31 0 0
0.0617 0.2454 -0.7194 -0.300 0.501 0.812 77 46 30 0 0
0.0602 0.2472 -0.7219 -0.263 0.622 0.737 73 43 26 0 0
0.0606 0.2467 -0.7255 -0.232 0.965 -0.121 72 42 25 0 0
0.0582 0.2496 -0.7275 -0.758 0.207 -0.619 71 42 26 0 0
0.0606 0.2465 -0.7323 -0.671 0.297 -0.679 72 43 27 0 0
0.0510 0.2575 -0.7702 -0.849 0.424 0.314 73 41 26 0 0
0.0499 0.2589 -0.7728 -0.794 0.288 0.536 74 41 26 0 0
-0.0009 0.3187 -0.8715 0.038 0.952 0.304 83 52 31 0 0
0.0100 0.3053 -0.8827 -0.932 0.357 -0.067 81 52 32 0 0
-0.0106 0.3287 -0.9698 -0.269 0.866 0.423 86 66 55 0 0
-0.0105 0.3285 -0.9732 -0.297 0.542 0.786 84 64 53 0 0
-0.0368 0.3598 -1.0006 -0.798 0.598 0.075 78 33 6 0 0
-0.0446 0.3686 -1.0429 -0.389 0.914 0.118 100 69 41 0 0
-0.0427 0.3661 -1.0545 -0.491 0.842 0.225 97 66 38 0 0
-0.0501 0.3743 -1.1003 -0.513 0.841 -0.173 74 35 11 0 0
-0.0459 0.3682 -1.1542 -0.221 0.783 -0.582 99 87 75 0 0
0.0534 0.2713 -0.0977 0.419 0.859 0.294 66 38 27 0 0
0.0060 0.3279 -0.1342 -0.199 0.901 0.385 75 39 16 0 0
0.0104 0.3223 -0.1466 -0.648 0.710 0.276 70 43 28 0 0
0.0211 0.3089 -0.1748 -0.484 0.395 0.781 68 50 38 0 0
0.0242 0.3049 -0.1873 -0.199 0.979 -0.031 69 50 39 0 0
0.0242 0.3048 -0.1933 -0.152 0.988 0.036 68 48 37 0 0
0.0424 0.2828 -0.2025 0.167 0.916 -0.365 68 48 37 0 0
0.0542 0.2673 -0.2695 0.006 0.996 0.088 79 51 37 0 0
0.0589 0.2613 -0.2925 -0.191 0.850 -0.491 80 54 39 0 0
0.0627 0.2566 -0.2965 0.045 0.871 -0.489 82 56 39 0 0
