ply
format ascii 1.0
element vertex 668
property float x
property float y
property float z
property uchar diffuse_red
property uchar diffuse_green
property uchar diffuse_blue
end_header
-0.04383378602434991 -0.04777434844378259 -1.1651366808157129 180 180 175
-0.047978898143404405 -0.05020010793872254 -1.1655273068667997 186 187 184
-0.05259440018517435 -0.052885331407743784 -1.165577998828155 190 190 188
-0.060191978133107824 -0.05721844053122354 -1.1635463654241718 193 193 191
-0.0651106160972165 -0.060069592273563725 -1.1633468989334648 195 195 193
-0.06840037587297108 -0.0620197682263344 -1.1642638773981742 197 197 195
-0.04353463833568916 -0.048411039531292346 -1.1848348149167325 198 198 196
-0.040015875076457375 -0.04660074136279738 -1.1905520787384138 199 199 197
-0.013738014732249004 -0.032218282127564155 -1.2122695574080427 201 201 199
0.02255181170940733 -0.012310003378946666 -1.2411424964773494 202 202 200
0.14730517631441448 0.056447941166859666 -1.3326384187314155 203 203 203
0.15577749779537797 0.06097686573031447 -1.3422689379646813 204 204 204
0.1730881050652857 0.0703840529321006 -1.3582106911103826 205 205 203
-0.15098233599507968 -0.10878840798375458 -1.1341583568467157 205 205 203
-0.15315663007292707 -0.11011388503518096 -1.1356526409367231 206 206 205
-0.15433798866984597 -0.11089116801250082 -1.137852396465593 206 206 206
0.011309668685618451 0.03782663836276031 0.052526379217573554 182 182 182
0.01444349106229426 0.039539443340953745 0.04971256039202596 182 182 182
0.017155840691605084 0.04100523182584537 0.04687051856162988 183 183 183
0.01915904000693102 0.042055836382173625 0.0439915957170984 183 183 183
0.02215053275338016 0.04368408170548381 0.04114033937783823 182 182 184
0.024862079157267656 0.04514817408682063 0.03826833144873985 182 183 182
0.025786673001287362 0.04556707689830125 0.0353280866052637 180 175 170
0.028385761721231764 0.0469647138902406 0.03243521335650476 158 148 139
0.029350056655353073 0.04740636825399323 0.02948502009933873 136 119 106
0.01582278379724314 0.03937817253733983 0.026134658261748673 124 98 81
0.014060876253644623 0.03822734350897506 0.023130990381031866 117 89 69
0.0145007744482426 0.03836327138492056 0.020185024097209563 111 84 65
0.017164909979807755 0.0397985975876321 0.017285927091209137 103 77 60
0.021519854469061298 0.04222123777860767 0.014411333517593076 97 69 50
0.021921670097636667 0.04233418808873905 0.011446750648346958 96 67 49
0.022556031788919656 0.042582857712301275 0.008483797417504133 92 64 45
0.022387611485840148 0.042362603882163494 0.005505426302132284 89 61 40
0.022429108014436455 0.04226490376616929 0.002529535611269511 93 65 45
0.026269255261115926 0.04438489672918931 -0.00040235892437343306 92 64 46
0.027939907507979568 0.045237862474449275 -0.0033704326247287063 91 65 46
0.028786275295188204 0.045609433996865664 -0.00635215685919165 88 64 44
0.03064561865621809 0.046572030912498924 -0.009330952044995325 86 63 43
0.03142638849252995 0.04690493495723582 -0.012322485032016332 87 65 46
0.03464952848584425 0.048662739656419624 -0.015309684376872029 83 64 51
0.035291398660078105 0.04891413856246352 -0.018312932959644753 83 66 58
0.03295230811687195 0.04742652663257739 -0.02131882509989804 93 81 72
0.03168378702164508 0.04656362418366607 -0.024319652419625956 120 114 109
0.021638473403371102 0.04058234319588083 -0.02728525469759891 156 154 153
0.017984333206434215 0.03832924492239745 -0.030251360589270644 183 181 183
0.009227983186906211 0.0331017983318202 -0.033169723122956025 181 181 182
0.0019007801652530208 0.028708708654755694 -0.036071397724609336 181 181 181
-0.006111926815851524 0.023917032471231565 -0.0389415128593075 181 181 182
-0.017076905166844753 0.017405765742457044 -0.04174873337771329 181 181 183
-0.0062691083405395365 0.023584393411561266 -0.04482338726607232 181 181 183
0.005017870354730648 0.03004066871387344 -0.047943849758088394 181 181 183
0.04742572734554816 0.05450257074336461 -0.05468476188526049 181 181 183
0.056868118639877126 0.05987809214307514 -0.05792091281883345 181 181 183
0.1221508685356188 0.09777419204944848 -0.0624540014114816 181 181 183
0.10230648407990198 0.08608817691101135 -0.06514084180895577 181 180 184
0.09928360560881172 0.08419955451812967 -0.06819878251156285 181 181 183
0.09582731052708608 0.08205898599465465 -0.07123520460696914 172 171 171
0.09261532080188589 0.08006108325415753 -0.07426787702523249 128 123 123
0.09190698782913237 0.07952086094011683 -0.07736873972709755 106 97 94
0.09009675606637373 0.07833941085070965 -0.08043177064813695 103 90 84
0.08950599053186822 0.07786779988381995 -0.08353190114017106 100 85 77
0.09056991763929154 0.078359001133583 -0.08669135188358743 97 80 72
0.09010737449056776 0.07796195442467135 -0.08979715828037124 100 85 77
0.08734115231467769 0.07622488318686066 -0.09281032324255767 86 72 65
0.08596824556406818 0.07529855625600129 -0.09587297306262053 90 76 70
0.08340818912770878 0.0736819879651322 -0.0988803039602541 92 77 74
0.08014846944115281 0.07165889846262821 -0.10184814361930121 103 86 81
0.03296909097926329 0.04410068302650406 -0.10274579862674717 98 81 74
0.018666323157943206 0.03566175967073615 -0.10507951238843685 98 81 71
0.0123677925825436 0.03187747761164389 -0.10776769460102185 97 79 68
0.004981786792713133 0.027462011521900552 -0.11037825592838524 101 81 70
-0.004994166616949309 0.02154246249199951 -0.11282459117544912 97 73 61
0.0008389344666274133 0.024810286094557904 -0.11611610347013152 98 71 56
-0.004693024614280318 0.0214742815114889 -0.11877722556953019 104 76 58
-0.003451306658939588 0.022073964937750774 -0.12182022675569668 107 76 56
-0.009107031540115034 0.018667088795464318 -0.12444899119652839 123 94 75
-0.01758885496940084 0.013619658365891803 -0.1268821841138308 117 87 71
-0.017867872726426266 0.01333678518362575 -0.12981426771062052 109 77 58
-0.020910550737652214 0.011449247615823901 -0.13256378171406905 102 69 46
-0.017961431924166705 0.013040697613898596 -0.13570985444504563 89 54 30
-0.016963043464819208 0.013499312488532048 -0.13873151112135546 84 48 25
-0.006929497269827573 0.019201895912400527 -0.1424016959114546 82 52 32
-0.0008885535989911729 0.022585920087182305 -0.145816278722571 76 48 31
-0.01057869048764547 0.01684072020969364 -0.14807655131759165 77 49 35
-0.021428050906949225 0.010424285008605299 -0.15021521144512873 76 53 42
-0.025665915853714714 0.007844889510079115 -0.15283441887212637 77 57 48
-0.011339476424200703 0.016034437999771153 -0.15692533917421575 77 60 52
0.003126164338048007 0.024302629675354057 -0.16107870349393463 77 60 52
-0.0194836190998982 0.011068120351834757 -0.16218703029458922 76 59 52
-0.013273009535624818 0.014548120420611599 -0.16567475841510845 74 58 51
-0.016896665804374683 0.01232556430933843 -0.16832938215826762 74 59 52
-0.011222375217006773 0.015493505747371277 -0.17179768655550248 76 61 54
-0.004280265136774108 0.019395457212985485 -0.1754015974334231 75 60 53
-0.0019690328293830994 0.02061251901960159 -0.17860347056957881 78 61 54
0.005501083514009152 0.024818701894103706 -0.18229950465185812 78 61 54
0.006039628211017174 0.025007532711944884 -0.1853587669969657 76 59 52
0.018458589465958304 0.032079054684269255 -0.1895796842622794 77 60 53
0.018915627530483467 0.032219582940098856 -0.19265742069693786 77 60 53
0.019753744302019278 0.03258072495538128 -0.19577624801676488 76 59 52
0.023811478199984953 0.03480626689873098 -0.19922998683298912 76 59 52
0.02567979304348408 0.03576339508271021 -0.2024700341724001 74 60 53
0.035257928888886736 0.04118405425624501 -0.20653731352567656 76 62 55
0.03771867745575837 0.0424829740447144 -0.209870037705081 77 63 55
0.047697244911308646 0.04813309080703383 -0.214038103722797 80 66 59
0.0644748985967862 0.05771680232330099 -0.2190009738391754 84 69 64
0.06865710080479911 0.06000915605312418 -0.22259617813976826 85 70 63
0.08487580589503319 0.06926543701447413 -0.2275926273708916 86 71 64
0.08907439974380167 0.07156511726493203 -0.2312423985725072 85 71 64
0.09162324717417047 0.07290981023334205 -0.23471226717196114 87 75 68
0.09023581115276626 0.07197732951512945 -0.23771824229436148 92 79 74
0.0917582162497991 0.07272786205830181 -0.24107580378994423 96 84 79
0.08818843304929112 0.07053352353392445 -0.2438087517104099 98 87 83
0.0871503756535118 0.069803471658036 -0.24684832613843483 108 97 95
0.0865262050400919 0.0693128021430682 -0.24993801236497915 114 103 102
0.08338691291529404 0.06736833160536648 -0.2527015494586276 118 111 110
0.08254621544855287 0.06675279406372002 -0.255756084882279 125 120 119
0.08227266408671755 0.06646508913273341 -0.25888395876390613 143 139 139
0.08087317421815471 0.06552678482990543 -0.2618604484754489 167 163 164
0.07978901525740975 0.06477082476770198 -0.26487598931878076 179 175 178
0.07847082588068739 0.06387978460782832 -0.26785641860811826 183 180 184
0.07828802185312052 0.0636447023936901 -0.27099194531219284 181 180 185
0.10514338180852603 0.0790251384610206 -0.27795573595303863 179 179 182
0.11989123533977558 0.08740998787758725 -0.2832800395482881 180 180 180
0.12400888380763479 0.08965486322912189 -0.287115007187848 179 180 181
0.12790682873324644 0.09177225935575889 -0.2909333306858344 179 180 182
0.13820995637958236 0.09758641805185188 -0.2957186546192525 180 179 181
0.14128023572917203 0.09922442478429418 -0.29945354130594903 180 179 181
0.111676911776831 0.08200595182248507 -0.29822760893869155 180 178 181
0.10946977908821073 0.08060013203365037 -0.3011159282992301 180 179 182
0.1137130926801583 0.082916216357933 -0.3050020632182622 179 179 182
0.11159629358525272 0.08156259539883727 -0.30790249136252734 181 179 182
0.10707340024959991 0.0788213772010708 -0.3104131980868945 179 177 178
0.08761286006220886 0.06746565884735604 -0.31050301156442567 165 162 162
0.0873717071161185 0.0671958892002436 -0.31365441514150605 158 153 153
0.08637787861620502 0.0664921247580652 -0.316682098509531 153 149 148
0.08443581091648049 0.06524178343526771 -0.3195495110835245 153 148 147
0.08306741091351028 0.06432237161708519 -0.32250753031814805 158 155 152
0.09301369001803023 0.06992461008935716 -0.3273845800453081 175 173 173
0.07377293440499094 0.058704818123847716 -0.3272859857779792 182 180 183
0.06846229460891144 0.05551472237744514 -0.3295368703524417 180 177 180
0.06319264635760796 0.05234897602605435 -0.3317770740385108 179 179 183
0.05795228757741812 0.04920082909405336 -0.3340047350264343 179 180 184
0.0529969566810474 0.04621758345178523 -0.33626573729524484 180 180 181
0.04764318693777444 0.04300554314936736 -0.3384381468654386 180 180 182
0.09345226177767672 0.06925709435912057 -0.3499247173914818 180 180 182
0.25133730094025586 0.1591742830227096 -0.4032116147936879 180 180 182
0.23680906788478587 0.15053051457218314 -0.40733523539489763 180 180 183
0.2068105997107106 0.1331348770494213 -0.4048072706293989 178 177 181
0.17058958031070892 0.1121652477299107 -0.40091598407968787 105 98 100
0.13970754430121612 0.09427072412734001 -0.3979844746478856 84 74 72
0.10729428235320657 0.07550036002554594 -0.39462871857297904 84 70 67
0.08877264724444411 0.06472016734943586 -0.39403920907925316 83 68 63
0.07066261596675055 0.054179224024037756 -0.3934705491814699 85 69 62
0.0721958914239816 0.05492977195757848 -0.396982528532582 85 67 60
0.06225060006055629 0.049084238914696446 -0.3980586677976915 88 69 62
0.051604977540424354 0.04283775050352303 -0.3989499356880019 91 71 63
0.04254061191050412 0.037501172643881905 -0.40014619681944436 89 69 60
0.02671388704114204 0.028281587539398172 -0.3998357408025869 93 70 62
0.02138151045743447 0.025091465041474206 -0.40177774731030935 93 70 61
0.02590615604117498 0.027562505909671676 -0.40588735777122414 92 68 58
0.0322614034563594 0.031083933194040618 -0.410423433943314 90 64 53
0.023931342715427344 0.02617346666997062 -0.4116742627197583 94 66 50
0.01681156094024345 0.021958922928048054 -0.41317107997361757 104 76 57
0.01282882256863837 0.019545917939870427 -0.4153614813487701 103 75 54
0.0137040577095362 0.019921374886938625 -0.4186594276455917 103 69 48
0.018662400334249082 0.022639593941474613 -0.4229109414917354 97 62 41
0.020231702122893713 0.023412621268437104 -0.42638718455642305 94 59 37
0.025500102481846733 0.026307414416256787 -0.43074351621053275 90 56 34
0.02655923770787512 0.026786996570816388 -0.43411836731880316 88 57 33
0.025454025265905962 0.026025092036627832 -0.4369792192844748 88 59 36
0.021362528383198638 0.023550846212135795 -0.4391158683350635 87 62 44
0.01908567418492363 0.022117621714290797 -0.4416803388982565 95 76 64
0.02682114344855007 0.026424705586357337 -0.44669187033066815 103 91 83
0.029494390628180954 0.027828832962303963 -0.4504823191227232 149 145 142
0.017169553290479415 0.020636413325270657 -0.4505529858103378 183 184 183
0.002045136561688733 0.011841408768875298 -0.4498788332763639 181 182 184
-0.009979449977565058 0.004824799065136394 -0.44993332144255754 181 182 184
-0.02324548676310084 -0.0029013323672545145 -0.4496299104009825 181 182 184
0.03656183291410614 0.02301107486989188 -0.6687299306167523 194 195 197
0.04889428342839952 0.029884817032673018 -0.676546989492621 195 196 198
0.0068344824961151796 0.0058623209903065285 -0.6640359360031688 195 196 198
0.08343554724107197 0.0492355206845756 -0.6960386071146258 196 197 199
0.08725870465155174 0.05127087230373053 -0.7007947676296286 196 197 199
0.0878807401340517 0.05148811708556597 -0.7043493156126 197 198 200
0.09138421016290169 0.05334098109480035 -0.7090078887824134 197 198 200
0.10772888644442215 0.06248210793817912 -0.7186092189165624 198 199 201
0.1243785925789945 0.0717938304670799 -0.7283897103863515 198 199 201
0.13405126400983905 0.07714378499218 -0.7355291617699901 199 200 202
0.13498141198599478 0.07753184246124549 -0.7393014705022222 200 201 203
0.12685535296109482 0.07278203399209769 -0.7395354133785723 200 201 203
0.12339701914988789 0.07068110554763506 -0.7415751403197072 201 202 204
0.11819235519758416 0.06759020939771372 -0.7429135315030576 202 203 205
0.1119368454557913 0.06390414036497474 -0.7438168265611426 203 204 206
0.11551499209399858 0.06579472478076824 -0.7486179899471812 204 205 207
0.11611686442211767 0.06599737823011285 -0.7522416079141845 205 206 208
0.14778824406090146 0.08381179810181638 -0.7683687752242936 206 206 208
-0.008042460244038208 -0.004780195119907245 -0.7119858633890073 207 207 209
0.007694494113074213 0.004007429278571326 -0.7215626894338334 207 207 209
-0.03941601889557383 -0.02281367391559669 -0.7054471579096347 208 208 210
0.15861276120442186 0.08923759532236872 -0.7900590550647505 209 209 211
0.15629212189063402 0.08778101972350874 -0.7925700565653249 209 209 211
0.15390735774520936 0.08628843481381862 -0.7950469548211706 209 209 211
0.1517100075374174 0.0849022883463094 -0.7975943260858076 209 209 211
0.15068057011427144 0.08417766703310152 -0.8006240818252103 209 209 211
0.14795737527592387 0.08249432926877205 -0.8029382535521147 210 210 212
0.14511751144198842 0.08074532273406243 -0.8051941193161056 208 209 211
0.14247050121999816 0.07910584604909425 -0.8075224537529417 209 210 212
0.1398300802582012 0.07747045472262223 -0.809844890336334 206 206 208
0.13713493445506725 0.07580445657175632 -0.8121351977870952 184 181 182
0.13444679317018207 0.07414278539387274 -0.8144196225341346 148 143 142
0.13717426638931807 0.07554474686159479 -0.819035120773262 120 112 110
0.12806776515685794 0.07025342101830225 -0.8185267142812486 108 97 96
0.10784020977484736 0.05867466462399101 -0.8131388943492734 102 89 86
0.10105769424158319 0.05470087664298272 -0.8135612231484302 100 86 80
0.0916666045981006 0.049253371990671646 -0.812812806831253 95 79 72
0.08425362592834296 0.04492539341100227 -0.812903596157499 91 74 66
0.0839978768292428 0.04464361089289104 -0.8161404001682001 86 68 59
0.07631195699790641 0.04016302224631743 -0.8160699186575255 86 66 54
0.0777504719574455 0.040839096542616526 -0.8200505060689282 87 64 52
0.07289570936607365 0.03795952893384025 -0.8212126875541155 86 62 49
0.07040663357384705 0.03641696880476007 -0.8234241489342342 84 61 46
0.06249598331311321 0.031812666392969924 -0.8231735210204141 84 59 44
0.05794993592483737 0.029109584213537792 -0.8244235671136977 83 57 42
0.05419096926054526 0.02685157245502473 -0.8260168920238777 83 57 42
0.04709659397674408 0.022711037207963317 -0.8260688572691692 83 57 42
0.036042116503506416 0.01633611429972942 -0.8242732908471021 84 56 42
0.041140109947147646 0.019079483725203628 -0.8298994756392941 84 56 42
0.043988741594897476 0.020552632631695586 -0.8345024916413007 84 56 42
0.0467881981228839 0.021997551644379082 -0.8390943825170669 86 57 43
0.049317875453937954 0.02328979120656799 -0.8435717225631021 88 59 45
0.05301045431939351 0.025237594554096937 -0.8486056114972966 91 62 48
0.05556899006069453 0.02654515363008951 -0.853119925889269 93 64 48
0.05715908912734009 0.027306123604374954 -0.8571866564753359 94 65 49
0.060427006588154364 0.02901288092667255 -0.8620576154806451 94 65 47
0.06745424961886566 0.03283858467738966 -0.868735118350503 95 66 45
0.0624906890628318 0.029903710199735867 -0.8696981301554394 96 64 45
0.06196501294417328 0.029470935056709516 -0.8727771008332846 99 65 42
0.06235005908626834 0.02955144695696238 -0.8762947487951924 100 69 43
0.056069556003566834 0.025875893720027673 -0.8765854358650028 101 74 50
0.05296598551358554 0.023991183097839736 -0.8783988338105448 103 76 57
0.02350992758193457 0.007261646180790171 -0.8673344264632634 105 82 66
0.027089565927245624 0.009144199864562053 -0.8723528718811789 106 87 75
0.030685442119177203 0.011035301208243753 -0.8773938846458063 109 91 84
0.03447582858985565 0.013035331854742704 -0.8825456170599398 111 95 92
0.03496749706856711 0.013177469612134382 -0.8860771994575227 112 99 96
0.03932939796619503 0.0154982271974516 -0.8915379333873096 112 100 94
0.05056455768092112 0.02168702407734141 -0.9004499769339854 111 100 94
0.05436859620939849 0.023691850217113564 -0.9056790502138473 113 102 97
0.06639141117162975 0.030320883224500425 -0.9150605648980674 113 101 97
0.06500785610327414 0.029405062722131267 -0.9177151080318041 111 100 95
0.06474642166094637 0.029120672412130885 -0.9209346124005049 114 102 96
0.06155771618496189 0.027189732454038662 -0.9226642067745005 121 108 102
0.05954506274498972 0.02592066001897045 -0.924983730634383 122 109 103
0.05829721724947966 0.02508192741157443 -0.9276889618346483 121 108 101
0.0573531056670767 0.024414117214241166 -0.9305469244774123 120 106 97
0.05604918995265391 0.023544134720254115 -0.9332165663642933 119 103 92
0.05595886535050969 0.023356464352922962 -0.936511614639013 110 94 80
0.04592698818233831 0.017581416555276883 -0.9346341423816021 98 81 70
0.040611071464932244 0.014457974793883901 -0.9351827769593616 90 69 59
0.0346805846654341 0.010990007464571988 -0.9353902531674697 82 60 47
0.02479269101104821 0.005299697189581523 -0.9334945526671428 81 57 45
0.015068880924350325 -0.00029695561208804844 -0.9316491008876645 81 57 45
0.006438549926485862 -0.005278010852915044 -0.9303472501048963 81 57 45
0.0024879965605440896 -0.0076298240350205215 -0.9315021966224631 82 58 46
-0.007981159792645479 -0.013641105737858143 -0.9291646478339386 82 58 47
0.003718121913885347 -0.007205485969438236 -0.9386605182765355 81 59 48
0.001755814172578557 -0.008440257800055959 -0.9408596426554037 81 59 48
0.007076628397312185 -0.0055871717805815735 -0.9469804689135581 79 58 47
0.013969772622123497 -0.0018526228930931116 -0.953973613203911 80 58 46
0.014545268148617285 -0.0016639413677777687 -0.957562698500622 81 57 45
0.01638659948717966 -0.0007652495105249513 -0.9618450052043009 81 57 45
0.01618053821732593 -0.0010153356142373476 -0.9650156132199587 82 58 46
0.02443769645153482 0.0034811871889592755 -0.9728315372325879 83 59 47
0.04175691902523203 0.013058156481575753 -0.9856709156828427 84 60 48
0.01738330942909244 -0.0007446685090005262 -0.9755357124463858 83 59 47
0.017653926804776773 -0.0007277140380064079 -0.9789754147641249 82 58 46
0.013812256552729427 -0.0030159527971702488 -0.9801289221886871 83 59 47
0.0011353657013269125 -0.010255450250937576 -0.9763355871679062 85 62 49
-0.007188014588365432 -0.015053371772096522 -0.9749341815964716 86 64 51
-0.015852809055570682 -0.020041334338860496 -0.9733101886332469 86 64 51
-0.011679803207308784 -0.017835885723783154 -0.9788958992161927 87 66 52
-0.013064799193659604 -0.018744450682502724 -0.9813528068671848 87 68 55
-0.015029461412038495 -0.01997749861613459 -0.9834763211006498 87 67 56
-0.016848326108745634 -0.021128638129746052 -0.9856765004209663 90 70 59
-0.02541051593418915 -0.02605523068985982 -0.9840154756867112 91 71 60
-0.02998351399688859 -0.028747228825804168 -0.9846111697961591 90 70 59
-0.02692573555094674 -0.027167159180635586 -0.9895823605319807 90 71 60
-0.018386413224925 -0.022519698751632268 -0.9977317159602774 95 77 67
-0.008012668157851233 -0.016847073926435585 -1.0069776476527226 96 78 68
-0.0023836806451031367 -0.013830925596409499 -1.0135062967207418 96 78 68
-0.004957957123674278 -0.015404984272087682 -1.0152734220384299 93 76 68
-0.012398872693676635 -0.019700921853105298 -1.0141842301730668 91 72 65
-0.01557513356500756 -0.021610564044276914 -1.0155711302615424 88 69 62
-0.013807811736983047 -0.020755251178095187 -1.0198584793111924 85 66 59
-0.02048181594850952 -0.02462007263844261 -1.019165997049808 77 53 44
-0.022877387681108058 -0.02609201996393993 -1.0209852064949096 72 44 33
-0.022746123823230296 -0.02615119909965692 -1.0242990357303516 70 39 22
-0.015938238717153108 -0.022478907789950188 -1.0315978781574324 70 38 19
-0.014367824417738373 -0.021734520698151252 -1.0357891071607161 69 37 20
-0.019953438626951675 -0.024988774661375987 -1.0356905476022862 68 38 20
-0.04921193774740824 -0.041467285511947755 -1.0213115118596237 68 39 21
-0.050465948944879234 -0.042298456064536014 -1.0237443444974785 70 42 21
-0.05079619788629106 -0.04261354985831046 -1.0267334430699993 74 46 20
-0.049718442003226816 -0.04214237258186826 -1.030578625237642 84 57 32
-0.05551112289141519 -0.045507482454022224 -1.0302375741799261 87 63 42
-0.04834928123445194 -0.04163965323031506 -1.0378034215560605 87 64 46
-0.047137561154780815 -0.04109427920271123 -1.0417450141154667 87 65 47
-0.0456810013397293 -0.040412493519775 -1.045843137582104 86 65 48
-0.042599527264553905 -0.038824232027037754 -1.0509517800539023 84 63 46
-0.035711037593291334 -0.03511237500683192 -1.058432580415091 84 62 46
-0.044868471154333345 -0.04035321467149073 -1.055966468802048 83 64 49
-0.0445089889568001 -0.04028418745767076 -1.059400442581542 85 66 51
-0.04328042249601009 -0.03973056144868544 -1.0633804858791545 86 67 53
-0.04024417236803127 -0.03816914727523486 -1.0685005174188829 86 67 53
-0.03469335417768403 -0.03520624649706458 -1.0752158771198395 85 67 53
-0.02787497243875431 -0.031537631581730806 -1.0827539366031507 82 64 54
-0.027285000248033126 -0.03134183911538009 -1.0863755821679086 74 57 49
-0.030694463923144025 -0.03337514342364123 -1.087460428739664 64 47 40
-0.03631394290779483 -0.03663945979702857 -1.0871252719181907 53 38 31
-0.03849609164383516 -0.037987788884389286 -1.088965942248576 53 38 31
-0.048294083475157054 -0.04357845566691401 -1.0859180188036013 56 40 33
-0.04211315830668812 -0.04026733591674091 -1.0931056211414347 63 46 37
-0.04913762487609588 -0.044311615147516005 -1.0918033547795216 66 49 37
-0.04686449639223897 -0.043177526355259344 -1.096488105443158 69 49 38
-0.045518522627196634 -0.04256004874374107 -1.1005813275247436 68 48 37
-0.04297093811230575 -0.041273911878942755 -1.1054626396965848 61 41 30
-0.04699216849757344 -0.04364445777725142 -1.106068436843109 63 41 29
-0.048107414076286145 -0.04439715580234591 -1.108561674930725 67 43 28
-0.04913892220425635 -0.04510312611282034 -1.1111066496906765 76 51 31
-0.04916358865368091 -0.045248804388975 -1.114311588527064 84 61 38
-0.04959919272010117 -0.04562312278719631 -1.1172461801434506 86 66 46
-0.0499750803398266 -0.04596420201084176 -1.120219722232647 88 68 49
-0.04805366362963544 -0.04502767124703773 -1.1247187470079507 88 67 48
-0.04742927115059917 -0.04481269926295704 -1.1283623403650624 86 66 47
-0.04725695240537449 -0.044849210467412054 -1.131707437333227 83 65 45
-0.041298933114829045 -0.04166958612111588 -1.138930834312825 81 63 43
-0.04203544512591796 -0.042211839743362546 -1.141680015246669 82 63 45
-0.04178069952392485 -0.04220314979546216 -1.145095451361115 85 68 52
-0.043102223677377746 -0.04307040006764956 -1.1474476527464188 87 72 56
-0.04421465768707074 -0.04382132053696697 -1.1499375351285166 82 69 56
-0.04775441222956851 -0.04592046249909826 -1.1507742234100506 84 74 63
-0.052404378043800284 -0.04863570817002793 -1.1508414006907715 102 95 84
-0.05546844006152814 -0.05046955517116479 -1.1519757535543245 132 127 117
-0.040764335573583874 -0.042437162751264544 -1.1652809867051293 157 157 149
-0.046992781230547884 -0.046028315087902644 -1.1642526385859147 174 175 171
-0.05216561773212029 -0.049032558014058196 -1.1639289384131117 183 184 181
-0.05698480574907562 -0.051839740374084994 -1.163830686500789 189 189 187
-0.061686380594082706 -0.05458093002812116 -1.163796277918276 192 192 190
-0.06810115081793568 -0.058271981813981286 -1.1625533444268554 194 194 192
-0.06612023396058006 -0.05730436366672345 -1.1671407674793726 198 198 196
-0.03982396727810056 -0.04284958863115595 -1.1887396283145482 198 198 196
-0.038268485274354475 -0.04212059194767486 -1.1930939209856921 199 199 197
-0.01368282914682134 -0.028620935405546624 -1.213649379050985 201 201 199
0.004820382281318564 -0.018497682929184134 -1.2300132647374846 202 202 202
-0.1549085044671123 -0.10755824650888388 -1.1295587558462385 205 205 203
-0.15420881397276784 -0.10729535845127376 -1.1331048992851536 205 205 203
-0.15514007417283865 -0.10793612313534587 -1.1354856504931017 206 206 204
-0.1577782999402258 -0.10952225159031773 -1.1366367784983107 206 206 206
0.01572624507442586 0.04386280964201825 0.05271418196362881 182 182 182
0.018080299375763206 0.04512426901029762 0.04985789580649262 182 182 182
0.02111459446388943 0.04678462698193117 0.04701934306381878 182 182 182
0.02331533819826966 0.0479553299678067 0.044138121393283505 182 182 183
0.025938885719926752 0.04937379153025911 0.041263583232598704 180 178 178
0.02821001270902239 0.05058506929352238 0.03836706661335572 158 148 141
0.032397738935099694 0.05292039853885133 0.03552400791381064 124 104 88
0.0332010819392514 0.05326983026439355 0.032561618208369864 117 88 66
0.023604106416600105 0.04751902986312664 0.029293701267436273 111 80 58
0.02180524223220279 0.0463428005516678 0.026270682013610526 112 79 55
0.022110290315901848 0.046400493869436 0.023306722252595113 111 79 53
0.02240075997741895 0.04644955815507143 0.02034041743477339 106 78 56
0.02204035736139406 0.04611697024610631 0.01735774517757757 100 73 56
0.02213476684668865 0.04605099501170104 0.014384654914165452 93 65 50
0.021235611588361528 0.045402631347339656 0.011391691598590784 93 64 46
0.02432564700277056 0.04709217254321478 0.00846867979180533 90 62 43
0.024811421236762624 0.04725522800124288 0.005494298103784175 87 59 38
0.02351523252750279 0.0463741282267522 0.0024931291876662733 85 56 36
0.03118175350249373 0.050743774583698734 -0.0003984261325293446 86 55 37
0.03297471188002511 0.05167182272827498 -0.0033767527614452144 87 58 40
0.03392291955808468 0.05210482028848732 -0.006369304678357761 84 56 37
0.0320741841365093 0.05089970799379542 -0.009384749045440316 84 57 36
0.03367076820252245 0.05171221197019036 -0.012377727343921254 79 54 36
0.03374343882157689 0.05163223685396763 -0.015382087914516337 75 52 38
0.04409895182412793 0.05757185199753803 -0.018372199431076174 77 55 43
0.042130888012779845 0.056296539772744514 -0.021396267697903735 78 58 46
0.04053813147449291 0.055241119332077565 -0.024415245234453663 78 64 54
0.038993023736148956 0.05421376740648796 -0.027429869131802793 83 74 67
0.03219047219546464 0.050110332846755284 -0.030411749769163186 109 103 100
0.024547554311600467 0.04551615677171218 -0.033365119442152445 164 160 159
0.01638970859400745 0.040621793493970874 -0.03628849340714509 183 181 180
0.007741406620691272 0.035441666106964045 -0.039179449283557946 181 181 180
-0.0024527710689556323 0.029358624150501614 -0.042022441415100864 181 181 183
0.003734056118479767 0.03285614208617223 -0.04506106613378187 181 181 183
0.01032105016069099 0.03658672713745832 -0.04812834601348992 181 181 183
0.013761799145053873 0.03847695027432406 -0.05116432138916817 181 181 183
0.049021828770294276 0.05896695525816597 -0.05482492843281199 181 181 183
0.0580636757343388 0.0641276702005837 -0.05805910409952539 181 181 183
0.11835958213810037 0.09924094861239363 -0.06248847989853511 181 181 183
0.1129961086925161 0.09597767389895943 -0.06552424120507498 181 181 182
0.10822515387772315 0.0930613115046386 -0.06855792865043732 174 172 173
0.11061514944976686 0.09432906446208059 -0.07177579135591491 123 118 118
0.0868619060460394 0.08032520543829849 -0.07422855769506377 105 96 92
0.08050028456011567 0.07648252457580088 -0.07714526766010799 101 88 81
0.0783217106500183 0.07508358404530693 -0.08017932399836555 99 81 73
0.0849927363200109 0.07885241125552467 -0.08351501489121763 95 75 65
0.08736457936378328 0.0801101585360743 -0.08671767799669072 89 71 60
0.08651627863188067 0.07948766346024011 -0.08980625235147946 94 77 67
0.08566857245078904 0.07886559470695115 -0.09289290643464979 92 76 69
0.08482146062053714 0.07824395207133207 -0.09597764239988023 89 74 68
0.08086644707210101 0.07580870877457774 -0.0989252042340269 87 72 67
0.034256216181440806 0.04848468243292649 -0.0999298096958435 99 82 75
0.02569745847385469 0.04336754857545146 -0.10256133173347502 96 79 71
0.014135785862777556 0.03649981586886894 -0.10501771043251096 95 77 68
0.009405572577368494 0.03361838451204083 -0.10777960596976874 96 76 66
0.00716297735057873 0.03218840351064939 -0.11065588007371219 99 78 67
-0.005142651282582778 0.024890496890526147 -0.11298236249065602 97 74 62
-0.0022363191445269152 0.02646399353323768 -0.11611418131862816 99 74 60
-0.007130553750554498 0.023489287286731643 -0.11880902755120895 106 78 63
-0.006134481651682636 0.023948883287477345 -0.12183637140514793 108 78 60
-0.012720823783097279 0.019988809597943115 -0.1244061743213638 120 91 73
-0.019851509710477992 0.015712396236508778 -0.1269198397866303 118 89 71
-0.019932333538562844 0.015545041123815106 -0.12986369764341582 110 80 60
-0.023531513376164978 0.013327699464832025 -0.13257544257650797 101 69 45
-0.020010713598002217 0.015258758829504743 -0.1357590726135226 93 59 34
-0.01652174079507248 0.01717073856188951 -0.1389537348884407 90 54 31
-0.012577465205472175 0.019347365766173023 -0.14219405109069036 83 51 31
-0.005899207030261332 0.02311555925506571 -0.14564910056929034 75 46 30
-0.011139398003474004 0.019942759823220337 -0.1482357860085676 76 48 34
-0.026351059042166246 0.010965085994001967 -0.15004081366178915 77 54 42
-0.03464857339812309 0.006014600234013984 -0.15233562076294813 76 56 47
-0.01933467542421801 0.014808911261807327 -0.15649472392586586 75 58 50
-0.002553274404495428 0.024455091621225635 -0.16082857898815198 75 58 51
-0.004104739065551637 0.023430321623989975 -0.1636886370467568 75 57 51
-0.004665163548088377 0.02298238293296116 -0.16662886030818688 75 57 51
-0.001147594423066809 0.0249070246630195 -0.16992349538065557 76 59 52
-0.006274130314284001 0.0218026802218885 -0.17246291123838003 76 60 53
-0.015481257262377493 0.01632556213217521 -0.1746153690871964 76 59 52
-0.007553070648993545 0.020815215910894736 -0.178320035365742 77 60 53
-0.010105586358308868 0.019209116715209137 -0.18106653002512238 76 59 52
-0.00015391212629472031 0.02487369569558897 -0.18500448083100976 74 57 50
0.011452130387229875 0.03149859663034481 -0.1891399404718535 74 57 50
0.018714910142437414 0.03559710005402506 -0.19288526210285795 74 57 50
0.020317130921276932 0.03640450184199133 -0.19608427216087668 74 57 50
0.020123028862154026 0.03616770676388487 -0.1991049634774317 74 57 50
0.03290488706706314 0.043470906217882216 -0.20348465109177605 74 59 52
0.01930916898842821 0.03544677238567533 -0.20510193030005935 74 59 52
0.021063922644559294 0.03634212289530403 -0.20833369357608542 74 59 52
0.022971710495442346 0.03732607284509672 -0.21158944865666562 76 61 54
0.029754126843525026 0.04114083471499834 -0.21539762956405586 78 63 56
0.0638605986875298 0.06082210529388568 -0.22233217156098514 80 66 58
0.06548432804046528 0.06163751254021355 -0.22564360621563623 81 67 59
0.08794809415664959 0.07455179879471546 -0.23140070757467543 83 67 57
0.08761447037460249 0.07422891396928313 -0.23452982490143226 84 68 58
0.08773819660539929 0.07417149438497941 -0.23771392868879992 87 70 62
0.09600772249783326 0.07884148589007169 -0.24189589566352596 88 72 64
0.09285732402118874 0.07688343571139114 -0.24469102810357124 85 72 64
0.08968645633462025 0.07491392040498575 -0.247473496440759 89 76 70
0.0850314500103636 0.07208381001424045 -0.2500564004714563 94 83 79
0.0850269000176988 0.07195191337072261 -0.2532255754026074 99 86 82
0.08415658900740479 0.07131783677763391 -0.2562822188272904 106 94 91
0.0836378167183799 0.07088770973213415 -0.25938353916808354 109 98 96
0.08213841425192087 0.06988899445662589 -0.2623519790323763 118 108 106
0.08119842335687197 0.06921478949201817 -0.26539247676364774 124 115 115
0.08083175078525401 0.06887303572827244 -0.2685099211529777 135 128 128
0.09232541901846192 0.07540597756197759 -0.2732874242042414 154 148 150
0.09606654320759281 0.07744412152020894 -0.2770076438981345 166 163 164
0.0998975511266275 0.07953376991411903 -0.28075504834578974 176 174 176
0.10424779627082303 0.08192367887163679 -0.28459250798971636 182 180 184
0.1080626969598068 0.08400276631511779 -0.2883676886753121 180 179 183
0.11608509090501512 0.08851855629555572 -0.29278370465592934 180 179 183
0.11939068584347784 0.09030115989397502 -0.29651877394118553 180 179 183
0.10476178960031685 0.08169683004008879 -0.29753353712978076 179 178 182
0.10392109507925376 0.08107874574290229 -0.3006231286444228 179 179 181
0.10382385561346619 0.08089119044952983 -0.3038267175482472 178 177 177
0.09933817239581964 0.07816307731730485 -0.3063388768645081 147 143 142
0.09468793439726418 0.07534032011203463 -0.30880990573628564 111 105 102
0.09213088160505199 0.07372966397072779 -0.31160302300724535 108 96 93
0.08897959088113605 0.0717754526974551 -0.3142912067564154 106 92 88
0.08865786808204185 0.07145891082603249 -0.3174356073748362 113 97 91
0.08118157392146341 0.06700308755355526 -0.3193879413699805 117 100 93
0.08661913712623007 0.07001869706255112 -0.3234891573531361 117 101 94
0.08568833092393247 0.06934997164211265 -0.32652712110377585 122 109 102
0.08467128353363354 0.06863146275839162 -0.3295479831996615 137 131 125
0.06944084779006268 0.059694012422901656 -0.3300971157971652 169 168 164
0.06367876395189898 0.05623322199921868 -0.3322547406782745 179 181 181
0.06003542711431241 0.05399810748877926 -0.33476848232209894 178 180 183
0.05257204556801961 0.04955533068998281 -0.33658623123098563 181 180 181
0.04722604870933296 0.04633738250916701 -0.3387613199163728 180 180 182
0.04189356935929559 0.04312798187867724 -0.34092083299104964 180 180 182
0.038474108220503137 0.04102470478125532 -0.3434151300048441 180 180 182
0.11669196064784192 0.08582205124348531 -0.36762102650654593 180 180 182
0.07062626484747624 0.059084523756530956 -0.36205943092166637 180 180 182
0.07238779423185411 0.05997200863272326 -0.3655813434453084 179 179 181
0.23138214617398806 0.15164350877221686 -0.3997915319141828 179 179 181
0.2550263593329791 0.1651521304070853 -0.40791836025099376 180 180 182
0.22603428873529186 0.14827338538103105 -0.40567168939978876 180 180 182
0.1962134410961974 0.1309204796888411 -0.4031562541001489 159 156 158
0.15277350264101006 0.10571235773456414 -0.3977802502791527 85 76 76
0.12411959417525169 0.08904241273379647 -0.39526729636845925 78 66 64
0.09851519204596308 0.07413602120834334 -0.39328059060355847 77 63 60
0.07435776354169711 0.06006805270476496 -0.39150369265970164 86 71 66
0.07451038150209424 0.06002570007375441 -0.39473303316078834 84 67 61
0.06745713948311119 0.05582744159328063 -0.3964417718510408 85 68 61
0.058095820459381685 0.050299201891118216 -0.3976345525554133 88 69 62
0.04958470243809937 0.04526250199132521 -0.3989774380514461 88 68 60
0.0431987126600897 0.041452165852654516 -0.4007511708777718 89 69 60
0.023240688085041455 0.029819284705376262 -0.3995386001038704 92 70 61
0.018139294066691125 0.026752124278096867 -0.4015270516393281 93 70 61
0.02151366369613838 0.028570181270742366 -0.40537991711265264 92 68 58
0.022243011659345877 0.028863592378847787 -0.4086539436922148 90 65 54
0.019038433043928278 0.0268903427354517 -0.4110440903231048 91 63 49
0.012236125525213117 0.02284497152969833 -0.4126055923909976 102 74 57
0.00930202820556468 0.0210286395334186 -0.4150302475439015 110 82 62
0.008952214594330994 0.02070105042540524 -0.41804233301992005 106 74 55
0.011471035470780828 0.02202537927920403 -0.4217219945607866 98 65 45
0.014583507971181138 0.023691108702092206 -0.4255510096694048 90 55 34
0.019582756466928287 0.026442565598826368 -0.42983828913657546 83 49 26
0.019996537114752168 0.026553707579083798 -0.4330523183381365 80 48 24
0.01957842914291294 0.026185947130200858 -0.43606920015109196 81 50 27
0.016734390464974956 0.02442212141145577 -0.43849898274351595 81 54 37
0.013053696508707018 0.022177251842635793 -0.440715709497632 91 71 58
0.019009924428481123 0.02547736221751042 -0.4452852360282364 97 83 75
0.028025504535620666 0.030536488657472802 -0.45063361190758017 125 119 115
0.015272063639666274 0.023072921884288132 -0.45059450668593387 180 180 180
0.0012720701740514748 0.01489427842351363 -0.45019769867336124 181 182 184
-0.01134396518511685 0.007513490757981314 -0.4501009774249238 181 182 184
-0.02360990264282517 0.00033581631714085444 -0.45004876011766665 181 182 184
0.05136332790657744 0.035049058570659465 -0.6749716170258993 194 195 197
0.0640217938911074 0.04213342978705317 -0.6829463907963387 195 196 198
-0.017743830159636605 -0.00461081816068834 -0.6555581955844406 195 196 198
-0.017367466095541767 -0.004523751264516741 -0.6588255247548935 196 197 199
0.00015331976874635722 0.005333850383467564 -0.6685881067693923 196 197 199
0.09340647187342611 0.05834305831442112 -0.7072373566732717 197 198 200
0.08904169956126202 0.05572026618760215 -0.7089023377441631 197 198 200
0.11004152409268894 0.06754767475747814 -0.7202988940681112 198 199 201
0.12630195444669384 0.07667231068993621 -0.7299443317566522 198 199 201
0.1390403237945937 0.08378854655366946 -0.7382846530174412 198 199 201
0.13579085336480204 0.08179855361166324 -0.7404410009636089 199 200 202
0.1340272418114004 0.0806550137963806 -0.7431684078196784 200 201 203
0.12307900889585906 0.0742829083102302 -0.7422761014975712 201 202 204
0.12010612656348571 0.0724521591863379 -0.7444975726901414 202 203 205
0.11572846985531149 0.06982229078877877 -0.7461511372616517 203 204 206
0.10879618731142149 0.0657392747606756 -0.7467700923214716 204 205 207
0.1177145158334765 0.07067618770981067 -0.7537195131874542 205 206 208
0.1399330677182603 0.08317846559028223 -0.7660603605827534 206 206 208
0.1551033514738881 0.09138548203063829 -0.7825601367019903 207 207 209
0.1537422251477552 0.09047020930571087 -0.7854671879476756 208 208 210
0.15354208844726558 0.09021516619866424 -0.7888487503530135 208 208 210
0.14951444385006973 0.08778430133329765 -0.790646368943578 209 209 211
0.1473618763300122 0.08641977435512335 -0.7932098102693821 209 209 211
0.14492481540403382 0.08489384567352709 -0.795647570377038 209 209 211
0.14173705217829252 0.0829416627887946 -0.7977624731422148 208 209 212
0.1392913175745295 0.08141150934612229 -0.8001793316078324 209 210 213
0.13670331160938734 0.07980085829985363 -0.8025280112772986 207 207 209
0.13413848960905733 0.07820372247671316 -0.8048780493218569 191 190 191
0.13133359137357703 0.0764705824152354 -0.8071171664449993 158 155 156
0.1286588256782236 0.07481171895031735 -0.8094027745661778 128 120 119
0.12629603946450285 0.07333035193758908 -0.8118139188551077 112 100 98
0.09445957367027612 0.055116925686662585 -0.801468049022309 105 89 86
0.08573068195883767 0.05002483868555903 -0.8010431867912606 100 84 80
0.07755786133219837 0.045249634979694434 -0.800829468395196 94 77 71
0.08421747735279557 0.04889269991204931 -0.8070854359252583 89 72 64
0.07858967437711271 0.04556281092030606 -0.8079604935623963 87 69 61
0.0787350170800105 0.0455089828155973 -0.8113668142756653 85 66 56
0.0837848980938782 0.04823717943936884 -0.816951299750924 84 64 51
0.08572483410662853 0.04920068572190259 -0.8211698586163415 85 63 49
0.078926774017845 0.04520856751853421 -0.8214864121626549 86 61 49
0.06595818806940067 0.03771863124292908 -0.8190056961598767 83 58 44
0.06848850928272503 0.03901763223948797 -0.8234715498555258 82 57 42
0.05808983335533505 0.03298717934925004 -0.8220894668697993 83 57 42
0.0520511531644616 0.029429474520192775 -0.8226533525618077 83 57 42
0.059890489048853496 0.03373751673679404 -0.8295362651240736 83 57 42
0.027759836341222727 0.015395809072324684 -0.818113364796246 83 57 42
0.028026992908311454 0.015414316005544076 -0.8214943799595944 84 56 42
0.030443980924429778 0.01665058465569523 -0.8258717878964718 84 56 42
0.033909754036641884 0.01848047967675351 -0.8307463881996946 86 58 44
0.03971428350730696 0.021634311806470824 -0.8367255477781746 88 59 45
0.03983865911886626 0.021570793595154597 -0.8400685289740779 90 61 47
0.05062742846734837 0.027545163692982863 -0.8484254614378726 91 62 48
0.05832016266188787 0.031765164027650616 -0.8553630436776886 93 64 48
0.0566646102305554 0.03069257241327028 -0.857901713865084 93 65 49
0.04452194342374488 0.023685020166281198 -0.8554470783909277 94 65 47
0.05364822369247778 0.028714787741458747 -0.8631044473221369 94 65 44
0.059923783628175284 0.03213018578089005 -0.8694305902329268 96 64 44
0.06478525337132232 0.03474459824739695 -0.8751008710896706 97 65 43
0.05134665340861497 0.027006934070546842 -0.8719484142598355 98 66 41
0.05485685730715219 0.028856939045025523 -0.8769676353785499 99 69 45
0.013507991385088264 0.00533908432931525 -0.8601573765544329 102 73 52
0.015279530517416151 0.006208306227408714 -0.8642708335321421 102 76 58
0.018808643224653643 0.008070828391738921 -0.8692545206038107 102 80 66
0.02222303442114333 0.009867916186147296 -0.8741960950094039 101 83 73
0.0248861936011891 0.011239852351028437 -0.8787801700409524 102 85 78
0.02940462485680992 0.013659755199074697 -0.8842962949454987 104 90 84
0.0315311877366941 0.01472744809196433 -0.8886388040812435 104 91 84
0.03586063652018896 0.01703928848387193 -0.8940922124852644 104 93 85
0.048520412995519416 0.02405599193034405 -0.9037452068972383 105 93 87
0.055234224748342636 0.027712444213237042 -0.9104508223501927 104 91 85
0.05931371311824937 0.029880164688248848 -0.9158504487898954 100 87 81
0.059232760307577084 0.029698052709456302 -0.9191543362159305 100 86 81
0.05459978845311503 0.026945999693719025 -0.9201393381628743 102 88 82
0.05534580434306503 0.027230985635981322 -0.923859231415341 108 94 87
0.052113578098407526 0.02527045095554721 -0.925540706657877 110 95 89
0.051725028179346086 0.02491514956193769 -0.9286763430211069 110 94 86
0.04992136007550059 0.023761374168317487 -0.9310797701399205 110 93 83
0.04812097795317748 0.022609685678459265 -0.9334791884702139 109 91 80
0.04452109370729043 0.02044312877328837 -0.9349354330588888 104 85 74
0.04178693979533618 0.01876537532418872 -0.9368317990120306 95 74 62
0.030664064787256542 0.012357210067205679 -0.9343169089475348 86 64 50
0.024902841624427116 0.00897398980334703 -0.9345846436282592 81 57 45
0.01588272397855274 0.003754278465533459 -0.9331091404045191 80 56 44
0.008029692147077064 -0.0008061785186439518 -0.9322195714628012 80 56 44
0.0027810007475215642 -0.003897562001778765 -0.932687684313646 81 57 45
-0.003344843188460178 -0.007482504518917521 -0.9326683380385647 81 58 46
-0.004290468327215621 -0.00814758296732844 -0.9354041512985596 81 59 48
0.0015822053347184228 -0.004971100204237827 -0.9418060173708399 81 59 48
0.00497821188933166 -0.003190745612325477 -0.9468940387189914 79 58 47
0.01645815339536026 0.003142307507609063 -0.9563763528294271 80 58 45
0.014979666703917593 0.0021757152714419054 -0.9588572752169231 81 57 45
0.006191477161526349 -0.002906742311404989 -0.9573450900253617 82 58 46
0.013338392397311688 0.0009838443422204302 -0.9645259723236158 82 58 46
0.025658730284368547 0.0077855955646853325 -0.9745777967982703 83 59 47
0.050119311802053396 0.021418656473452896 -0.9913714508725691 84 60 48
0.03624602424058289 0.013474210188470781 -0.9870502316701766 84 60 48
0.01515272257367549 0.0014691336199002258 -0.9786688049961034 83 59 47
0.005568367941226476 -0.004057454870215915 -0.9766195621705085 83 59 47
-0.004165996961089269 -0.009666985390945543 -0.9744509979722782 86 63 50
-0.008793939063837394 -0.012402825360790168 -0.9751106079623969 87 65 52
-0.02228555070203135 -0.020122865925973135 -0.9707650211035359 86 64 51
-0.020163406233658032 -0.01906097946455939 -0.9751864973077824 90 69 56
-0.014324088824233097 -0.01590953053106759 -0.9817234579740518 89 69 58
-0.0180690541099712 -0.01814694120594318 -0.9828346979654721 92 72 61
-0.021626858371287846 -0.02027861256400096 -0.9840394788549774 95 75 64
-0.030511674227341273 -0.025403578137741648 -0.9821827046652775 93 73 62
-0.03426830933725124 -0.027645541062380832 -0.9832380662524849 89 69 58
-0.034994640404411304 -0.028184390129623836 -0.9860261937633902 89 70 59
-0.02666340132840611 -0.02363489503886293 -0.994048933860594 89 71 61
-0.013397430554743975 -0.016314944465124874 -1.0049669564945358 94 76 66
-0.011058137282525221 -0.015133688130358439 -1.0095781679948725 94 76 66
-0.010851109981738966 -0.015150186360858811 -1.0129544945077522 92 75 67
-0.019321108330878772 -0.020038546139903995 -1.0112498974133268 93 74 67
-0.01584354279801377 -0.01821850658189609 -1.0165354546956178 90 71 64
-0.018309633371283107 -0.019735238514682944 -1.0183309822299889 83 63 56
-0.025788120608789572 -0.02406470251245229 -1.0171531412137151 78 54 45
-0.026912914714459557 -0.02482769784130697 -1.0197183056001058 72 44 33
-0.026077618773833827 -0.024490820497673586 -1.0234472286660297 68 37 20
-0.022168118105543463 -0.022429525759276932 -1.029016659080374 68 35 17
-0.01840317075484367 -0.02044996968925828 -1.0345155891993365 67 36 18
-0.019886813303481896 -0.02141462326897011 -1.036874961149212 66 37 19
-0.01462997385808075 -0.018599342728431667 -1.0432946507762038 67 38 20
-0.053409642201439206 -0.04047508654166583 -1.0230942434845824 71 41 20
-0.05157080507967098 -0.03957420927801013 -1.027397438206477 75 44 20
-0.05440016152006352 -0.04129026988086664 -1.0288666359974254 79 50 26
-0.05743289936032977 -0.04311991313157694 -1.030201801113338 85 60 38
-0.05907688964914412 -0.0441709244744698 -1.0323772276709033 87 65 44
-0.050069465921066765 -0.03925392492919374 -1.0410938864936021 87 66 46
-0.04886414864340073 -0.03870915249367972 -1.045036036242858 86 65 46
-0.046682894871492 -0.037617967474447345 -1.0495875026746826 85 64 45
-0.044993662495177514 -0.03680272452500279 -1.0538432196423262 84 63 45
-0.049583991586850805 -0.03950414226649859 -1.0541986073512877 83 64 48
-0.04645462360245914 -0.0378827096499597 -1.059356431927172 84 65 50
-0.045254561926223305 -0.03734185923198537 -1.063319320149363 85 66 51
-0.04427801094846427 -0.036926348173813364 -1.0671475412878555 85 67 52
-0.03855127342818419 -0.0338525813789477 -1.0739734815791124 84 67 52
-0.03230639621395183 -0.030489824367232632 -1.081150104214181 83 65 53
-0.029431728853461916 -0.029013711946530782 -1.086215538501695 78 61 52
-0.03474804126309185 -0.03212026330920589 -1.0860849560218888 69 52 43
-0.038262603269098375 -0.03421823486298948 -1.0870840346957333 55 41 33
-0.039651391693270754 -0.03512684014573031 -1.0894305095603765 52 37 30
-0.043189068079190776 -0.03723688456371373 -1.0903938578931625 58 42 34
