ply
format ascii 1.0
element vertex 685
property float x
property float y
property float z
property uchar diffuse_red
property uchar diffuse_green
property uchar diffuse_blue
end_header
0.1802168460232395 0.00023864734447626157 -1.1123286043523168 92 57 28
0.18006769268008463 0.002278267769528469 -1.1167839811910112 102 68 39
0.180101316785539 0.002692111575919365 -1.1202537909336148 104 72 44
0.1804211971567528 0.0005563793719060295 -1.1221627910977499 105 75 46
0.18060575906658416 -0.0003746764982556494 -1.1248067772496828 107 77 49
0.1805436013544187 0.0008936103457215239 -1.1288057538568792 107 77 51
0.18052464953544609 0.0017778607638253285 -1.1325731560279224 103 75 48
0.18056812148839496 0.002106141407269585 -1.1360002704578458 100 72 47
0.18041042627502676 0.004230734954075416 -1.1405477703872573 97 71 46
0.18031209892035063 0.005827189672096916 -1.1447747847207184 92 70 44
0.18037876887378182 0.0059512372007310965 -1.148087614732955 90 69 47
0.1796674801209301 0.013028389594967743 -1.1557657920219337 85 66 44
0.18002021370981403 0.01059848672425795 -1.1574876735531523 86 71 53
0.180477370141841 0.007233029907526334 -1.158612026951719 101 90 78
0.1808946891444263 0.0042217009963007035 -1.1599500651103956 127 120 111
0.181574271367423 -0.0011392538486937331 -1.1597877133723349 153 150 144
0.1819879469109454 -0.0041229852595236205 -1.1611207616026276 171 169 167
0.18235921749627976 -0.00672886785973098 -1.162685861993903 182 181 179
0.18258031124479013 -0.007990610386987007 -1.1651034571454777 186 185 183
0.18066211563785106 0.009926734459910685 -1.179826943896157 191 190 188
0.18142117065344562 0.0038463053846796713 -1.179171654306802 194 193 191
0.18071006978812917 0.010952531506308705 -1.1870062732371442 196 195 193
0.1806742355752414 0.012003441446137547 -1.1909491755461552 197 196 194
0.17738417797493597 0.043020846625496545 -1.217666687749159 200 199 197
0.17786371383615163 0.039455271903891864 -1.2186649572607104 201 200 198
0.17835681778326806 0.03576520976543274 -1.2195705970073696 202 201 199
0.1781586575767537 0.038289898357307284 -1.2245419904355597 202 202 202
0.1811279617785626 0.012316783200276266 -1.2107760713704938 202 202 202
0.18211492431414245 0.004167020326018234 -1.2086760926588045 203 203 203
0.18554075278725693 -0.025950986856141098 -1.1920174016226508 204 204 204
0.18107079168825332 0.015037487405371391 -1.2224136506408765 204 204 204
0.18155487116760077 0.011412149376576919 -1.223288330129708 205 205 205
0.11143610410145591 0.2847128493948439 0.06572858322894723 181 182 184
0.10838307731564686 0.30881211467980496 0.063432698245444 181 182 184
0.10943386467448926 0.3013156108892293 0.06005071156930569 181 182 184
0.11141953343371011 0.2866122132944834 0.05646902419938743 181 182 184
0.11285534517005968 0.2761384464186743 0.05305265574810092 181 182 184
0.11513812738131465 0.2591297488025858 0.04948533671640311 182 182 183
0.11713726024411 0.24429898537896305 0.04602402484498862 182 176 173
0.11822800749568603 0.2364667946629244 0.04277802427178303 155 142 132
0.11842975368767028 0.23548953525566324 0.039712910779599264 122 101 87
0.11903055644692856 0.2314321781654557 0.036582508108949446 107 79 63
0.11935324526825769 0.22951978333908257 0.03350621322077845 100 68 50
0.11965154388153501 0.22779489995526914 0.030437794310184122 98 63 43
0.11909334853692063 0.23268505935894124 0.02748734644988655 99 64 43
0.11917515463186293 0.2326333119112885 0.024443108666946697 99 66 46
0.11970984458524356 0.2290816183658676 0.02134770365028102 99 66 45
0.11926410097357276 0.23310771159324226 0.018358535358701366 98 66 44
0.11929262869742577 0.2334687975372777 0.015314611969578729 97 65 43
0.11915041044880745 0.2351510960320767 0.01228127301013391 97 65 43
0.11923208794192797 0.2351022315982265 0.009227172091613615 97 65 43
0.11931381669834534 0.2350531955655458 0.006171891191932781 96 64 43
0.1193342673975692 0.2354787877901378 0.0031179736547434847 97 65 43
0.11946038340756188 0.235086602273859 5.829974558271486e-05 99 67 46
0.11948388735539495 0.23548930263509188 -0.002999643912046778 100 68 47
0.11965047015794945 0.23478384995971852 -0.00606109533593633 101 69 46
0.1198288705745999 0.23398665455812137 -0.009121713896495492 104 71 46
0.12075620766847245 0.22738285833884678 -0.012169071045074493 106 73 49
0.12094897805931228 0.22647216001549006 -0.015218503763574774 103 70 46
0.12151603410053832 0.22265775092582468 -0.018251757608102184 102 68 43
0.12144242159739842 0.22381268833276907 -0.0213076610934037 94 61 40
0.12042770390035579 0.232273152840441 -0.02442738782545558 93 66 48
0.1198282752402588 0.23751443447190665 -0.027542927329589236 98 76 60
0.11936467162629466 0.24170413614549513 -0.030663846167911523 126 113 103
0.11888881867320428 0.24599165826250047 -0.033799882187631955 171 166 165
0.11853374548833037 0.2493433638560166 -0.03693693920823078 181 180 184
0.11804086654824159 0.2537684035823614 -0.04010210184214709 180 181 183
0.1177629818982284 0.25652464128503244 -0.043253397282360606 179 180 182
0.11736024139512449 0.2602537751080255 -0.04643238193805854 179 180 182
0.1182095235747693 0.2542450768565698 -0.04942846057113835 179 180 182
0.12235117840716372 0.22261242972803766 -0.05185505634755393 179 180 182
0.11926862133081809 0.24719572850631605 -0.055485181929527595 179 180 182
0.12885418297421375 0.1731551782583924 -0.056766500906864255 179 180 182
0.12856597483366516 0.17597485820309314 -0.059831199683329374 180 180 182
0.12843900517965529 0.17754023579972833 -0.06287108351077646 180 180 182
0.12807745557077221 0.18093487586026813 -0.06597020113219797 128 124 122
0.12932142234002167 0.17181616036067743 -0.06869797794517819 117 108 102
0.13004638851075118 0.16673937877010273 -0.07152935537587267 111 97 90
0.1307808940224904 0.1615854977140107 -0.07434414742076874 95 77 67
0.13180755137434016 0.1541494652282122 -0.0770645599565851 91 68 55
0.1325642011758931 0.14881661260765863 -0.07984087436055091 90 66 52
0.13354411642722377 0.1417379479307437 -0.08253581675603994 88 64 50
0.13377845258210605 0.14047760332448364 -0.08544134585279285 87 63 48
0.13451438081428646 0.13529872646395627 -0.08818309393352392 90 65 49
0.13520162372453573 0.13049748358327104 -0.09092659565961547 91 67 53
0.13619476025916838 0.12330289353257086 -0.09355114093551117 88 68 55
0.13826169020684492 0.10770937596201845 -0.09577147494815581 90 71 60
0.13847097925597251 0.10663438164190817 -0.0986312105870735 95 74 66
0.13948080102935095 0.0992967382662373 -0.10118387801922721 102 81 72
0.14096272722319184 0.08826087436556396 -0.10352983795778485 101 79 68
0.1407315726139696 0.09062742483237371 -0.10653712964297783 100 76 66
0.12887382152701413 0.18402596108164027 -0.11440119358857462 97 75 64
0.12864235468532492 0.1864248946232832 -0.11756515155377903 98 74 61
0.12872508198406835 0.18636406845880904 -0.12059924781087164 103 76 62
0.1295827273204899 0.1802309091105967 -0.1232834469228963 104 75 61
0.13112908025896963 0.1686958430994846 -0.12562986910544532 110 81 64
0.1304936466254183 0.17426161673072876 -0.12898311532701118 112 84 63
0.13109135432099664 0.17015902933819038 -0.1317516142252324 116 88 64
0.1313888598817382 0.16840955026523277 -0.13465929751438477 114 84 55
0.14502811267430515 0.06195441364871582 -0.1307144563831279 101 66 38
0.14742866420558606 0.04366313329804152 -0.13234771178813234 85 49 23
0.14698975087926675 0.0476583239642808 -0.13545206800972429 81 46 24
0.14698978161754697 0.04820826947241541 -0.13832875650882417 81 48 26
0.14748370099591865 0.04487820876326032 -0.14093095579770346 78 49 26
0.14779803373445877 0.042957882758167226 -0.1436271911026377 72 46 30
0.14596470099214237 0.05792124119435464 -0.14757742910245022 71 49 34
0.14639550543649496 0.055088171467301966 -0.1502207599584233 75 54 44
0.14575059148538902 0.060715791168118455 -0.1535132293640042 72 54 46
0.1456634951626418 0.061957625499397546 -0.15647711388984278 71 54 44
0.14544252514994543 0.06425418169194531 -0.159531116286699 71 54 46
0.1459401231812033 0.060894707457717356 -0.16212858410488978 72 55 47
0.14594131738337804 0.06144307466532016 -0.1650441641681344 73 56 48
0.1459996852842015 0.06154158894460118 -0.16792433810585106 72 55 48
0.1455980230764483 0.06526568263664762 -0.17112066276086274 72 55 48
0.1452417259331003 0.06863463360639885 -0.17429829377315498 72 55 48
0.14476250428706566 0.07297512513289303 -0.1775747851281704 71 54 47
0.14526128343177608 0.06960440776808836 -0.18016132618186972 70 53 46
0.1451021889384904 0.07142249635859749 -0.18322082688265542 71 54 47
0.1445942949879129 0.07599474048720034 -0.18654724975141862 72 55 48
0.1442391073358298 0.07936440572693246 -0.18977357226823474 74 57 50
0.1434664767389759 0.08603288165344511 -0.1933331467716539 74 57 50
0.14284062447121365 0.09154614484189239 -0.19680007653238588 70 53 46
0.14419997714499 0.08137641401306014 -0.1987079855494467 73 56 49
0.14387091754985087 0.08454621044741985 -0.20194799047407053 75 58 51
0.14370616461976526 0.08641907431298826 -0.20506460763410994 74 57 50
0.14337046669592346 0.08964529109265773 -0.20833062495069168 72 55 47
0.14296522437031273 0.09342387942886851 -0.21166681278458516 75 58 50
0.14252487712203352 0.09748279889862502 -0.2150462782924244 73 56 48
0.14205880060961615 0.10174808673102556 -0.2184622041411296 75 58 50
0.1417839050452176 0.10450235761890027 -0.22172433442923203 74 57 49
0.14157994722819245 0.10669666345014606 -0.22493304958163218 75 57 46
0.14142694055345262 0.10848885547170277 -0.22810382757548675 78 60 48
0.14065927976620235 0.11515384374663379 -0.23184654453770906 81 63 51
0.14074031252739982 0.11509473857810794 -0.23482097608458516 82 64 52
0.14087562190160083 0.11460542456906825 -0.23774532184269986 80 63 51
0.14108607172203155 0.11352000459646354 -0.24059758071069673 80 63 52
0.1413586396600846 0.11194127101576828 -0.2433875442550504 81 64 55
0.14114752280056725 0.11420109782604226 -0.24664875587951474 83 65 56
0.14051884013722782 0.11977799556371962 -0.2503337166339334 83 65 56
0.14023226644302517 0.12264139124997181 -0.2536932155610683 83 66 56
0.14008690341432722 0.1243849022449455 -0.25691918265581115 83 66 56
0.13973936445937102 0.1277364580727846 -0.26036074557218924 85 67 56
0.139481216897278 0.1303796890848188 -0.26372092660977037 87 69 58
0.1392314501149277 0.13295814641075282 -0.26708202358006045 89 71 60
0.13837285440598415 0.14038131689307431 -0.27110426239711716 91 71 62
0.13799417232834651 0.14399067699925033 -0.27463185232673676 95 75 66
0.14331062196112504 0.1022734120215079 -0.27193304538533336 99 79 68
0.1427483834564622 0.1073352938114068 -0.27561753035707826 98 78 66
0.1421829014651996 0.112426358716094 -0.2793231751285287 97 78 66
0.14121685680715163 0.12071190486993058 -0.28350056865259105 96 78 66
0.13758410983687716 0.1502537374575856 -0.29076302719881725 85 66 54
0.13762055739656257 0.15056514973106594 -0.2938681408366615 87 68 55
0.13730137246688603 0.15371279183833894 -0.29739243374991964 108 91 79
0.13925397310498014 0.1387421241038101 -0.29823674460428484 100 83 75
0.1400098568797479 0.13331087311970224 -0.3004675340967249 87 71 64
0.13804912792080026 0.14955845085476702 -0.3059703082973658 85 65 58
0.1368557755389207 0.15968979192772367 -0.310588049844649 87 65 54
0.13819796327163636 0.1495784728087019 -0.31210584221800897 88 64 50
0.13828737574208547 0.14946910835110275 -0.3151570362416782 92 66 48
0.13875499991561674 0.14633763655950444 -0.3177320882298914 101 74 51
0.13890170425778736 0.1457697803687018 -0.3207074957096458 104 77 53
0.13868409178593555 0.14811491205207317 -0.32415152816178633 102 76 56
0.13851905187018587 0.1500412616317583 -0.3275361717877448 102 78 64
0.13835111953000545 0.15199221288595505 -0.33093224584293074 104 85 74
0.13561294574281718 0.17451528576843223 -0.3377447828410308 106 93 88
0.1367790651239732 0.1657953160195354 -0.3394030437016924 145 138 136
0.13634014729823546 0.16992391223142064 -0.3432047413303187 181 180 181
0.13762275342357533 0.1602645111997732 -0.3446711686226851 179 178 183
0.13802230596590903 0.15767557594669834 -0.34732464483811865 180 178 182
0.13800862007390557 0.15839774191415523 -0.3505460031364741 179 179 181
0.13709774729086882 0.16631452951411124 -0.3550308858548288 179 179 181
0.13720219711920303 0.16609283442793515 -0.3581040660453803 180 180 182
0.13304312433355878 0.20007867502439763 -0.367275588610365 179 179 181
0.13382386183406986 0.19444017140647607 -0.36942981722112644 180 178 182
0.13515664497902924 0.18436646454721353 -0.37076319256456103 159 155 157
0.13563977513686576 0.18111012517870761 -0.3733136689443561 130 123 122
0.1367883100916723 0.17250665206219504 -0.37486851811161837 108 98 96
0.13718550497124013 0.16993569148380855 -0.37752044353244724 98 84 82
0.13768099863909508 0.1665732468933372 -0.3800171112037902 89 73 69
0.1382643559467757 0.16250248204825743 -0.38237051589371224 103 88 78
0.1393101626836584 0.15470981633117156 -0.38400217535606357 105 87 80
0.13981339747823607 0.15127799476731413 -0.3864497713227602 89 72 66
0.1409103434854628 0.14306589465840844 -0.3879605542951972 83 68 63
0.14232042818672852 0.13232787506498508 -0.38895278583279247 82 66 62
0.14406365852578573 0.11890043033580011 -0.38938224748969813 76 57 53
0.14473270140013264 0.11411841723835178 -0.39148882378821154 82 62 57
0.14524984603700547 0.11055773777920846 -0.3938263042928376 88 65 60
0.14596313407174616 0.10541397559306612 -0.395834266124161 85 65 56
0.1463735405796346 0.10270954548147057 -0.39832367187831386 86 64 54
0.14717922993817753 0.09681529574035588 -0.4001517630806085 87 64 54
0.147753126698981 0.09278784866941922 -0.40234831509307967 90 65 55
0.14862249469397165 0.08637332947979073 -0.4040364023973563 90 63 52
0.14960706762115936 0.07902489601256965 -0.4055095629695592 91 63 50
0.1499477737873177 0.07687213318521358 -0.4080591381576917 91 62 46
0.1513365090678127 0.06625142739346573 -0.40879967209483553 109 80 63
0.15069671963028228 0.07201756093938805 -0.41302402108578873 104 76 56
0.1504542547202767 0.07457566352089665 -0.4165745650879959 100 70 49
0.15124170121979255 0.06880726766862374 -0.41832149004842484 99 67 44
0.15151580091345693 0.06718798122649305 -0.4209614861935253 89 55 28
0.1519478550782554 0.06428982364163904 -0.4233151379238704 90 56 30
0.15160767378928325 0.06764073071998451 -0.42705144333454503 83 49 24
0.15165659489307093 0.06784355754079721 -0.4300942387489507 80 48 25
0.15215252177255287 0.06442632024858998 -0.4323219713580496 86 57 41
0.15127430766103478 0.07214038557705016 -0.43707023906691767 92 68 59
0.15101494072570237 0.07484417468003152 -0.44069764458523086 96 77 71
0.15030089534111468 0.08123608571503887 -0.4451850610279172 115 104 101
0.1507675617845345 0.078057134171545 -0.4474730530936055 171 167 168
0.15103052020449959 0.07652896149411809 -0.45013799900540225 181 181 183
0.15129320209070612 0.07500232761914807 -0.4527997854738542 181 182 184
0.15115182874155964 0.07675489697169158 -0.4562347779175807 181 182 184
0.15541092761691427 0.07652714716608097 -0.6276237626982908 194 194 196
0.1556659184835623 0.07505126042067009 -0.6302392432967111 195 195 197
0.13424420145232563 0.25290678693983887 -0.6921604099961619 196 196 198
0.13851018514112276 0.23068961655271203 -0.74885456904169 207 207 209
0.13854030520068078 0.23113475347210566 -0.752402482896216 208 208 210
0.13904752131285322 0.2276054012454539 -0.7545014544398991 208 208 210
0.13938425466852145 0.22549489051085977 -0.7571109694417486 208 208 210
0.13975186285982852 0.22312583854108767 -0.7596197331197494 208 208 210
0.14008198959587087 0.22106809946273706 -0.7622374678519479 209 209 211
0.14041773524937623 0.218962393733213 -0.7648320843358136 209 209 211
0.1407955602440062 0.2165043688097512 -0.767289631902772 209 209 211
0.1411037005688828 0.2146267759598018 -0.7699583834032355 210 209 210
0.1414851042787578 0.21213633387426356 -0.7723914451953151 208 207 209
0.14157986500081615 0.2120393145651123 -0.7757238995640434 198 195 197
0.1424098164464792 0.2057981589256667 -0.7767212660098546 169 164 165
0.14313164489524022 0.20045699260096553 -0.7780431411210499 134 127 126
0.1449622955356955 0.185839085985941 -0.775790451722815 112 102 98
0.1457251564862077 0.18014474460217858 -0.7769283647397354 100 87 81
0.1464840444461735 0.17448005262503627 -0.7780603159179865 98 81 74
0.14723717526455585 0.1688599749410772 -0.7791922563410463 95 77 68
0.14805827471687 0.16266711696908534 -0.7800834667080664 93 74 66
0.1487999833287369 0.15713541464689676 -0.7812146554238054 92 72 62
0.14851983238294242 0.1601639757431965 -0.7856979890204145 90 69 57
0.15069425608639264 0.14261710083269105 -0.7820606813339462 87 64 53
0.14996860323032649 0.1493795035455558 -0.7880149113737037 87 63 51
0.15016940728085615 0.14837460496354465 -0.7908973349654207 87 65 52
0.14989305625889363 0.15137368722166877 -0.7953805095258353 86 63 51
0.1501167112246703 0.15017757346281171 -0.7981890712185763 84 60 48
0.14905325090822616 0.15979011443943658 -0.8053574769177985 81 57 45
0.1484977594784767 0.16514224512878922 -0.8108329494068269 81 57 45
0.14825440346475854 0.16787528032771362 -0.8152620376672666 82 58 46
0.14788046714118205 0.17170828510446728 -0.8201512744557867 82 58 46
0.1457149960791853 0.1906104636913249 -0.8312376811149087 81 57 45
0.1443934461823717 0.20242656150294844 -0.839469738569422 82 58 46
0.15221268239593055 0.1373268070593373 -0.8159269014199084 81 57 45
0.1533441755660931 0.12848239701203173 -0.8155314511186728 82 58 46
0.1547270669346674 0.11751500837735795 -0.8142225236378664 84 60 50
0.15488144847653598 0.1168896387290423 -0.8172082986068929 87 63 53
0.15546530457574648 0.11264484573757458 -0.8186719915604326 87 63 53
0.15649600917446826 0.10463036564741941 -0.8185319306673597 87 63 53
0.1569018745175439 0.10187995959179115 -0.8205969375949171 87 65 54
0.14361402019529187 0.21464981062814917 -0.8717976279457506 87 64 55
0.14358842538218547 0.21557779519222356 -0.8756125759824176 87 63 54
0.14336051616039366 0.21821470570101786 -0.8801649750914565 88 63 53
0.15412420822868309 0.1280296789122506 -0.844771497796973 90 65 53
0.15479579693176806 0.12303939880716805 -0.8458922876616467 87 63 51
0.15513103863829641 0.12088837312928749 -0.8482295243743802 90 66 54
0.1554926206707282 0.11851346904370208 -0.8504635081737552 97 73 62
0.1569654450826523 0.10673954434330889 -0.8485816396681741 97 70 63
0.15746568400774016 0.1031855869387754 -0.8502692432338572 92 65 53
0.15888212031885304 0.09187578067508231 -0.8485292020653714 88 58 41
0.1598130305924068 0.08466869090095142 -0.848566967017377 89 57 35
0.16055230819284758 0.07907972529945359 -0.849300243953784 90 55 32
0.1610745232042984 0.07532603597268372 -0.8508340067037842 90 54 29
0.161936668013248 0.06868914810547672 -0.8510667326117083 94 57 31
0.16218073333434838 0.06728784779056424 -0.8536294895814791 98 63 38
0.16199687522857237 0.06951501687266187 -0.8578244789400258 102 71 49
0.16161512672157244 0.07342295029718793 -0.8627889356605746 106 79 58
0.16105171654769448 0.07887570916526102 -0.8684696826830995 103 81 62
0.16069496265921002 0.08257816648554249 -0.8733725762895203 101 79 64
0.16044793092274334 0.08535170992056915 -0.8778645245141543 100 80 66
0.16029706459001378 0.08731052649285774 -0.8819932422114435 100 81 67
0.1597654846046187 0.09250672374364 -0.8876222996788652 99 80 67
0.16150985976195623 0.07835678687945011 -0.8843205300629984 98 78 66
0.16114865651077298 0.08210506715470156 -0.8892827240598834 95 76 62
0.16163458606145983 0.07864887711816265 -0.8909016941307425 94 75 61
0.1604932691245494 0.08904020094061862 -0.8989872702784998 93 72 59
0.16072795502617357 0.08772377612772211 -0.9016137504509223 91 71 58
0.16086814133298402 0.08721159698269951 -0.904616158227157 90 68 55
0.1608776199135308 0.08781303035119195 -0.9081448849867496 98 73 58
0.16070400018753217 0.08997581582518552 -0.9124181002758964 110 85 65
0.1609319223222211 0.08871677625679779 -0.9150705551186504 115 90 71
0.16112760102035878 0.08773216807720538 -0.9178513884158659 117 92 71
0.1613209708800098 0.08676686990732807 -0.9206396312185984 115 90 67
0.1606303942026906 0.09334618521716073 -0.927057867069858 111 84 63
0.1608444308206222 0.09220638449271576 -0.9297711289168322 103 76 58
0.16115613333856882 0.09023184644735621 -0.932077334131816 85 60 40
0.16152209875690482 0.08779253751314883 -0.9341521869258866 79 53 36
0.16279602884505726 0.07759060247897223 -0.9324303677238817 75 49 33
0.16327152905360787 0.0742089729022053 -0.9340165846672105 74 50 35
0.16272609432771126 0.07955836891932115 -0.9398852589208078 75 51 39
0.1629785329735422 0.07808441727048049 -0.9424074407050087 81 57 45
0.16335349167834853 0.07556091224344262 -0.9444064764426479 87 63 52
0.16445500610952057 0.06681412803300234 -0.9433067259001645 94 72 63
0.16470653967067145 0.06534266105878359 -0.9458052247774289 95 75 66
0.16403266733680907 0.07180079562771884 -0.9522667198220706 93 74 65
0.1627948838140239 0.08309818941491244 -0.9611809187114676 91 72 63
0.16342568444356728 0.07837946886907257 -0.9620688404756461 89 69 60
0.1634497878973788 0.07886245851314393 -0.9655708765082932 88 68 59
0.16405633420619573 0.07434755350833606 -0.9665416760315195 87 67 57
0.16497171370726227 0.06717828127924111 -0.9661478627053519 87 65 54
0.16599246018161362 0.05909917000465524 -0.965266365654063 88 68 57
0.16694273122623202 0.0516199648884082 -0.9646658528610803 89 69 58
0.16667991814062938 0.05456160383200406 -0.9693972402372187 87 67 59
0.1658321615490335 0.06253491906243125 -0.9767351676356885 82 63 56
0.1658559300201506 0.06301848502095062 -0.9802266433977591 91 72 65
0.16581456091742158 0.06406317454471863 -0.9840126162123727 96 78 70
0.16601404945148618 0.06303583792535614 -0.9867244152979495 95 78 70
0.1649490764345667 0.07289556191557486 -0.9951239461370954 95 78 70
0.1652457708163655 0.07103407419253763 -0.9974131122455644 94 77 69
0.1692784601929516 0.036979556950782796 -0.9827614185600149 94 77 69
0.16938186095675434 0.036770297995700446 -0.9858571138896891 94 77 69
0.16953032149178213 0.03617265093660618 -0.988747918341996 94 77 69
0.1698351476428524 0.03422603591499804 -0.99092148959382 94 77 69
0.1718562273625795 0.017468034075197703 -0.9851953424324339 94 77 69
0.1711466536697515 0.024270627097161657 -0.9920112432536633 97 80 72
0.17155201025572875 0.021450255623944592 -0.9936898142967501 97 78 71
0.1717324650332586 0.020571040599927315 -0.9964048286121839 91 73 66
0.1719575555487288 0.019305742518015617 -0.9989098222663266 93 75 65
0.17312589083938706 0.009885106217261061 -0.9969943699100909 89 70 57
0.17505486807299003 -0.006120683361793611 -0.9914692201483375 84 61 48
0.17538916443211824 -0.008341166776684464 -0.9934049846805065 76 47 34
0.17560142619423202 -0.009506773009070657 -0.9959114023272235 76 41 25
0.17600337008718164 -0.012315243947734103 -0.9975139132486837 75 39 20
0.17545098434597628 -0.006859602763538877 -1.003656443623594 74 37 18
0.1748267514151915 -0.0007770501737905944 -1.010165573722366 73 36 18
0.17464361920262877 0.0014869295625511286 -1.014582444508804 74 37 17
0.17450258084626466 0.0033879138790000457 -1.018807012858812 75 39 17
0.17451406857855525 0.0039675659894212595 -1.022303265568273 74 38 15
0.17475427379955397 0.0025632455216554884 -1.024693819116177 79 41 18
0.17462786387143478 0.004340732898192895 -1.0288654195648155 84 47 24
0.17467247618671497 0.0046346927109534725 -1.0322101193582318 87 52 27
0.17476672795079548 0.0044979565499077695 -1.0353142872374546 91 57 32
0.17486762499944808 0.004303686745293703 -1.0383869035913509 93 61 36
0.17516054109829166 0.0024401993864032467 -1.0405125174013277 93 62 37
0.17532750346443457 0.001671072848008437 -1.04325642392461 97 67 41
0.17557159204578388 0.00023065853917551837 -1.0456156121270335 100 70 44
0.1758187053070357 -0.0012368439328901831 -1.0479557280810203 102 72 46
0.17593054105248146 -0.001527271970395469 -1.0509688107121566 102 72 47
0.1760596470250327 -0.0019680253428027566 -1.0538956969771085 101 72 48
0.17615220065952686 -0.002090288943264962 -1.0570067273776769 100 72 48
0.17579043662786453 0.001747887133717721 -1.0624162272477595 104 76 54
0.17585733511074686 0.0018512959407350482 -1.0656676541029153 104 77 54
0.17586722014685047 0.0024524587535069697 -1.0692114359210103 99 73 51
0.17568178755031194 0.004758883000075487 -1.0737570197526525 93 70 50
0.17547822315384465 0.007225669829607276 -1.0784063695118604 84 61 43
0.17526626275855414 0.009767977053671911 -1.083110376855774 76 53 37
0.17529428181453585 0.010215923070422073 -1.086587845133444 62 39 26
0.17521797243313886 0.011576363065853829 -1.0906089604553455 58 34 24
0.1748574370530414 0.015423234019411258 -1.0961137076054128 63 40 29
0.1751982435227079 0.013138993105896432 -1.0979799013004856 66 43 31
0.1754312511300121 0.011796575806739068 -1.1004024723355859 67 41 30
0.1761682306384688 0.0060420587140755655 -1.1001770280936363 70 44 31
0.1760871449667443 0.007446963490586184 -1.1042370952704748 68 40 26
0.1763950312555543 0.005445891259834246 -1.1062499293461212 66 39 23
0.17653766130833795 0.004891809602723285 -1.1091322670320383 70 39 21
0.17691677371001008 0.002264474315879006 -1.1107567251508608 76 41 18
0.17761944557277204 -0.0032021615664203085 -1.1106463407563565 86 48 21
0.17727575648318883 0.0005074526646282607 -1.1161160440157345 95 61 31
0.17728375042375097 0.0011336122259210935 -1.1197138960530906 103 70 41
0.1774494582736356 0.0003758382749849132 -1.1224663273458755 103 73 43
0.1777583628434255 -0.0016399514479586708 -1.1244434706089723 104 74 45
0.17788207001792822 -0.0020296599476229693 -1.1274184891958061 104 75 49
0.17796504106428035 -0.002061258517566056 -1.1306152814582757 101 74 47
0.17802142440364213 -0.0018587492237796266 -1.133958788382545 100 72 46
0.17806363331332303 -0.001531060788871691 -1.1373824548991263 97 71 46
0.1778989349727899 0.0006180751879022173 -1.1419457993437991 94 70 44
0.17768880444211738 0.0031691766895956264 -1.1467699350052805 92 71 47
0.1774901635244036 0.005621390184349706 -1.1515425873244998 90 69 46
0.17729735509039368 0.008024445254800894 -1.1562945438547099 83 66 47
0.17754296982583145 0.006565433370287338 -1.1586183330056612 94 81 67
0.1780949802377399 0.0024040097494323065 -1.1592275351809516 116 107 97
0.1786338539805477 -0.001644428644875795 -1.159895190222746 144 140 132
0.17831243960030316 0.0018957238345317373 -1.1653814234452036 165 162 160
0.17968175849512397 -0.009486286389185528 -1.161354646939019 179 178 176
0.1784208354400661 0.002351139464492974 -1.1721548355424853 186 185 183
0.17750281828247846 0.011168690429095962 -1.1810599542177986 190 189 187
0.17857062501197912 0.0024427694800238098 -1.1787034443862787 193 192 190
0.17862150953835967 0.0027014272486794444 -1.1821177156758007 194 193 191
0.1766730561235225 0.020644510763934754 -1.1969830131470418 196 195 193
0.17638459271190893 0.02535226849022834 -1.2099093645255372 200 199 197
0.17650730514796623 0.024985782538047147 -1.2129654973740505 201 201 199
0.1769247537197749 0.022007349055965852 -1.2143075964210208 202 202 202
0.17932040863609386 0.00220194349185468 -1.2078256904239277 203 203 203
0.17921515514087014 0.0038498191563052786 -1.2121768677467715 203 203 203
0.17610211797712627 0.03219670900230848 -1.234250230074318 204 204 204
0.17967055319018363 0.0012375168277192483 -1.2169710414594097 205 205 205
0.11040570876502048 0.26840750711550254 0.0651403661760922 181 182 184
0.10875125104479635 0.28157453481649974 0.06250067007787492 181 182 184
0.10918657140019541 0.27883776111072645 0.05931069269273815 181 182 183
0.11117246096674038 0.26429064059937135 0.055766209342084455 181 182 183
0.11284132608904719 0.25215086056744607 0.052333522887231344 181 181 182
0.11485677678431463 0.23736358627988868 0.04886231239888239 176 171 169
0.11565614461467395 0.23183771173387768 0.04567574091802133 128 112 103
0.11614027466601606 0.22871252202558318 0.04256344361430676 108 79 64
0.11689201572051665 0.2235449154776507 0.03941175341276984 105 70 50
0.1173326585911191 0.22074793793496353 0.03632551994239572 103 69 47
0.11763130270428898 0.2190332077411132 0.03326815467358135 98 66 44
0.1170824938167572 0.22378623664984937 0.03033571133959649 97 66 44
0.11717928520337445 0.2236130222181348 0.027302889671889846 97 64 43
0.11696998149362813 0.22577762549470798 0.024306110810873496 100 65 42
0.11688261392344532 0.2270121835239823 0.02128830929091185 101 66 43
0.11676235940646656 0.2284989731159905 0.018268744792829316 98 64 40
0.11680835864010707 0.2287160860736106 0.015229095162874198 99 64 40
0.116777591125094 0.22952049165994587 0.012193240539874386 99 64 39
0.11682791168391793 0.22970545555823846 0.009148516622150188 100 64 39
0.11705935100811941 0.22850524292848218 0.006092459730996043 100 65 40
0.11703190901153604 0.22928555751299123 0.0030492325276555085 101 66 41
0.1171576495742524 0.22889408146504597 -2.1535771768804723e-06 103 68 43
0.11728339691815727 0.2285025827177409 -0.0030536957717500098 103 69 43
0.1174304441603653 0.2279479906338088 -0.0061055349742632145 103 69 43
0.11755444181063876 0.22756990832153967 -0.009157154348798494 105 70 45
0.11807091573431179 0.22418445057987677 -0.012202586814105743 102 67 42
0.11835791645826212 0.2225562123916005 -0.015245583321583205 99 63 38
0.11848963243031445 0.22211787099798797 -0.018291118994000318 99 63 41
0.11929157215515537 0.21653951514327757 -0.0213027064030692 98 63 40
0.1183134873026235 0.22461330544479377 -0.024409557492959418 98 64 41
0.11818099680505295 0.22620328472621862 -0.02747965466546407 96 65 43
0.11771610881139846 0.23034574816672393 -0.030584170315101068 91 66 49
0.11723906685227241 0.23458410721582965 -0.0337036370162848 95 78 69
0.11675599695506453 0.23887139732243828 -0.0368378329696872 142 137 137
0.11632224896532423 0.2427824609443237 -0.039980357288221476 179 180 182
0.11600990175875764 0.24576311151215502 -0.04312005234335872 179 180 182
0.11566894258614041 0.24896561961143399 -0.04627416470216407 179 180 182
0.11568792424021293 0.24940276282063278 -0.04938366603007553 179 180 182
0.11906550684737598 0.22401030463201596 -0.05193793308200293 179 180 182
0.11737231345681326 0.23761275127614515 -0.05531809238012575 179 180 182
0.12578041304242965 0.17349284771790643 -0.056828099780920086 180 181 183
0.12532287278402754 0.17757804746474112 -0.059927368911781985 180 180 181
0.12490667848148962 0.18134746724254064 -0.06303151714172138 169 167 168
0.12483291009092802 0.18248203440306854 -0.06607159673759717 106 100 98
0.12497203957126911 0.1819773672223119 -0.06906620276130818 121 110 103
0.12762507993625807 0.16210046167772146 -0.07143812507467176 107 90 83
0.12615219642637093 0.17401591450190884 -0.07482092453441384 99 77 66
0.12895059872551093 0.15300514133217477 -0.07708367947765399 91 64 50
0.13024383192722785 0.14359138905647723 -0.07970945315733752 90 65 50
0.13059913361761552 0.14140844883390588 -0.08258407670877267 88 63 48
0.13110868915397828 0.1380341354931564 -0.0854061309781741 86 62 46
0.1316106810684923 0.13471652608860576 -0.08822161709726623 85 61 45
0.132508151836192 0.12834362537854024 -0.09089791097478978 85 61 47
0.13444998260454827 0.1139011276376518 -0.09319946685732335 84 62 49
0.13532103260930312 0.1077232433918596 -0.09583649342253742 89 68 58
0.13635471578423575 0.10028523721452393 -0.09839657565480131 91 70 61
0.13778070787825028 0.0898105827508873 -0.10078737364066633 97 76 66
0.1386863578670969 0.08335367408908267 -0.10334965965375048 99 77 66
0.13881974625559557 0.08286646976126498 -0.10620274957208341 100 77 66
0.13708036056359776 0.09686861713366568 -0.10982784037633017 95 72 62
0.12642180288006458 0.17990524659286186 -0.1172805951343249 98 74 62
0.12590391261268227 0.1844878228261279 -0.12056732391400993 109 82 68
0.12631780215192062 0.18185801937163046 -0.12345207350973025 111 83 68
0.12749930078157407 0.17328123993582673 -0.1259771175085125 119 89 74
0.12707691232043794 0.17712667295207707 -0.12923376020944766 118 88 67
0.1276981739343928 0.17288605406853697 -0.1319988048046477 115 86 60
0.1274408466239651 0.1754544632987509 -0.13518755373754793 108 77 47
0.1414656495282252 0.0672710779170792 -0.13113705313485594 98 62 32
0.1449867586115302 0.040501904818037435 -0.13221081948811073 85 49 23
0.14476889374069934 0.04272884604571571 -0.1351903184184302 81 47 24
0.1442486081418676 0.04730452388529283 -0.13834228875406482 81 48 25
0.14460917875236376 0.04504441534552986 -0.14102042280756993 76 47 26
0.14414317035999216 0.04920237344613624 -0.1441618383367234 70 44 27
0.14454847223530512 0.04659449929325768 -0.146812528048034 70 47 33
0.14424933911995574 0.04945910166639919 -0.14987304441660496 75 54 41
0.14250878770867814 0.06352927199725313 -0.1538135716596022 72 53 43
0.14309480700727073 0.05951893598145745 -0.15636691807302922 71 53 42
0.14237700110470003 0.06564660060022626 -0.15972737351298488 71 52 44
0.14269953878678743 0.06368476991400658 -0.16244266099865498 70 52 45
0.14320443643652886 0.06030296489124001 -0.1650342829493613 70 53 45
0.143419675951184 0.0591741234109026 -0.16780896373298892 71 54 46
0.14275762196833017 0.06487568955747236 -0.17117443494850057 72 55 47
0.14296611568838852 0.06380054443482708 -0.17395993123816475 72 55 47
0.14104497564009622 0.0793165501792284 -0.17823458997377337 70 53 46
0.1418346392629217 0.07371638145818446 -0.18062782151846546 70 52 47
0.14216711021816794 0.07167715799168121 -0.1833361283865979 71 54 48
0.14230738663998435 0.07113564618486357 -0.18618095629060435 71 54 48
0.14263169192356626 0.06915865172858823 -0.1888875717208302 73 55 50
0.14275273507533517 0.06876663335887366 -0.19174400433554176 72 55 48
0.14029094494252653 0.08853231069639925 -0.19659782885408333 70 53 46
0.13988404120335937 0.09226779641398257 -0.19990069584823106 73 56 48
0.14165752334775278 0.07897894319501171 -0.2014771504550806 74 57 49
0.14141635473603228 0.08141969256153521 -0.20464513246289323 74 57 50
0.1408747966905634 0.08620926353484425 -0.20806909119463426 69 52 44
0.14053842530225924 0.08939816936440068 -0.2113381727677323 69 52 44
0.1400546864257274 0.09374135782212267 -0.2147433952519187 69 52 44
0.13931482059205186 0.10009041128503415 -0.21838365311984112 76 59 51
0.13889130130311533 0.10396872024311185 -0.22176954842123298 74 57 49
0.1386738907125598 0.10623673054136663 -0.22498684268658636 73 55 44
0.13851655541206753 0.10803609213839648 -0.22815879048069948 70 52 41
0.1380817251297832 0.11200949980728016 -0.2315898489041477 72 54 43
0.13806157935826166 0.11273765030282593 -0.23465294459692143 74 56 45
0.1381163162463936 0.11287982029674448 -0.23764980628511778 74 55 44
0.13812567859205563 0.11337791632144413 -0.24069137052124479 78 59 48
0.13817226410555514 0.11358476480520244 -0.2437002003391228 81 61 51
0.13792486074341018 0.11609727607275633 -0.2469963240663032 84 64 54
0.13835498783365255 0.11329716156210948 -0.24963586392398143 82 63 53
0.13802825149011683 0.1164340388161964 -0.25302116247252693 82 63 53
0.13794506614721957 0.11766154929976087 -0.25617233987970855 83 63 53
0.13782687789312992 0.11916484325668888 -0.2593644839861613 83 63 52
0.13794278487127892 0.11883092006042595 -0.26232102350560443 80 61 49
0.13738746330111548 0.12376983135639155 -0.26597940599973985 82 63 51
0.13698429309028554 0.12751637542344843 -0.26949395036909696 86 67 56
0.13650028025724248 0.1319008432974899 -0.27310831625205384 88 68 57
0.13599617009492052 0.13644620140837668 -0.2767597935676891 90 69 57
0.13563962092696522 0.13983399681964723 -0.28026553306218993 91 71 57
0.13623672173039292 0.13572156828822643 -0.2827270014092787 90 71 58
0.136169305821505 0.13683635604621572 -0.2859212289798805 89 68 56
0.13596772902184454 0.13900816710148856 -0.28927240500816526 88 66 53
0.13601712191820783 0.13920534816553776 -0.29234441417416257 77 56 42
0.1364949671000433 0.13602816618965324 -0.29492221962913656 89 69 58
0.136879804343984 0.13358214179872036 -0.2976001250622162 93 73 65
0.13640655149534042 0.13789778882036696 -0.3012870671836094 83 63 58
0.13548856850780233 0.14572240467832506 -0.3055211847006318 85 63 56
0.13360540497482037 0.16116346188834613 -0.3109484876885111 83 59 50
0.13414413823903887 0.15750910584676736 -0.31346867121323735 87 60 48
0.1369566469206437 0.13591087810202468 -0.3131724209829065 91 63 46
0.13788936084285897 0.12913746779045848 -0.31515179816959454 95 69 47
0.13529586397964777 0.15020168711710605 -0.32155210891164127 100 73 50
0.135721445317098 0.14743433792385685 -0.3241806880291275 104 78 55
0.13612015154127705 0.1448779026524129 -0.32683628189353786 102 75 56
0.1356424569581829 0.14924614798727487 -0.33062238224599483 101 77 63
0.13684902716709468 0.14030297479064135 -0.3322167400030229 104 86 77
0.13518867330577103 0.15402491192272197 -0.33757740378736634 109 98 94
0.13387360227315076 0.16502427327582803 -0.3425225516652104 172 167 169
0.1344917769252802 0.1607341190877777 -0.3448969692332809 179 178 183
0.13449396780277656 0.16131696694261702 -0.3480977151171592 181 178 182
0.13443325558223318 0.1623984479720073 -0.3513882429328689 181 178 181
0.1337669560722544 0.16827682252294457 -0.3555239125787021 179 179 182
0.13329118256327693 0.17264970653145828 -0.35941331875447313 178 178 180
0.13131974660453602 0.18887768250724368 -0.3654319844359691 167 165 167
0.13239122819763333 0.180995313032066 -0.36716553906053956 108 101 101
0.13369709646380484 0.17124991245029408 -0.36853761328655027 77 65 61
0.1345104027362377 0.1654056430239999 -0.37059452043658203 81 66 61
0.13538926931810102 0.1590379167064571 -0.3725377826498102 84 66 61
0.13560713559678556 0.15791256659333724 -0.375438497960179 87 65 60
0.13605676189409596 0.1549468819357127 -0.37799149074270977 87 65 57
0.1365148670642743 0.15191231772220884 -0.3805234807400904 93 74 62
0.13776254193332066 0.14260402303304331 -0.38184947303368477 98 79 71
0.1371439291213501 0.14812014924833702 -0.38600122739164766 88 70 63
0.13832820628914444 0.1393094435448559 -0.38739120548796846 81 66 60
0.1394294539933036 0.13115376874759582 -0.3888829093329281 74 57 53
0.14148276627775408 0.11542110228797182 -0.3888557450671938 80 61 57
0.1420046988991384 0.1118626046636377 -0.3912006967734028 85 65 60
0.1427879263882328 0.10622269425296596 -0.39311864393567403 83 62 56
0.14383369947402008 0.09848948986465741 -0.3945973036141417 81 60 50
0.1442194941468102 0.096007390213706 -0.39712178928267006 84 62 51
0.14391371272637593 0.09903295060804798 -0.4007696565699771 85 61 51
0.14458392663421124 0.09428370117987953 -0.4028211610431197 89 64 54
0.1458820392349507 0.08452700434736317 -0.40381583865248283 93 66 55
0.14674380658364006 0.07824358176558976 -0.4055099834075452 92 64 52
0.14735529565177422 0.07395265591690356 -0.4076069347329519 92 64 50
0.1485468929201315 0.06503118751095757 -0.4087049653662766 106 77 58
0.14866177036993694 0.06469726828325742 -0.4116194327078495 109 80 60
0.14904219392932916 0.062243542228428615 -0.414075769426556 104 75 56
0.1492854071660297 0.06088424787374783 -0.41676405674755473 98 67 44
0.1484646553676272 0.06802330284328911 -0.42131413591451167 92 59 31
0.14875240733358844 0.06630959784355538 -0.4239316365163433 86 52 26
0.14919643568954344 0.06334598032724134 -0.4262667856551433 87 53 29
0.14919700551418436 0.06392642500605517 -0.4293884252130839 85 53 31
0.14935820030882316 0.06322282699909754 -0.4322233270194698 89 61 43
0.1491348093971029 0.0655959002994556 -0.4357569227605196 91 66 56
0.1486167878750348 0.07032862115461068 -0.4398397384137648 95 74 67
0.14826325473916965 0.07374776299955006 -0.4436361149621172 108 95 91
0.14823250000437976 0.0745845236974545 -0.44684519968892517 156 150 152
0.1486846153829401 0.07155408075706567 -0.44915428952841135 182 180 184
0.14892432558588137 0.07022399382504349 -0.45185525718550973 181 182 184
0.1495530811003224 0.06577497177583486 -0.4538142676355579 181 182 184
0.152769903617807 0.07355962855307152 -0.6268910103213073 194 194 196
0.1296483913280071 0.26360138174889935 -0.6959626804219169 195 195 197
0.1334379577656585 0.24144506303889182 -0.7326354556441252 203 203 205
0.1347286184538576 0.2328963737754377 -0.7397736483903455 206 206 208
0.13486135663498433 0.2324864685649954 -0.7430127669854936 206 206 208
0.13619704839579427 0.222195090803545 -0.7426898480789816 207 207 209
0.136365746825463 0.22148648880967525 -0.7458048333249041 208 208 210
0.13679195841408198 0.21866100855769377 -0.7481488845535524 208 208 210
0.13722036742441002 0.21581588845249222 -0.7504779446069599 208 207 210
0.13751439860648285 0.21407448233082838 -0.7532043124879232 208 208 210
0.13772624812990628 0.21300842016553928 -0.7561754980674718 208 208 210
0.13819465168253753 0.20983031022896823 -0.7583623191291877 209 209 211
0.13831880716113112 0.20948477245015384 -0.7615941101638006 209 210 210
0.13859448445376604 0.20789133353350608 -0.7643598903296971 207 206 207
0.13893648644702566 0.20575068538038477 -0.766916491434431 193 191 190
0.13929808945105204 0.20344736609165476 -0.7694061823795054 163 158 157
0.13990030437438258 0.19915906887688983 -0.7711379817502457 132 124 123
0.1409534774625149 0.19114899761256365 -0.7714413173676131 110 99 96
0.1426434693997633 0.17788003151778464 -0.7697103410376043 102 88 84
0.1434060148290878 0.17225657069665787 -0.7708704860519366 97 80 74
0.14416460728009678 0.16666227104422204 -0.772024668042582 96 77 69
0.14451766245377545 0.16441361807950353 -0.7744566739048229 94 74 65
0.14476585929023866 0.1630300146123286 -0.7772189619776887 92 71 61
0.14524434132516537 0.15974270785984082 -0.7792349734560696 92 70 59
0.1458250630201923 0.15560829677596452 -0.7809094243943724 90 67 55
0.14711893619954125 0.14557393997707757 -0.7802486543030025 88 65 51
0.14823969205534948 0.13696520129490516 -0.7801195708819604 87 63 50
0.1483406004159063 0.13679035490847996 -0.7833120082371798 86 61 48
0.148534578301031 0.13584526731126143 -0.786198240105872 84 60 48
0.14810338261347866 0.14007676094937022 -0.7911555336807594 82 58 46
0.14840833625194774 0.13821347853287036 -0.7936779172721948 81 57 45
0.14368705248144284 0.17799856507400297 -0.8130110629370079 81 57 45
0.1450923448890218 0.16702657513551478 -0.811900817168987 81 57 45
0.14575522505057392 0.1622035335981188 -0.8132585805009206 81 57 45
0.1449936304901946 0.16919329737678576 -0.8194304684252572 81 57 45
0.14468447976171292 0.1724339054397629 -0.824088475739776 81 57 45
0.144374202069729 0.17568638537495032 -0.8287637765333543 81 57 46
0.15031555515092987 0.12703220346554556 -0.8119723320185802 81 57 46
0.15109455800430482 0.12122433145443653 -0.8128209922734879 83 59 48
0.15363354815868846 0.10078911890638118 -0.8075496768895264 86 62 51
0.1545465997062635 0.09385474121009643 -0.8078659130456542 85 62 51
0.15471176376077198 0.09313434672552481 -0.8107734447510925 84 63 51
0.1397914521816528 0.2178871060676493 -0.8666553827153353 86 63 51
0.1430942265355648 0.1911032979468024 -0.8587241814569461 86 63 53
0.14437816274462006 0.18110463401790675 -0.8578476518749986 90 67 59
0.1499785347044341 0.13516058571911274 -0.8415811883957822 90 67 60
0.15110436875622224 0.12645331358157158 -0.8411337730614086 89 66 57
0.1517338261172434 0.12187606286019831 -0.8424370105147065 92 69 58
0.15276184996765993 0.11397406963435902 -0.8422889999523024 93 70 59
0.15313113464592393 0.1115591822845974 -0.8444972278546261 93 72 60
0.15332917025773735 0.11057121875334519 -0.8473204977800671 95 73 63
0.15513397262955525 0.09617723924307278 -0.8442784861905251 97 73 65
0.15641227476347083 0.08616787174853305 -0.8431144671475623 97 72 62
0.15803117446048381 0.07330825126700982 -0.8406618450359069 91 63 48
0.15763973557397398 0.07723016191803941 -0.8455921221451337 91 60 37
0.15841686270470634 0.071391986083658 -0.8462023334359675 94 59 34
0.158869120126626 0.06826522390298527 -0.8480030907164023 90 54 28
0.15973045061377164 0.06171652102714134 -0.8482633406299368 91 53 27
0.1598536054166346 0.0613372778225533 -0.8512743025923023 93 57 29
0.15934108715025755 0.06627633744849336 -0.8566835354639787 93 60 36
0.15951447510652894 0.06547860250469117 -0.8595144763671695 96 67 45
0.1590321275584388 0.07017054063405498 -0.8648381672676069 100 75 54
0.15816710306703324 0.07807099168100498 -0.8716423480664562 99 76 60
0.15776339625775448 0.08211233039518322 -0.8767085302842653 96 76 61
0.1577752457117239 0.08267405138881889 -0.8801914047786928 96 77 62
0.15757342634156057 0.08502783263828698 -0.8845039973708424 96 77 63
0.15709340440577163 0.08971677819802942 -0.8899067994389541 93 74 59
0.15901304032541397 0.07427694774736404 -0.885977257069148 92 73 58
0.15890075732289607 0.07587973919734098 -0.8899419489400626 93 74 59
0.15853667179591585 0.07959797696909993 -0.8949034166959606 93 73 59
0.15873024940433578 0.07863560047071459 -0.8976809968166128 89 68 56
0.1586680896541092 0.07982141548997407 -0.9014692627329921 87 64 53
0.1583440724190193 0.0832091163852359 -0.9063046003962595 91 66 52
0.15832029281563142 0.08407531008454239 -0.9099559805000628 105 80 60
0.1584125185640489 0.08396678546190418 -0.9131474373667742 114 88 68
0.15852237776160338 0.08371014040398306 -0.9162692080562748 118 93 72
0.15880001689101644 0.08204155889390408 -0.9187140981661958 119 94 70
0.1587651694810564 0.0830029821987876 -0.9224212830421327 117 92 69
0.1580622782250154 0.08959173076152901 -0.9288527485515744 111 85 64
0.1584105597665326 0.08732922400071916 -0.9310156295400869 95 69 47
0.15912995310370176 0.08193768486114886 -0.9316494245186189 84 58 39
0.15964711308953383 0.07824768525896253 -0.9330973007026101 84 57 39
0.1603029634648083 0.07338567430433895 -0.9339596298304585 80 55 39
0.15988767696401665 0.07755770391272865 -0.9392499758185769 80 55 42
0.1598885361495427 0.0782207395479058 -0.9428243064809434 85 61 48
0.16061548038177242 0.07275424776388689 -0.9433667399212554 89 65 54
0.16141689209111618 0.06665524337877293 -0.9435775816041424 93 71 63
0.15944823362185895 0.08395641655241409 -0.955438401372923 96 76 68
0.1597028105938958 0.08247950589189096 -0.9579634858559527 94 75 67
0.16049950191488044 0.07641830610967752 -0.9581831257184239 94 77 68
0.16127692115816988 0.07051611155892974 -0.9584635563776794 91 74 65
0.1613532515162865 0.07054192490921682 -0.9617221927322335 89 71 62
0.16207930287323352 0.06506883756073743 -0.9621929137120679 89 71 62
0.16277477872102464 0.05985104376281239 -0.962776247767942 87 67 56
0.163739024101637 0.05235335276025094 -0.9621787017186529 88 68 57
0.1641226479685308 0.049770256711833896 -0.9640753254411726 88 68 57
0.16386128313670711 0.05265260410041797 -0.9687747589510918 89 69 60
0.16399225067431458 0.052210693412529735 -0.9717706416350793 90 70 63
0.16207490575853223 0.0691428773582142 -0.9837598519133567 91 73 65
0.1644301940260776 0.04983339552537605 -0.9769867003313699 94 77 69
0.16268345840407905 0.06532932297500535 -0.9882848941257423 95 78 70
0.16258669603869455 0.06682629912718313 -0.9923193348274905 95 78 70
0.1618375847040321 0.07386593557526333 -0.9992678268361335 94 77 69
0.16338883109224406 0.0613639218404651 -0.9959579876634033 94 77 69
0.1641092767952469 0.055915403488075 -0.9963306617707868 94 77 69
0.1655805399427705 0.044749176273365956 -0.9968808854081145 93 76 68
0.16864124389306467 0.019374968464220932 -0.986576649731475 94 77 69
0.1688441108112852 0.018310694024008173 -0.9891901145960098 95 77 70
0.16819385406007162 0.024510980083703948 -0.9957000331901636 95 77 69
0.16915747360631744 0.01696766460471749 -0.9948333614431565 94 77 69
0.1695420505603393 0.014353772487233518 -0.9966045675514584 90 72 63
0.16980996256625638 0.012732870580093564 -0.9989062616734731 84 66 53
0.1703944627221381 0.008411200331804994 -0.9997356328197792 80 57 44
0.17082839638126923 0.0053712209844191255 -1.001250439561002 74 45 33
0.170706583815539 0.007072259890661195 -1.005349937832744 74 43 26
0.17095370575634095 0.005625096400196039 -1.007729002135489 76 41 23
0.17334947090681632 -0.01417335230845479 -1.000000746462564 73 37 18
0.1723144810838322 -0.004674786036638567 -1.0083862546353723 72 35 16
0.17229754523893917 -0.0038700411364526732 -1.011989443020939 72 36 15
0.17206378233578343 -0.0012105574933427288 -1.016627791728679 75 39 17
