ply
format ascii 1.0
element vertex 886
property float x
property float y
property float z
property float nx
property float ny
property float nz
property uchar diffuse_red
property uchar diffuse_green
property uchar diffuse_blue
property uchar class
property uchar detection
end_header
0.0618 0.3076 -0.9510 0.129 0.886 0.444 60 32 14 0 0
0.0598 0.3387 -0.9968 0.465 0.885 0.041 92 74 64 0 0
0.0574 0.3774 -1.0464 0.297 0.927 0.227 101 68 37 0 0
0.0568 0.3831 -1.0658 -0.217 0.932 0.290 90 58 38 0 0
0.0565 0.3792 -1.0846 0.011 1.000 0.023 35 16 8 0 0
0.0562 0.3774 -1.1022 -0.077 0.990 0.118 63 28 12 0 0
0.0561 0.3785 -1.1048 -0.037 0.964 0.264 71 33 12 0 0
0.0554 0.3842 -1.1275 -0.287 0.956 0.058 97 66 38 0 0
0.0553 0.3813 -1.1360 -0.092 0.993 0.067 95 63 38 0 0
0.0916 0.2023 0.0824 0.267 0.812 0.519 94 64 43 0 0
0.0915 0.2037 0.0795 0.254 0.939 0.232 91 62 41 0 0
0.0914 0.2036 0.0767 0.087 0.945 0.316 91 61 40 0 0
0.0914 0.2041 0.0738 0.090 0.986 0.137 89 58 37 0 0
0.0913 0.2052 0.0709 0.106 0.990 0.095 82 51 30 0 0
0.0911 0.2055 0.0651 -0.058 0.953 0.298 81 46 26 0 0
0.0910 0.2046 0.0594 -0.276 0.783 0.557 82 51 30 0 0
0.0909 0.2066 0.0565 -0.276 0.783 0.557 87 56 37 0 0
0.0885 0.2089 -0.0480 0.136 0.952 0.275 13 9 6 0 0
0.0884 0.2097 -0.0509 0.136 0.952 0.275 15 11 8 0 0
0.0883 0.2106 -0.0538 0.136 0.952 0.275 11 7 4 0 0
0.0881 0.2127 -0.0567 0.101 0.851 0.516 20 16 14 0 0
0.0879 0.2169 -0.0594 0.190 0.749 0.634 16 10 10 0 0
0.0861 0.2572 -0.0833 0.240 0.902 0.360 60 31 16 0 0
0.0807 0.2626 -0.3149 0.381 0.803 0.458 64 31 12 0 0
0.0779 0.2848 -0.4037 0.592 0.765 0.253 59 27 16 0 0
0.0781 0.2224 -0.4903 -0.045 0.992 0.121 57 30 13 0 0
0.0780 0.2224 -0.4934 -0.180 0.960 0.214 60 33 16 0 0
0.0780 0.2217 -0.4968 0.250 0.961 0.122 64 37 20 0 0
0.0775 0.2224 -0.5156 0.197 0.972 0.127 64 35 21 0 0
0.0775 0.2221 -0.5189 0.058 0.994 0.096 66 37 21 0 0
0.0774 0.2221 -0.5221 -0.030 0.933 0.357 61 32 16 0 0
0.0773 0.2212 -0.5255 0.067 0.974 0.218 59 30 14 0 0
0.0757 0.2255 -0.5946 0.322 0.933 0.159 79 44 24 0 0
0.0746 0.2234 -0.6437 0.283 0.855 -0.434 66 32 13 0 0
0.0746 0.2136 -0.6602 0.609 0.782 0.132 60 27 10 0 0
0.0683 0.2919 -0.8211 0.375 0.845 0.382 55 21 9 0 0
0.0657 0.2995 -0.9256 0.185 0.983 0.015 95 67 43 0 0
0.0657 0.2996 -0.9288 0.185 0.983 0.015 95 67 43 0 0
0.0649 0.3066 -0.9517 0.315 0.878 0.359 66 35 17 0 0
0.0643 0.3169 -0.9627 0.080 0.980 0.184 93 80 71 0 0
0.0632 0.3383 -0.9807 0.566 0.821 -0.076 102 85 77 0 0
0.0630 0.3402 -0.9895 -0.197 0.968 0.154 94 77 67 0 0
0.0627 0.3430 -0.9945 -0.384 0.873 0.300 90 72 59 0 0
0.0595 0.3802 -1.0840 -0.114 0.984 0.137 38 18 11 0 0
0.0593 0.3772 -1.0991 -0.013 0.973 0.232 55 24 10 0 0
0.0592 0.3776 -1.1021 -0.076 0.994 0.075 66 32 12 0 0
0.0591 0.3781 -1.1051 -0.095 0.980 0.173 73 37 14 0 0
0.0590 0.3799 -1.1073 -0.142 0.935 0.325 74 38 14 0 0
0.0589 0.3799 -1.1106 -0.116 0.975 0.191 81 45 19 0 0
0.0583 0.3819 -1.1357 -0.182 0.976 0.122 97 66 43 0 0
0.0582 0.3820 -1.1389 -0.126 0.984 0.127 95 63 39 0 0
0.0943 0.2035 0.0737 0.124 0.986 0.112 88 59 38 0 0
0.0942 0.2049 0.0708 0.106 0.990 0.095 85 53 35 0 0
0.0940 0.2057 0.0650 -0.058 0.953 0.298 81 48 28 0 0
0.0911 0.2525 0.0079 -0.214 0.918 0.333 62 27 7 0 0
0.0906 0.2601 -0.0062 0.369 0.852 0.371 56 23 9 0 0
0.0904 0.2631 -0.0090 0.386 0.525 0.758 54 24 10 0 0
0.0906 0.2251 -0.0620 -0.122 0.516 0.848 27 23 21 0 0
0.0870 0.2923 -0.1182 0.188 0.839 0.511 121 97 81 0 0
0.0857 0.3167 -0.1359 0.334 0.939 0.076 65 31 10 0 0
0.0836 0.2673 -0.3112 0.018 0.728 0.685 61 28 13 0 0
0.0811 0.2230 -0.4934 -0.251 0.935 0.251 60 33 16 0 0
0.0811 0.2170 -0.5013 0.480 0.849 0.220 68 41 24 0 0
0.0810 0.2178 -0.5043 0.480 0.849 0.220 54 26 10 0 0
0.0809 0.2207 -0.5067 0.231 0.930 -0.286 54 26 13 0 0
0.0808 0.2196 -0.5101 0.231 0.930 -0.286 58 30 18 0 0
0.0806 0.2216 -0.5159 0.275 0.950 0.146 64 36 21 0 0
0.0805 0.2219 -0.5190 0.204 0.976 0.078 63 34 18 0 0
0.0794 0.2194 -0.5741 0.142 0.983 0.121 70 37 19 0 0
0.0789 0.2220 -0.5926 -0.147 0.988 0.049 77 42 22 0 0
0.0788 0.2242 -0.5951 0.237 0.971 -0.021 78 43 23 0 0
0.0778 0.2221 -0.6443 0.392 0.829 -0.398 67 34 15 0 0
0.0697 0.3023 -0.8815 0.409 0.876 0.256 81 53 32 0 0
0.0681 0.3043 -0.9496 0.262 0.963 -0.055 60 30 12 0 0
0.0680 0.3070 -0.9515 0.022 0.862 0.507 66 35 17 0 0
0.0677 0.3118 -0.9589 -0.434 0.863 0.257 84 66 56 0 0
0.0663 0.3391 -0.9770 -0.005 0.997 0.083 99 82 74 0 0
0.0661 0.3403 -0.9830 -0.032 0.978 -0.207 100 83 75 0 0
0.0660 0.3410 -0.9858 -0.194 0.952 0.236 98 81 72 0 0
0.0657 0.3453 -0.9933 -0.317 0.812 0.490 89 71 57 0 0
0.0643 0.3744 -1.0125 0.445 0.893 0.068 75 33 9 0 0
0.0640 0.3806 -1.0154 -0.064 0.991 0.122 78 36 11 0 0
0.0630 0.3806 -1.0610 0.058 0.990 -0.130 98 67 38 0 0
0.0622 0.3777 -1.1021 -0.061 0.998 0.029 65 31 11 0 0
0.0621 0.3778 -1.1054 -0.061 0.998 0.029 75 39 15 0 0
0.0612 0.3812 -1.1396 0.215 0.955 0.206 96 65 42 0 0
0.0973 0.2030 0.0736 0.455 0.886 0.086 88 64 48 0 0
0.0971 0.2044 0.0707 0.207 0.977 0.057 85 58 43 0 0
0.0970 0.2079 0.0678 0.735 0.652 0.183 78 49 35 0 0
0.0900 0.2899 -0.1127 0.422 0.822 0.382 101 72 62 0 0
0.0886 0.3155 -0.1361 0.185 0.970 0.158 67 33 10 0 0
0.0866 0.2522 -0.3321 0.149 0.753 -0.640 69 42 26 0 0
0.0859 0.2384 -0.3868 0.318 0.679 0.662 50 26 16 0 0
0.0847 0.2173 -0.4792 0.351 0.827 -0.440 65 38 21 0 0
0.0842 0.2235 -0.4902 -0.050 0.822 0.568 62 35 18 0 0
0.0840 0.2178 -0.5076 0.617 0.787 0.005 61 33 19 0 0
0.0839 0.2180 -0.5107 0.523 0.852 0.011 63 36 21 0 0
0.0823 0.2213 -0.5800 0.019 0.953 0.303 76 43 23 0 0
0.0820 0.2208 -0.5963 0.093 0.992 0.083 77 42 22 0 0
0.0818 0.2204 -0.6028 -0.139 0.986 0.095 79 44 24 0 0
0.0809 0.2243 -0.6371 -0.290 0.770 0.568 67 34 15 0 0
0.0799 0.2300 -0.6773 -0.286 0.779 0.558 54 25 9 0 0
0.0796 0.2338 -0.6825 -0.087 0.947 0.310 52 24 10 0 0
0.0777 0.2440 -0.7537 0.681 0.674 -0.287 53 21 8 0 0
0.0776 0.2442 -0.7569 0.620 0.699 -0.356 52 20 7 0 0
0.0729 0.2982 -0.8804 -0.293 0.956 0.012 86 58 35 0 0
0.0728 0.3005 -0.8825 0.048 0.994 0.099 82 55 34 0 0
0.0725 0.2968 -0.9041 -0.127 0.984 -0.125 75 43 22 0 0
0.0713 0.3014 -0.9480 0.358 0.800 0.482 56 26 11 0 0
0.0710 0.3107 -0.9497 0.431 0.902 -0.021 67 37 19 0 0
0.0708 0.3083 -0.9609 -0.097 0.954 0.284 83 65 55 0 0
0.0693 0.3392 -0.9771 -0.005 0.997 0.083 98 81 73 0 0
0.0692 0.3393 -0.9803 -0.145 0.977 -0.154 98 81 73 0 0
0.0692 0.3395 -0.9835 -0.146 0.989 0.031 96 79 71 0 0
0.0691 0.3407 -0.9861 -0.532 0.821 0.207 95 78 69 0 0
0.0664 0.3790 -1.0425 0.132 0.991 -0.021 104 70 42 0 0
0.0663 0.3776 -1.0531 -0.073 0.995 0.072 102 71 42 0 0
0.0642 0.3811 -1.1397 0.122 0.984 0.132 99 69 45 0 0
0.0641 0.3816 -1.1427 0.251 0.919 0.303 92 66 44 0 0
0.0970 0.2486 0.0077 -0.416 0.752 0.511 66 31 11 0 0
0.0963 0.2593 -0.0064 0.157 0.961 0.226 61 29 12 0 0
0.0956 0.2710 -0.0202 0.098 0.815 0.571 61 35 23 0 0
0.0969 0.2125 -0.0628 0.393 0.484 0.782 46 41 37 0 0
0.0949 0.2539 -0.0809 0.307 0.929 0.206 66 41 29 0 0
0.0949 0.2505 -0.0898 0.071 0.996 0.056 66 36 20 0 0
0.0919 0.3064 -0.1285 0.237 0.964 0.118 87 44 15 0 0
0.0918 0.2873 -0.1675 -0.690 0.721 0.065 62 42 34 0 0
0.0888 0.2428 -0.3828 0.295 0.954 0.048 55 30 22 0 0
0.0888 0.2412 -0.3863 -0.297 0.702 0.647 51 27 17 0 0
0.0871 0.2813 -0.3957 0.261 0.500 0.826 66 39 28 0 0
0.0868 0.2869 -0.3974 0.429 0.713 0.555 61 29 15 0 0
0.0855 0.3061 -0.4259 0.133 0.990 -0.045 75 37 12 0 0
0.0809 0.2383 -0.7561 0.924 0.383 -0.018 54 22 9 0 0
0.0774 0.2930 -0.8241 0.236 0.847 0.477 62 29 11 0 0
0.0769 0.2990 -0.8344 -0.216 0.896 0.389 68 31 11 0 0
0.0768 0.3003 -0.8370 0.250 0.964 0.089 73 34 14 0 0
0.0766 0.3023 -0.8426 0.165 0.981 0.105 76 35 11 0 0
0.0741 0.3092 -0.9506 0.431 0.902 -0.021 67 38 20 0 0
0.0721 0.3416 -0.9824 -0.074 0.928 0.366 94 76 67 0 0
0.0720 0.3455 -0.9836 0.234 0.903 0.361 98 80 70 0 0
0.0694 0.3786 -1.0428 0.132 0.991 -0.021 106 72 44 0 0
0.0689 0.3769 -1.0700 0.131 0.991 0.003 90 62 38 0 0
0.0688 0.3767 -1.0734 0.156 0.965 -0.212 84 56 36 0 0
0.0683 0.3763 -1.0999 -0.005 0.999 -0.043 58 26 12 0 0
0.0673 0.3805 -1.1402 0.050 0.982 0.183 98 68 43 0 0
0.0979 0.2517 -0.0811 0.185 0.978 0.097 76 51 40 0 0
0.0947 0.3059 -0.1315 0.007 0.976 0.216 75 36 11 0 0
0.0947 0.2734 -0.1923 -0.237 0.970 0.049 61 41 32 0 0
0.0943 0.2799 -0.2003 0.773 0.561 0.296 60 40 31 0 0
0.0928 0.2328 -0.3543 0.451 0.774 -0.444 57 35 21 0 0
0.0927 0.2325 -0.3605 0.545 0.838 -0.039 52 29 20 0 0
0.0919 0.2417 -0.3832 0.393 0.904 0.170 53 29 19 0 0
0.0901 0.2795 -0.3962 0.584 0.531 0.614 65 37 24 0 0
0.0890 0.2961 -0.4194 0.136 0.973 0.186 73 33 8 0 0
0.0886 0.3022 -0.4240 0.015 0.964 0.264 72 32 7 0 0
0.0885 0.3044 -0.4264 0.196 0.949 0.247 74 36 12 0 0
0.0904 0.2118 -0.5062 0.542 0.751 0.378 63 35 24 0 0
0.0903 0.2129 -0.5091 0.558 0.762 0.329 64 37 25 0 0
0.0872 0.2129 -0.6576 0.200 0.951 -0.238 67 34 17 0 0
0.0805 0.2939 -0.8206 -0.168 0.922 0.349 59 27 9 0 0
0.0804 0.2946 -0.8235 -0.112 0.853 0.509 63 29 10 0 0
0.0798 0.3020 -0.8363 -0.228 0.956 -0.186 75 34 14 0 0
0.0798 0.3000 -0.8438 0.014 0.998 0.058 80 39 14 0 0
0.0793 0.2969 -0.8713 0.065 0.996 0.063 97 67 43 0 0
0.0789 0.3024 -0.8818 -0.003 0.991 0.136 88 61 40 0 0
0.0788 0.3032 -0.8846 0.050 0.997 0.050 91 63 43 0 0
0.0771 0.3093 -0.9506 0.013 0.938 -0.347 67 38 20 0 0
0.0752 0.3410 -0.9796 -0.048 0.938 0.342 94 76 66 0 0
0.0751 0.3420 -0.9823 -0.162 0.897 0.411 89 70 59 0 0
0.0750 0.3455 -0.9836 0.331 0.804 0.493 96 76 65 0 0
0.0729 0.3690 -1.0356 0.005 0.941 0.339 91 55 24 0 0
0.0719 0.3761 -1.0738 0.156 0.965 -0.212 85 58 38 0 0
0.0716 0.3755 -1.0874 0.167 0.970 0.177 39 15 8 0 0
0.0708 0.3795 -1.1178 0.214 0.976 0.036 98 64 37 0 0
0.0707 0.3797 -1.1210 -0.077 0.992 0.101 99 66 39 0 0
0.0703 0.3804 -1.1404 0.050 0.982 0.183 95 66 40 0 0
0.1057 0.2053 0.0590 0.270 0.778 0.567 181 181 180 0 0
0.1014 0.2700 -0.0176 0.489 0.445 0.750 67 39 26 0 0
0.0985 0.2933 -0.1127 -0.509 0.450 0.734 113 86 73 0 0
0.0974 0.2901 -0.1674 -0.014 0.980 -0.199 62 42 35 0 0
0.0974 0.2758 -0.1951 0.233 0.884 0.406 61 41 32 0 0
0.0973 0.2776 -0.1977 0.247 0.724 0.644 62 42 33 0 0
0.0972 0.2799 -0.2004 0.333 0.748 0.575 63 43 34 0 0
0.0970 0.2817 -0.2031 0.312 0.755 0.577 62 42 33 0 0
0.0959 0.2337 -0.3512 0.491 0.754 -0.437 69 45 32 0 0
0.0950 0.2378 -0.3841 0.538 0.824 -0.181 54 30 20 0 0
0.0918 0.2980 -0.4191 -0.114 0.993 -0.029 74 34 9 0 0
0.0947 0.2035 -0.4671 0.833 0.456 -0.314 91 67 48 0 0
0.0943 0.2014 -0.4868 0.546 0.800 -0.250 72 47 32 0 0
0.0942 0.2010 -0.4933 0.741 0.638 -0.208 70 45 31 0 0
0.0932 0.2040 -0.5341 -0.062 0.961 0.269 75 45 27 0 0
0.0932 0.2031 -0.5375 0.171 0.979 -0.115 73 42 24 0 0
0.0930 0.2066 -0.5398 0.174 0.939 -0.297 73 45 25 0 0
0.0929 0.2073 -0.5427 0.227 0.944 -0.241 76 48 28 0 0
0.0929 0.2068 -0.5461 0.018 0.939 -0.342 76 48 28 0 0
0.0928 0.2083 -0.5489 0.063 0.942 -0.328 79 49 29 0 0
0.0927 0.2068 -0.5525 0.244 0.966 0.087 78 47 27 0 0
0.0927 0.2059 -0.5560 0.585 0.811 -0.005 76 45 25 0 0
0.0915 0.2025 -0.6187 0.501 0.760 -0.415 81 49 29 0 0
0.0915 0.2010 -0.6225 0.414 0.832 -0.368 81 49 28 0 0
0.0914 0.2008 -0.6258 0.466 0.850 -0.245 81 49 29 0 0
0.0915 0.1980 -0.6300 0.482 0.875 -0.050 80 47 28 0 0
0.0914 0.1979 -0.6333 0.482 0.875 -0.050 76 43 24 0 0
0.0913 0.2001 -0.6359 0.365 0.911 -0.192 74 43 23 0 0
0.0913 0.1976 -0.6400 0.397 0.833 0.386 74 42 23 0 0
0.0904 0.2061 -0.6666 0.576 0.816 -0.037 66 36 20 0 0
0.0903 0.2052 -0.6735 0.347 0.926 0.151 60 31 15 0 0
0.0844 0.2807 -0.8070 -0.019 0.991 0.134 60 29 11 0 0
0.0828 0.3035 -0.8357 -0.290 0.905 -0.313 74 34 13 0 0
0.0819 0.3028 -0.8817 0.135 0.966 -0.219 88 61 41 0 0
0.0818 0.3021 -0.8853 0.093 0.973 -0.212 89 61 42 0 0
0.0817 0.3041 -0.8876 0.059 0.934 0.353 86 57 37 0 0
0.0816 0.3052 -0.8903 0.059 0.934 0.353 83 54 33 0 0
0.0802 0.3077 -0.9515 0.070 0.989 -0.127 68 39 23 0 0
0.0782 0.3418 -0.9792 0.208 0.840 0.501 89 71 60 0 0
0.0781 0.3427 -0.9820 -0.027 0.947 0.321 89 69 58 0 0
0.0780 0.3468 -0.9830 0.466 0.840 0.278 91 71 60 0 0
0.0771 0.3536 -1.0119 -0.112 0.943 0.312 74 34 9 0 0
0.0759 0.3776 -1.0208 -0.083 0.994 -0.064 84 44 16 0 0
0.0757 0.3769 -1.0343 -0.077 0.996 0.051 96 63 32 0 0
0.0756 0.3778 -1.0369 0.180 0.980 0.081 100 67 36 0 0
0.0755 0.3779 -1.0402 0.132 0.991 -0.021 103 70 39 0 0
0.0747 0.3755 -1.0809 0.016 1.000 0.009 58 34 22 0 0
0.0746 0.3767 -1.0835 -0.045 0.996 0.076 41 17 8 0 0
0.0746 0.3766 -1.0868 -0.234 0.924 -0.303 41 16 9 0 0
0.0739 0.3904 -1.0913 -0.129 0.983 -0.127 64 28 12 0 0
0.0741 0.3791 -1.1050 0.129 0.990 0.055 75 39 15 0 0
0.0740 0.3792 -1.1082 0.129 0.990 0.055 84 48 22 0 0
0.0737 0.3795 -1.1212 -0.058 0.992 0.114 100 67 39 0 0
0.1051 0.2579 -0.0038 -0.227 0.880 0.418 66 33 16 0 0
0.1042 0.2714 -0.0176 0.021 0.505 0.863 71 43 30 0 0
0.1025 0.2689 -0.1061 -0.138 0.313 0.940 89 63 50 0 0
0.1004 0.2754 -0.1952 0.261 0.885 0.384 64 44 35 0 0
0.1000 0.2807 -0.2033 0.312 0.755 0.577 65 45 36 0 0
0.0998 0.2502 -0.2726 0.780 0.615 0.112 67 40 24 0 0
0.0997 0.2529 -0.2751 0.790 0.595 -0.148 67 40 25 0 0
0.0983 0.2412 -0.3650 0.448 0.804 0.391 40 22 18 0 0
0.0982 0.2411 -0.3681 0.448 0.894 -0.036 61 46 41 0 0
0.0980 0.2411 -0.3773 0.511 0.860 -0.001 52 31 20 0 0
0.0981 0.2373 -0.3812 0.526 0.850 -0.018 56 33 22 0 0
0.0981 0.2356 -0.3847 0.228 0.939 -0.256 56 32 22 0 0
0.0982 0.1916 -0.4702 0.876 0.481 0.042 100 77 61 0 0
0.0981 0.1921 -0.4733 0.876 0.481 0.042 101 78 65 0 0
0.0981 0.1920 -0.4766 0.867 0.498 0.016 78 55 41 0 0
0.0974 0.1977 -0.4942 0.711 0.681 0.177 72 49 35 0 0
0.0974 0.1979 -0.4974 0.714 0.687 0.131 75 53 40 0 0
0.0961 0.2057 -0.5433 0.223 0.973 -0.055 81 53 32 0 0
0.0960 0.2057 -0.5465 0.019 0.976 -0.216 80 52 32 0 0
0.0960 0.2048 -0.5500 -0.340 0.940 0.035 81 52 31 0 0
0.0956 0.2012 -0.5737 0.089 0.996 -0.029 84 54 36 0 0
0.0956 0.2001 -0.5773 0.292 0.902 0.317 83 53 35 0 0
0.0955 0.2012 -0.5802 0.407 0.888 0.214 83 53 35 0 0
0.0955 0.1999 -0.5838 0.284 0.950 0.132 85 55 37 0 0
0.0954 0.1986 -0.5908 -0.015 0.984 -0.178 83 53 33 0 0
0.0953 0.1984 -0.5941 -0.042 0.992 -0.116 85 54 34 0 0
0.0953 0.1988 -0.5972 -0.006 0.992 0.122 86 55 35 0 0
0.0951 0.2001 -0.6000 0.325 0.927 0.190 83 51 30 0 0
0.0951 0.2007 -0.6031 0.223 0.963 0.151 80 49 28 0 0
0.0949 0.2024 -0.6091 -0.133 0.973 -0.191 78 46 26 0 0
0.0948 0.2011 -0.6128 -0.316 0.858 -0.404 79 46 27 0 0
0.0948 0.2006 -0.6162 -0.697 0.656 -0.289 80 47 28 0 0
0.0945 0.1967 -0.6404 0.171 0.957 0.233 77 46 28 0 0
0.0943 0.1984 -0.6431 0.092 0.833 0.546 76 45 27 0 0
0.0942 0.1999 -0.6459 -0.149 0.898 0.413 73 42 23 0 0
0.0941 0.2012 -0.6487 0.145 0.971 0.191 73 42 24 0 0
0.0934 0.2046 -0.6738 0.151 0.970 0.190 62 33 19 0 0
0.0855 0.2991 -0.8607 0.044 0.994 0.097 91 52 22 0 0
0.0848 0.2999 -0.8931 -0.031 0.998 -0.052 84 55 33 0 0
0.0848 0.2956 -0.9050 0.055 0.992 -0.110 77 45 22 0 0
0.0840 0.2948 -0.9418 -0.010 0.975 0.222 55 28 12 0 0
0.0833 0.3092 -0.9476 -0.070 0.987 -0.142 64 35 17 0 0
0.0833 0.3087 -0.9511 -0.070 0.987 -0.142 68 39 24 0 0
0.0832 0.3072 -0.9552 0.033 0.999 0.011 73 47 34 0 0
0.0824 0.3212 -0.9676 0.143 0.929 0.342 93 76 68 0 0
0.0823 0.3222 -0.9703 0.143 0.929 0.342 92 75 67 0 0
0.0809 0.3466 -0.9865 0.487 0.723 0.490 89 69 58 0 0
0.0777 0.3751 -1.0812 -0.142 0.986 0.084 56 32 21 0 0
0.0777 0.3756 -1.0842 -0.351 0.875 0.334 41 18 8 0 0
0.0770 0.3790 -1.1084 0.228 0.972 -0.056 85 49 24 0 0
0.0769 0.3792 -1.1149 0.067 0.997 0.033 96 61 34 0 0
0.1096 0.2404 0.0385 0.352 0.775 0.524 117 78 59 0 0
0.1096 0.2399 0.0357 -0.357 0.839 0.410 115 77 56 0 0
0.1083 0.2515 0.0017 -0.233 0.972 0.027 72 38 18 0 0
0.1081 0.2565 -0.0011 -0.142 0.946 0.291 70 38 20 0 0
0.1080 0.2574 -0.0039 -0.070 0.961 0.266 68 36 19 0 0
0.1080 0.2543 -0.0068 0.488 0.870 0.070 66 36 20 0 0
0.1078 0.2540 -0.0182 0.030 0.883 -0.469 70 42 29 0 0
0.1076 0.2330 -0.0766 0.055 0.998 -0.029 80 59 48 0 0
0.1029 0.3098 -0.1399 0.073 0.992 -0.107 75 43 24 0 0
0.1029 0.2483 -0.2700 0.308 0.944 -0.113 67 39 27 0 0
0.1022 0.2255 -0.3560 0.297 0.871 0.390 68 43 30 0 0
0.1022 0.2225 -0.3597 0.647 0.744 -0.165 66 40 30 0 0
0.1014 0.2376 -0.3659 0.262 0.761 0.594 43 27 23 0 0
0.1014 0.2375 -0.3690 0.366 0.931 0.016 66 46 43 0 0
0.1014 0.2343 -0.3727 0.432 0.802 -0.413 59 41 34 0 0
0.1013 0.2362 -0.3754 -0.091 0.849 -0.521 57 37 27 0 0
0.1011 0.2391 -0.3778 0.561 0.802 0.206 54 33 22 0 0
0.1012 0.2347 -0.3819 0.307 0.923 0.230 57 33 23 0 0
0.1011 0.2368 -0.3845 0.030 0.975 -0.221 58 35 25 0 0
0.1009 0.2393 -0.3870 0.151 0.941 -0.303 64 41 33 0 0
0.1015 0.1861 -0.4749 0.876 0.481 0.042 95 72 59 0 0
0.1013 0.1862 -0.4813 0.858 0.513 -0.012 80 57 44 0 0
0.0981 0.1998 -0.6100 0.565 0.825 0.003 84 56 39 0 0
0.0980 0.2015 -0.6127 0.553 0.820 -0.149 84 55 38 0 0
0.0979 0.2022 -0.6158 0.419 0.883 -0.209 83 55 38 0 0
0.0975 0.1981 -0.6433 0.377 0.835 0.400 75 47 30 0 0
0.0871 0.2948 -0.9419 -0.010 0.975 0.222 54 26 11 0 0
0.0863 0.3115 -0.9465 0.358 0.905 -0.229 64 35 19 0 0
0.0842 0.3416 -0.9828 0.450 0.893 -0.034 88 70 58 0 0
0.0841 0.3422 -0.9858 0.496 0.868 -0.004 88 69 57 0 0
0.0840 0.3450 -0.9875 0.198 0.905 0.376 88 68 57 0 0
0.0801 0.3783 -1.1057 0.129 0.990 0.055 76 41 19 0 0
0.0789 0.3828 -1.1557 0.277 0.959 0.060 155 150 144 0 0
0.1120 0.2450 0.0243 -0.705 0.709 0.018 116 87 70 0 0
0.1108 0.2292 -0.0711 0.200 0.441 0.875 85 66 61 0 0
0.1099 0.2413 -0.0849 0.481 0.801 -0.356 76 49 33 0 0
0.1086 0.2611 -0.1068 0.550 0.409 0.728 95 67 54 0 0
0.1056 0.3132 -0.1396 -0.358 0.926 -0.116 77 45 25 0 0
0.1055 0.3137 -0.1424 -0.018 0.959 0.281 73 47 30 0 0
0.1062 0.2711 -0.2046 0.537 0.680 0.499 68 48 37 0 0
0.1058 0.2488 -0.2730 0.412 0.783 -0.467 67 39 26 0 0
0.1052 0.2253 -0.3531 0.340 0.809 -0.479 64 41 29 0 0
0.1052 0.2246 -0.3563 0.297 0.871 0.390 64 41 27 0 0
0.1047 0.2335 -0.3637 0.110 0.501 0.859 33 19 13 0 0
0.1045 0.2362 -0.3663 0.253 0.826 0.503 50 37 31 0 0
0.1044 0.2363 -0.3693 0.366 0.931 0.016 70 50 44 0 0
0.1045 0.2321 -0.3732 0.280 0.747 -0.603 73 52 44 0 0
0.1043 0.2360 -0.3755 -0.379 0.757 -0.532 58 37 27 0 0
0.1042 0.2364 -0.3816 -0.313 0.950 0.013 60 37 27 0 0
0.1041 0.2373 -0.3845 -0.552 0.829 0.091 60 37 27 0 0
0.1039 0.2390 -0.3872 -0.429 0.893 -0.134 70 49 40 0 0
0.1009 0.2919 -0.4208 0.016 0.920 0.392 75 34 12 0 0
0.1002 0.3010 -0.4306 0.526 0.825 -0.205 89 60 35 0 0
0.0977 0.2171 -0.7453 0.849 0.164 0.503 56 27 11 0 0
0.0977 0.2065 -0.7695 0.978 0.207 -0.036 54 25 11 0 0
0.0915 0.3026 -0.8592 -0.140 0.740 0.658 91 54 27 0 0
0.0912 0.3094 -0.8592 0.278 0.936 0.217 96 64 40 0 0
0.0903 0.2913 -0.9438 0.002 0.999 0.043 52 24 11 0 0
0.0873 0.3402 -0.9837 -0.291 0.953 -0.083 88 70 58 0 0
0.0870 0.3440 -0.9881 -0.360 0.676 0.643 87 67 56 0 0
0.0862 0.3540 -1.0054 -0.096 0.995 0.042 73 32 11 0 0
0.0861 0.3562 -1.0074 0.134 0.973 -0.189 73 32 12 0 0
0.0829 0.3780 -1.1159 0.134 0.989 0.061 87 52 29 0 0
0.0821 0.3795 -1.1547 0.172 0.983 -0.070 131 124 114 0 0
0.0820 0.3792 -1.1582 0.172 0.983 -0.070 161 157 151 0 0
0.1150 0.2451 0.0299 0.280 0.821 0.498 110 86 73 0 0
0.1137 0.2296 -0.0712 0.073 0.946 0.316 84 65 60 0 0
0.1135 0.2323 -0.0739 0.484 0.443 0.754 82 62 54 0 0
0.1136 0.2298 -0.0770 0.659 0.606 0.445 81 60 48 0 0
0.1130 0.2387 -0.0823 0.443 0.888 -0.125 76 51 37 0 0
0.1130 0.2382 -0.0852 0.634 0.772 -0.047 77 50 34 0 0
0.1129 0.2383 -0.0881 0.300 0.834 -0.464 69 41 24 0 0
0.1094 0.2664 -0.2024 0.491 0.654 0.576 68 50 38 0 0
0.1099 0.2390 -0.2416 0.110 0.959 0.261 64 42 32 0 0
0.1098 0.2386 -0.2446 -0.136 0.898 0.418 65 42 32 0 0
0.1096 0.2421 -0.2471 -0.022 0.949 0.316 67 43 33 0 0
0.1076 0.2312 -0.3735 0.362 0.915 -0.176 70 49 40 0 0
0.1071 0.2384 -0.3812 0.224 0.882 -0.414 63 39 29 0 0
0.1071 0.2368 -0.3847 -0.423 0.752 0.505 65 41 32 0 0
0.1070 0.2383 -0.3874 -0.353 0.820 0.450 67 47 38 0 0
0.1037 0.2970 -0.4136 -0.384 0.710 0.591 72 35 11 0 0
0.1081 0.1745 -0.4813 0.588 0.800 0.121 110 101 93 0 0
0.1081 0.1737 -0.4847 0.158 0.985 0.070 111 103 95 0 0
0.1020 0.2104 -0.7017 0.745 0.471 0.472 69 42 26 0 0
0.1020 0.2095 -0.7053 0.709 0.632 0.311 70 42 26 0 0
0.1019 0.2113 -0.7079 0.716 0.696 -0.059 70 43 26 0 0
0.1017 0.2126 -0.7107 0.672 0.739 -0.045 70 43 27 0 0
0.1016 0.2151 -0.7131 0.505 0.847 0.166 68 41 25 0 0
0.1010 0.2175 -0.7386 0.484 0.809 -0.333 64 37 20 0 0
0.0943 0.3085 -0.8565 0.182 0.983 -0.013 93 56 30 0 0
0.0943 0.3085 -0.8597 0.182 0.983 -0.013 96 63 41 0 0
0.0924 0.3064 -0.9593 -0.001 0.997 0.075 82 63 53 0 0
0.0923 0.3066 -0.9624 -0.001 0.997 0.075 86 66 58 0 0
0.0892 0.3543 -1.0054 -0.096 0.995 0.042 74 34 13 0 0
0.0874 0.3750 -1.0488 0.122 0.979 0.166 104 71 40 0 0
0.0870 0.3756 -1.0648 0.033 0.980 -0.198 101 69 42 0 0
0.0862 0.3831 -1.0897 0.256 0.962 0.099 49 21 10 0 0
0.0850 0.3803 -1.1542 0.061 0.983 0.175 135 130 121 0 0
0.0848 0.3848 -1.1546 0.022 0.979 0.202 161 158 153 0 0
0.1172 0.2187 -0.0689 -0.376 0.386 0.843 94 81 77 0 0
0.1169 0.2237 -0.0715 0.562 0.617 -0.551 85 66 61 0 0
0.1123 0.2664 -0.2024 0.322 0.788 0.525 68 50 38 0 0
0.1120 0.2702 -0.2049 0.145 0.653 0.743 68 48 37 0 0
0.1125 0.2425 -0.2471 0.212 0.977 0.022 70 46 35 0 0
0.1123 0.2383 -0.2718 0.524 0.846 -0.100 78 52 35 0 0
0.1119 0.2415 -0.2833 0.513 0.846 -0.143 75 47 32 0 0
0.1101 0.2367 -0.3848 -0.700 0.714 0.006 65 43 33 0 0
0.1065 0.1910 -0.6824 0.771 0.417 0.481 72 50 36 0 0
0.1056 0.2021 -0.6982 0.306 0.950 0.061 72 44 31 0 0
0.1056 0.2020 -0.7016 -0.001 0.926 0.378 71 43 30 0 0
0.1054 0.2047 -0.7039 0.103 0.784 0.613 70 42 28 0 0
0.0997 0.2762 -0.8160 0.795 0.586 0.156 55 27 11 0 0
0.0974 0.3083 -0.8567 0.240 0.961 -0.138 98 62 37 0 0
0.0955 0.3113 -0.9468 0.250 0.956 0.153 68 42 31 0 0
0.0955 0.3053 -0.9599 0.175 0.967 -0.184 82 63 54 0 0
0.0955 0.3031 -0.9644 0.073 0.993 -0.091 88 68 61 0 0
0.0955 0.3028 -0.9679 0.073 0.993 -0.091 89 70 61 0 0
0.0925 0.3515 -0.9972 0.454 0.761 0.464 81 48 32 0 0
0.1200 0.2504 0.0042 0.686 0.719 0.116 132 118 108 0 0
0.1198 0.2505 -0.0043 0.719 0.674 -0.170 118 105 96 0 0
0.1198 0.2500 -0.0072 0.694 0.686 -0.221 117 105 97 0 0
0.1153 0.2744 -0.1753 0.719 0.575 0.391 67 49 37 0 0
0.1152 0.2745 -0.1782 0.725 0.651 0.224 67 49 37 0 0
0.1152 0.2321 -0.2880 0.763 0.607 -0.224 76 49 32 0 0
0.1148 0.2307 -0.3156 0.714 0.699 -0.044 80 49 31 0 0
0.1145 0.2340 -0.3211 0.365 0.925 -0.110 88 58 38 0 0
0.1136 0.2286 -0.3835 0.220 0.934 0.280 66 45 34 0 0
0.1132 0.2354 -0.3851 -0.097 0.932 0.350 68 46 36 0 0
0.1129 0.2394 -0.3873 -0.260 0.721 0.642 57 37 30 0 0
0.1102 0.2886 -0.4037 0.199 0.755 0.625 96 72 57 0 0
0.1088 0.2008 -0.7021 0.384 0.861 0.335 73 45 31 0 0
0.1086 0.2030 -0.7046 0.258 0.820 0.511 71 44 29 0 0
0.1085 0.2050 -0.7072 -0.314 0.791 0.525 70 43 28 0 0
0.1084 0.2049 -0.7105 0.106 0.886 0.452 70 43 29 0 0
0.1081 0.2102 -0.7118 -0.094 0.838 0.537 71 44 28 0 0
0.0971 0.3306 -0.9728 0.010 0.903 0.429 89 71 62 0 0
0.0969 0.3320 -0.9753 0.115 0.897 0.426 90 72 62 0 0
0.0940 0.3696 -1.0326 0.017 0.969 0.246 89 52 23 0 0
0.0923 0.3736 -1.1057 0.293 0.899 0.326 72 36 14 0 0
0.0916 0.3753 -1.1377 0.294 0.935 0.200 96 65 37 0 0
0.1228 0.2476 -0.0045 0.601 0.784 -0.154 179 180 179 0 0
0.1240 0.1999 -0.0700 0.260 0.947 -0.189 99 87 81 0 0
0.1174 0.2997 -0.1498 -0.107 0.899 -0.424 70 47 35 0 0
0.1174 0.2991 -0.1527 -0.333 0.937 -0.105 70 48 37 0 0
0.1181 0.2693 -0.1935 -0.619 0.672 -0.407 70 52 40 0 0
0.1188 0.2383 -0.2419 0.181 0.980 0.085 72 52 41 0 0
0.1185 0.2423 -0.2443 0.506 0.861 -0.051 73 52 40 0 0
0.1185 0.2420 -0.2474 0.549 0.823 -0.146 76 54 41 0 0
0.1184 0.2432 -0.2502 0.589 0.668 -0.454 77 55 41 0 0
0.1182 0.2413 -0.2655 0.918 0.394 0.045 77 54 38 0 0
0.1183 0.2300 -0.2884 0.721 0.685 -0.104 76 51 36 0 0
0.1161 0.2367 -0.3849 0.699 0.671 0.246 65 44 33 0 0
0.1109 0.2163 -0.7129 0.887 0.445 0.122 70 43 29 0 0
0.1116 0.2007 -0.7222 0.593 0.790 0.159 69 42 28 0 0
0.1107 0.2007 -0.7689 0.612 0.722 -0.322 66 38 24 0 0
0.1107 0.1986 -0.7731 0.527 0.718 -0.454 66 38 25 0 0
0.1033 0.2997 -0.8904 0.105 0.988 -0.116 84 56 35 0 0
0.1032 0.2917 -0.9175 0.031 0.999 -0.020 103 73 47 0 0
0.1000 0.3316 -0.9756 0.416 0.908 0.045 89 71 59 0 0
0.0998 0.3334 -0.9813 0.263 0.890 0.372 88 70 58 0 0
0.0964 0.3746 -1.0493 -0.080 0.974 0.210 106 72 42 0 0
0.0950 0.3715 -1.1304 0.181 0.981 0.073 97 64 36 0 0
0.0947 0.3747 -1.1383 0.287 0.958 0.008 96 65 37 0 0
0.1266 0.2070 -0.0727 0.902 0.417 -0.114 90 71 64 0 0
0.1203 0.2993 -0.1470 -0.262 0.687 -0.677 68 45 31 0 0
0.1203 0.2990 -0.1499 -0.380 0.918 0.109 71 48 36 0 0
0.1200 0.3037 -0.1523 -0.270 0.752 0.601 71 49 38 0 0
0.1211 0.2678 -0.1937 -0.181 0.922 -0.343 69 51 39 0 0
0.1211 0.2674 -0.1967 -0.263 0.798 0.542 68 50 38 0 0
0.1217 0.2387 -0.2449 0.274 0.881 0.386 76 56 44 0 0
0.1217 0.2320 -0.2640 0.894 0.419 -0.157 75 52 38 0 0
0.1216 0.2327 -0.2669 0.926 0.374 -0.059 79 56 42 0 0
0.1216 0.2320 -0.2700 0.921 0.388 -0.030 81 58 44 0 0
0.1220 0.2161 -0.2938 -0.305 0.918 0.254 80 57 43 0 0
0.1185 0.2466 -0.3921 0.350 0.310 0.884 60 40 34 0 0
0.1157 0.2919 -0.4152 -0.024 0.886 0.463 79 38 16 0 0
0.1158 0.2890 -0.4189 0.288 0.937 0.197 78 36 14 0 0
0.1066 0.2970 -0.8853 0.260 0.958 0.120 89 62 43 0 0
0.1064 0.2920 -0.9075 0.165 0.975 -0.147 81 48 28 0 0
0.1062 0.2842 -0.9380 -0.015 0.994 -0.105 55 30 17 0 0
0.1061 0.2861 -0.9404 -0.063 0.942 0.329 50 25 14 0 0
0.1029 0.3324 -0.9786 -0.330 0.943 -0.038 85 67 55 0 0
0.0999 0.3727 -1.0244 -0.215 0.948 0.234 81 44 18 0 0
0.0993 0.3763 -1.0484 -0.138 0.990 0.029 106 73 42 0 0
0.0985 0.3715 -1.1039 0.214 0.887 0.408 70 32 11 0 0
0.0984 0.3724 -1.1067 0.218 0.936 0.278 72 35 12 0 0
0.1297 0.1997 -0.0850 0.830 0.558 0.011 81 58 45 0 0
0.1251 0.2452 -0.2024 0.854 0.465 0.234 68 50 39 0 0
0.1251 0.2317 -0.2400 0.156 0.987 -0.045 77 56 45 0 0
0.1251 0.2319 -0.2430 0.327 0.939 0.109 78 57 46 0 0
0.1248 0.2357 -0.2454 0.653 0.745 0.137 79 58 47 0 0
0.1248 0.2189 -0.2935 -0.128 0.990 -0.057 88 67 53 0 0
0.1248 0.2184 -0.2966 -0.508 0.847 0.156 88 66 52 0 0
0.1096 0.2898 -0.9087 0.404 0.915 -0.015 85 54 33 0 0
0.1061 0.3328 -0.9719 -0.440 0.883 0.161 86 66 55 0 0
0.1059 0.3336 -0.9780 -0.414 0.897 -0.156 85 67 55 0 0
0.1024 0.3712 -1.0548 -0.290 0.927 0.236 109 76 45 0 0
0.1025 0.3638 -1.0758 -0.201 0.960 -0.195 87 59 38 0 0
0.1021 0.3623 -1.0999 -0.146 0.937 0.318 51 22 11 0 0
0.1019 0.3645 -1.1051 0.159 0.985 -0.070 69 32 11 0 0
0.1014 0.3724 -1.1101 0.356 0.886 0.297 83 48 23 0 0
0.1014 0.3706 -1.1146 0.216 0.964 0.154 84 49 27 0 0
0.1012 0.3700 -1.1282 -0.004 0.976 0.219 97 63 38 0 0
0.1011 0.3699 -1.1316 0.002 0.996 0.085 97 65 40 0 0
0.1328 0.1955 -0.0943 0.552 0.337 0.762 87 65 52 0 0
0.1261 0.2982 -0.1444 0.330 0.845 -0.421 70 44 31 0 0
0.1260 0.2979 -0.1530 -0.204 0.944 -0.257 71 51 42 0 0
0.1260 0.2971 -0.1560 -0.204 0.944 -0.257 71 52 44 0 0
0.1275 0.2645 -0.1738 0.714 0.563 0.417 72 55 47 0 0
0.1273 0.2677 -0.1764 0.722 0.461 0.517 71 54 46 0 0
0.1270 0.2715 -0.1789 0.755 0.481 0.446 71 55 44 0 0
0.1278 0.2433 -0.2206 0.416 0.887 -0.200 74 55 44 0 0
0.1279 0.2411 -0.2238 0.144 0.850 -0.507 76 57 47 0 0
0.1281 0.2357 -0.2305 0.188 0.901 -0.391 75 56 45 0 0
0.1283 0.2289 -0.2405 0.638 0.705 -0.309 77 58 47 0 0
0.1280 0.2323 -0.2430 0.772 0.599 -0.213 78 59 48 0 0
0.1272 0.2236 -0.3172 -0.004 0.956 0.293 95 66 43 0 0
0.1214 0.2921 -0.4213 -0.175 0.906 0.385 84 48 22 0 0
0.1216 0.2850 -0.4352 0.651 0.744 -0.150 91 64 41 0 0
0.1205 0.2027 -0.7450 -0.573 0.554 0.604 71 45 33 0 0
0.1204 0.2047 -0.7475 -0.661 0.505 0.555 70 45 33 0 0
0.1202 0.2071 -0.7499 0.120 0.551 0.826 70 44 31 0 0
0.1199 0.2124 -0.7512 0.311 0.384 0.869 70 43 30 0 0
0.1091 0.3321 -0.9724 0.010 0.974 0.227 87 66 56 0 0
0.1057 0.3612 -1.0742 0.190 0.979 -0.070 93 63 38 0 0
0.1054 0.3604 -1.0879 -0.244 0.962 0.122 38 20 13 0 0
0.1034 0.3761 -1.1510 0.367 0.905 0.214 109 100 86 0 0
0.1033 0.3766 -1.1539 0.355 0.853 0.383 141 135 128 0 0
0.1364 0.1855 -0.0920 0.781 0.388 0.490 93 75 64 0 0
0.1362 0.1880 -0.0948 0.668 0.407 0.624 97 78 67 0 0
0.1295 0.2869 -0.1542 -0.417 0.846 -0.332 73 54 46 0 0
0.1295 0.2854 -0.1572 -0.540 0.841 -0.010 72 54 47 0 0
0.1295 0.2843 -0.1602 -0.442 0.818 0.368 71 54 46 0 0
0.1294 0.2855 -0.1630 -0.442 0.818 0.368 71 54 46 0 0
0.1291 0.2897 -0.1654 -0.861 0.490 0.136 72 55 47 0 0
0.1299 0.2745 -0.1699 -0.143 0.957 0.254 73 56 48 0 0
0.1304 0.2649 -0.1739 -0.719 0.538 0.440 73 56 48 0 0
0.1302 0.2673 -0.1765 -0.587 0.659 0.471 72 55 47 0 0
0.1300 0.2697 -0.1792 -0.684 0.709 0.174 72 55 46 0 0
0.1314 0.2233 -0.2474 0.871 0.422 -0.251 80 63 53 0 0
0.1312 0.2261 -0.2500 0.886 0.370 -0.280 80 63 52 0 0
0.1310 0.2124 -0.3070 0.222 0.579 0.784 79 54 42 0 0
0.1274 0.2487 -0.3919 0.166 0.204 0.965 73 53 44 0 0
0.1246 0.2887 -0.4192 0.451 0.889 0.071 79 42 16 0 0
0.1245 0.2900 -0.4219 0.445 0.886 0.127 79 43 17 0 0
0.1245 0.2849 -0.4353 0.643 0.766 0.004 89 63 42 0 0
0.1236 0.2036 -0.7481 0.120 0.551 0.826 69 46 35 0 0
0.1234 0.2068 -0.7502 0.120 0.551 0.826 70 47 34 0 0
0.1231 0.2111 -0.7518 0.311 0.384 0.869 69 46 32 0 0
0.1157 0.2854 -0.9244 0.320 0.934 -0.159 91 64 43 0 0
0.1122 0.3313 -0.9729 0.025 0.987 0.158 88 66 58 0 0
0.1094 0.3669 -1.0184 0.075 0.955 0.288 73 35 12 0 0
0.1092 0.3688 -1.0205 -0.064 0.918 0.391 75 38 12 0 0
0.1085 0.3605 -1.0879 0.070 0.990 -0.120 35 16 9 0 0
0.1083 0.3621 -1.0903 0.197 0.960 0.200 37 16 9 0 0
0.1083 0.3601 -1.0981 -0.093 0.974 0.206 53 25 14 0 0
0.1077 0.3678 -1.1099 0.206 0.973 0.101 79 42 18 0 0
0.1076 0.3682 -1.1130 0.206 0.973 0.101 85 51 25 0 0
0.1065 0.3740 -1.1524 0.325 0.872 0.365 116 107 95 0 0
0.1328 0.2790 -0.1551 -0.411 0.869 -0.278 75 57 49 0 0
0.1327 0.2803 -0.1578 -0.560 0.752 0.348 74 57 49 0 0
0.1328 0.2745 -0.1700 -0.466 0.826 0.316 74 57 49 0 0
0.1327 0.2745 -0.1729 -0.293 0.839 0.458 74 57 49 0 0
0.1330 0.2690 -0.1764 -0.517 0.807 0.286 74 57 49 0 0
0.1332 0.2621 -0.1859 0.087 0.621 -0.779 74 55 48 0 0
0.1343 0.2363 -0.2097 0.559 0.765 0.319 72 54 43 0 0
0.1341 0.2389 -0.2124 0.478 0.853 0.210 75 57 46 0 0
0.1343 0.2104 -0.2982 0.886 0.157 0.437 96 80 73 0 0
0.1341 0.2045 -0.3301 0.753 0.418 -0.508 104 86 73 0 0
0.1275 0.2884 -0.4224 0.312 0.936 0.162 81 43 18 0 0
0.1278 0.2796 -0.4367 0.670 0.694 -0.262 88 63 44 0 0
0.1273 0.1931 -0.7490 0.188 0.685 0.704 72 50 39 0 0
0.1271 0.1963 -0.7511 -0.376 0.542 0.752 71 49 38 0 0
0.1268 0.2005 -0.7528 -0.585 0.413 0.698 72 49 36 0 0
0.1267 0.2029 -0.7551 -0.392 0.654 0.647 72 50 36 0 0
0.1187 0.2829 -0.9357 -0.020 0.990 0.143 56 30 19 0 0
0.1115 0.3604 -1.0881 -0.080 0.992 -0.092 35 16 9 0 0
0.1114 0.3621 -1.0904 -0.224 0.974 0.018 38 17 10 0 0
0.1096 0.3735 -1.1528 0.217 0.918 0.332 123 116 104 0 0
0.1092 0.3797 -1.1554 0.286 0.882 0.375 169 165 161 0 0
0.1356 0.2805 -0.1550 -0.269 0.929 -0.253 75 59 51 0 0
0.1357 0.2731 -0.1760 0.483 0.589 -0.648 77 60 52 0 0
0.1364 0.2583 -0.1865 0.605 0.517 -0.605 76 57 50 0 0
0.1373 0.2394 -0.2005 0.540 0.511 -0.669 76 59 49 0 0
0.1376 0.2323 -0.2073 0.696 0.649 -0.307 76 59 51 0 0
0.1376 0.2318 -0.2104 0.809 0.579 0.103 75 58 50 0 0
0.1380 0.2200 -0.2269 0.880 0.380 -0.285 75 61 54 0 0
0.1379 0.2211 -0.2298 0.882 0.360 -0.306 77 62 55 0 0
0.1380 0.2168 -0.2364 0.904 0.346 -0.252 82 68 61 0 0
0.1383 0.2116 -0.2401 0.889 0.359 -0.284 84 71 62 0 0
0.1380 0.1972 -0.3067 0.870 0.259 0.420 90 73 64 0 0
0.1379 0.1757 -0.3828 -0.290 0.398 0.870 97 87 81 0 0
0.1374 0.1838 -0.3842 -0.307 0.244 0.920 90 79 71 0 0
0.1373 0.1852 -0.3871 -0.555 0.512 0.656 80 67 60 0 0
0.1343 0.2309 -0.3991 0.365 0.823 0.435 78 58 48 0 0
0.1309 0.2759 -0.4377 0.605 0.672 -0.426 87 64 46 0 0
0.1296 0.2076 -0.7500 0.712 0.370 0.597 74 52 39 0 0
0.1297 0.2051 -0.7543 0.068 0.859 0.507 74 52 38 0 0
0.1296 0.2050 -0.7577 0.029 0.965 0.262 75 52 39 0 0
0.1296 0.2045 -0.7613 -0.439 0.864 -0.247 76 51 39 0 0
0.1281 0.2286 -0.7648 0.507 0.831 -0.228 71 45 34 0 0
0.1232 0.2767 -0.8791 -0.252 0.895 -0.367 91 64 43 0 0
0.1219 0.2827 -0.9359 -0.214 0.931 0.296 56 30 20 0 0
0.1146 0.3655 -1.0686 0.262 0.952 -0.159 99 65 39 0 0
0.1145 0.3606 -1.0880 -0.105 0.987 0.119 36 16 10 0 0
0.1143 0.3636 -1.0895 0.193 0.843 0.502 38 17 11 0 0
0.1125 0.3748 -1.1555 0.257 0.875 0.410 156 152 147 0 0
0.1124 0.3723 -1.1671 0.115 0.957 0.265 184 183 181 0 0
0.1395 0.2557 -0.1868 0.439 0.564 -0.700 79 62 54 0 0
0.1397 0.2512 -0.1903 0.434 0.553 -0.711 79 62 54 0 0
0.1407 0.2307 -0.2076 0.801 0.574 -0.169 76 60 53 0 0
0.1409 0.2265 -0.2111 0.833 0.552 -0.039 75 60 53 0 0
0.1408 0.2234 -0.2265 0.891 0.299 -0.340 79 67 60 0 0
0.1407 0.2240 -0.2295 0.910 0.273 -0.313 84 72 64 0 0
0.1408 0.1794 -0.3821 -0.453 0.336 0.826 90 82 79 0 0
0.1376 0.2268 -0.4001 -0.252 0.913 0.321 81 62 53 0 0
0.1341 0.2730 -0.4385 0.578 0.621 -0.529 90 69 52 0 0
0.1327 0.2059 -0.7608 0.338 0.888 0.311 76 52 40 0 0
0.1329 0.2011 -0.7661 -0.162 0.965 -0.205 74 51 39 0 0
0.1315 0.2223 -0.7741 -0.594 0.646 -0.480 69 44 32 0 0
0.1181 0.3645 -1.0430 -0.041 0.987 0.157 97 63 35 0 0
0.1178 0.3597 -1.0755 -0.112 0.973 -0.204 92 61 37 0 0
0.1176 0.3598 -1.0886 0.019 0.930 0.367 43 21 13 0 0
0.1165 0.3602 -1.1517 -0.065 0.980 -0.187 68 50 34 0 0
0.1487 0.1820 -0.0896 -0.702 0.364 0.612 178 178 176 0 0
0.1485 0.1850 -0.0924 -0.933 0.317 0.173 117 113 109 0 0
0.1428 0.2545 -0.1694 0.872 0.426 -0.241 75 62 53 0 0
0.1425 0.2575 -0.1750 0.898 0.414 -0.148 75 62 53 0 0
0.1437 0.2306 -0.2017 0.678 0.618 -0.398 77 64 55 0 0
0.1439 0.2232 -0.2176 0.851 0.325 -0.413 82 69 63 0 0
0.1441 0.2196 -0.2211 0.873 0.301 -0.384 81 69 63 0 0
0.1452 0.1979 -0.2361 0.921 0.281 -0.268 97 88 81 0 0
0.1432 0.1896 -0.3864 -0.399 0.599 0.694 77 63 60 0 0
0.1404 0.2306 -0.3993 -0.558 0.547 0.624 81 63 54 0 0
0.1376 0.2722 -0.4113 0.627 0.712 0.317 94 66 46 0 0
0.1381 0.2536 -0.4465 0.263 0.370 0.891 107 95 89 0 0
0.1377 0.2606 -0.4478 0.245 0.317 0.916 161 159 158 0 0
0.1360 0.2031 -0.7620 0.710 0.449 0.542 78 56 44 0 0
0.1359 0.2049 -0.7646 0.492 0.822 0.288 77 55 42 0 0
0.1361 0.2005 -0.7698 -0.291 0.922 -0.256 75 53 40 0 0
0.1293 0.2811 -0.8706 -0.643 0.702 0.306 99 72 51 0 0
0.1293 0.2788 -0.8750 -0.436 0.899 0.031 96 69 48 0 0
0.1220 0.3571 -1.0146 0.255 0.941 0.224 66 28 7 0 0
0.1198 0.3640 -1.1194 0.355 0.920 0.166 96 61 31 0 0
0.1197 0.3654 -1.1217 0.305 0.927 0.218 101 66 36 0 0
0.1500 0.2058 -0.0971 -0.208 0.190 0.959 118 99 92 0 0
0.1491 0.2203 -0.0990 -0.028 0.315 0.949 104 87 81 0 0
0.1452 0.2643 -0.1627 0.790 0.585 -0.185 77 63 55 0 0
0.1464 0.2380 -0.1920 0.732 0.497 -0.466 81 66 58 0 0
0.1473 0.2161 -0.2216 0.904 0.229 -0.361 92 81 75 0 0
0.1462 0.1913 -0.3861 -0.546 0.727 0.417 83 71 70 0 0
0.1412 0.2630 -0.4044 -0.048 0.794 0.606 77 50 38 0 0
0.1412 0.2533 -0.4467 0.316 0.481 0.818 121 113 109 0 0
0.1408 0.2593 -0.4482 0.245 0.317 0.916 177 177 177 0 0
0.1392 0.1996 -0.7736 0.576 0.775 -0.259 78 55 42 0 0
0.1392 0.1985 -0.7774 0.078 0.884 -0.461 74 54 40 0 0
0.1392 0.1976 -0.7812 0.420 0.905 -0.072 71 51 37 0 0
0.1375 0.2251 -0.7798 -0.459 0.782 0.421 69 46 33 0 0
0.1325 0.2699 -0.9060 0.419 0.905 -0.080 79 51 30 0 0
0.1325 0.2692 -0.9096 0.339 0.935 -0.102 85 55 29 0 0
0.1324 0.2693 -0.9129 0.419 0.905 -0.080 99 68 44 0 0
0.1321 0.2715 -0.9219 0.113 0.980 0.161 102 74 53 0 0
0.1320 0.2718 -0.9284 0.248 0.939 0.236 88 62 45 0 0
0.1315 0.2749 -0.9436 0.507 0.749 0.428 51 28 19 0 0
0.1283 0.3194 -0.9667 0.180 0.917 0.355 84 62 52 0 0
0.1252 0.3554 -1.0124 -0.611 0.750 0.252 67 30 10 0 0
0.1251 0.3565 -1.0150 -0.192 0.981 -0.022 69 31 10 0 0
0.1245 0.3594 -1.0363 0.194 0.977 0.088 87 53 30 0 0
0.1227 0.3629 -1.1334 0.278 0.960 0.000 102 69 39 0 0
0.1225 0.3596 -1.1557 0.104 0.987 0.126 91 78 63 0 0
0.1522 0.2176 -0.0993 0.316 0.328 0.890 109 91 85 0 0
0.1520 0.2205 -0.1021 0.575 0.426 0.698 114 95 87 0 0
0.1508 0.2368 -0.1068 0.421 0.301 0.856 107 83 71 0 0
0.1489 0.2634 -0.1164 0.550 0.641 0.535 107 74 53 0 0
0.1476 0.2778 -0.1383 0.562 0.729 -0.391 78 44 26 0 0
0.1482 0.2633 -0.1599 0.767 0.503 -0.398 79 64 57 0 0
0.1496 0.2371 -0.1803 -0.017 0.871 -0.491 81 66 58 0 0
0.1501 0.2223 -0.2089 0.886 0.254 -0.388 92 82 76 0 0
0.1508 0.2099 -0.2195 0.913 0.190 -0.360 103 98 92 0 0
0.1495 0.1873 -0.3902 -0.211 0.721 0.660 85 73 71 0 0
0.1485 0.2013 -0.3935 0.718 0.236 0.655 85 69 63 0 0
0.1442 0.2630 -0.4045 0.034 0.899 0.437 80 54 41 0 0
0.1441 0.2644 -0.4072 0.209 0.794 0.571 92 65 50 0 0
0.1439 0.2662 -0.4099 0.277 0.671 0.688 109 82 64 0 0
0.1438 0.2679 -0.4125 0.292 0.708 0.643 95 66 44 0 0
0.1442 0.2527 -0.4469 0.245 0.317 0.916 147 141 138 0 0
0.1438 0.2581 -0.4486 0.245 0.317 0.916 183 182 184 0 0
0.1427 0.1950 -0.7756 0.904 0.250 0.346 81 60 49 0 0
0.1428 0.1920 -0.7836 0.439 0.761 0.478 72 54 41 0 0
0.1417 0.2051 -0.7950 0.124 0.372 0.920 71 48 37 0 0
0.1365 0.2712 -0.8457 0.525 0.799 0.293 82 49 30 0 0
0.1357 0.2683 -0.9068 0.339 0.935 -0.102 81 53 31 0 0
0.1356 0.2680 -0.9103 0.339 0.935 -0.102 92 63 38 0 0
0.1355 0.2688 -0.9133 0.263 0.962 0.072 105 76 52 0 0
0.1355 0.2686 -0.9167 0.341 0.935 -0.098 105 77 54 0 0
0.1354 0.2702 -0.9193 0.289 0.942 0.168 101 73 52 0 0
0.1353 0.2696 -0.9229 0.204 0.960 0.192 96 68 47 0 0
0.1350 0.2700 -0.9428 0.379 0.909 -0.171 52 30 19 0 0
0.1281 0.3594 -1.0004 -0.206 0.812 0.546 64 27 9 0 0
0.1278 0.3625 -1.0052 0.179 0.963 0.201 68 31 11 0 0
0.1279 0.3609 -1.0093 -0.414 0.910 0.001 69 33 11 0 0
0.1279 0.3581 -1.0175 0.018 0.994 -0.104 71 33 10 0 0
0.1270 0.3564 -1.0811 0.370 0.911 -0.182 76 46 26 0 0
0.1257 0.3620 -1.1374 0.256 0.967 0.009 101 67 39 0 0
0.1257 0.3614 -1.1412 0.200 0.978 -0.065 98 66 40 0 0
0.1257 0.3609 -1.1449 0.110 0.983 -0.145 89 62 39 0 0
0.1256 0.3602 -1.1487 0.116 0.979 -0.168 76 53 36 0 0
0.1556 0.2115 -0.0998 0.215 0.456 0.864 114 94 88 0 0
0.1553 0.2151 -0.1025 0.259 0.488 0.834 115 95 87 0 0
0.1512 0.2629 -0.1571 0.653 0.507 -0.562 79 64 58 0 0
0.1537 0.2149 -0.2009 0.874 0.312 -0.372 90 81 75 0 0
0.1539 0.2106 -0.2074 0.891 0.256 -0.375 97 90 84 0 0
0.1523 0.1914 -0.3894 0.367 0.833 0.415 95 85 83 0 0
0.1473 0.2508 -0.4475 0.373 0.392 0.841 170 166 165 0 0
0.1457 0.1948 -0.7859 0.180 0.616 0.767 73 56 46 0 0
0.1456 0.1950 -0.7891 -0.562 0.618 0.550 72 52 42 0 0
0.1456 0.1953 -0.7924 -0.572 0.350 0.742 70 49 38 0 0
0.1397 0.2688 -0.8502 0.373 0.605 0.704 79 44 25 0 0
0.1382 0.2686 -0.9436 0.391 0.912 -0.121 58 36 23 0 0
0.1379 0.2718 -0.9453 0.357 0.905 0.232 62 39 27 0 0
0.1380 0.2706 -0.9493 0.017 0.768 0.641 64 43 30 0 0
0.1308 0.3624 -1.0086 -0.492 0.871 0.013 70 34 10 0 0
0.1303 0.3584 -1.0569 0.128 0.992 -0.000 106 73 42 0 0
0.1302 0.3533 -1.0831 0.242 0.970 -0.020 70 41 22 0 0
0.1288 0.3624 -1.1340 -0.261 0.965 0.013 102 69 41 0 0
0.1288 0.3612 -1.1381 0.256 0.967 0.009 99 67 39 0 0
0.1287 0.3613 -1.1414 0.256 0.967 0.009 95 64 40 0 0
0.1287 0.3609 -1.1450 0.259 0.966 -0.025 84 58 36 0 0
0.1587 0.2087 -0.1001 0.339 0.388 0.857 118 99 91 0 0
0.1581 0.2175 -0.1024 0.511 0.375 0.774 115 93 85 0 0
0.1542 0.2627 -0.1514 0.746 0.571 -0.343 80 63 53 0 0
0.1542 0.2619 -0.1544 0.694 0.494 -0.524 81 66 58 0 0
0.1544 0.2581 -0.1577 0.694 0.494 -0.524 81 68 61 0 0
0.1548 0.2522 -0.1612 0.651 0.478 -0.589 81 68 60 0 0
0.1551 0.2468 -0.1647 0.573 0.659 -0.486 78 65 57 0 0
0.1554 0.2413 -0.1682 -0.183 0.908 -0.377 80 67 59 0 0
0.1555 0.2400 -0.1713 -0.183 0.908 -0.377 84 71 64 0 0
0.1558 0.2339 -0.1749 0.457 0.781 -0.425 82 71 65 0 0
0.1571 0.2094 -0.1986 0.883 0.285 -0.373 98 90 86 0 0
0.1575 0.2034 -0.2023 0.883 0.285 -0.373 102 95 91 0 0
0.1505 0.2487 -0.4481 0.508 0.454 0.732 181 180 178 0 0
0.1485 0.2003 -0.7904 0.384 0.476 0.791 73 54 45 0 0
0.1482 0.2031 -0.7926 0.194 0.312 0.930 71 52 41 0 0
0.1474 0.2144 -0.7946 0.146 0.275 0.950 73 51 40 0 0
0.1478 0.1990 -0.8350 -0.826 0.527 0.199 72 50 39 0 0
0.1413 0.2689 -0.9402 0.158 0.971 -0.179 67 42 30 0 0
0.1414 0.2672 -0.9444 0.364 0.927 -0.086 66 42 30 0 0
0.1412 0.2702 -0.9463 0.213 0.925 0.315 67 43 31 0 0
0.1340 0.3600 -1.0068 0.247 0.946 -0.209 70 33 10 0 0
0.1340 0.3592 -1.0105 0.199 0.947 -0.253 71 34 10 0 0
0.1339 0.3591 -1.0139 0.091 0.992 -0.092 72 35 9 0 0
0.1336 0.3568 -1.0447 0.098 0.994 0.038 99 65 38 0 0
0.1335 0.3570 -1.0479 0.098 0.994 0.038 103 69 42 0 0
0.1334 0.3525 -1.0770 -0.000 0.857 0.516 82 52 27 0 0
0.1333 0.3536 -1.0797 0.011 0.998 -0.062 72 43 25 0 0
0.1333 0.3524 -1.0837 -0.016 0.949 0.314 63 34 18 0 0
0.1330 0.3562 -1.0848 -0.207 0.934 0.290 53 26 12 0 0
0.1318 0.3632 -1.1335 -0.127 0.988 0.088 100 70 41 0 0
0.1318 0.3624 -1.1374 0.060 0.987 -0.150 98 68 40 0 0
0.1316 0.3634 -1.1401 0.046 0.981 -0.190 96 67 42 0 0
0.1319 0.3540 -1.1664 0.440 0.847 0.300 166 164 160 0 0
0.1612 0.2152 -0.1027 0.584 0.382 0.716 115 91 83 0 0
0.1603 0.2272 -0.1077 0.237 0.323 0.916 111 87 74 0 0
0.1572 0.2619 -0.1516 0.502 0.559 -0.660 81 67 57 0 0
0.1575 0.2561 -0.1551 0.492 0.532 -0.689 85 70 62 0 0
0.1577 0.2522 -0.1584 0.183 0.651 -0.736 84 71 63 0 0
0.1580 0.2484 -0.1617 0.183 0.651 -0.736 79 66 57 0 0
0.1581 0.2453 -0.1649 0.250 0.691 -0.679 80 67 59 0 0
0.1583 0.2419 -0.1682 -0.151 0.895 -0.420 83 71 64 0 0
0.1603 0.2082 -0.1958 0.888 0.230 -0.398 103 98 95 0 0
0.1554 0.2324 -0.3994 0.513 0.162 0.843 84 68 59 0 0
0.1548 0.2408 -0.4006 0.599 0.139 0.788 80 60 50 0 0
0.1508 0.2080 -0.8109 0.870 0.084 0.486 72 50 39 0 0
0.1507 0.2052 -0.8289 0.426 0.174 0.888 71 49 38 0 0
0.1456 0.2704 -0.8596 -0.009 0.937 -0.350 97 69 45 0 0
0.1456 0.2690 -0.8636 0.077 0.943 -0.324 98 72 50 0 0
0.1458 0.2654 -0.8686 -0.051 0.872 -0.487 101 74 54 0 0
0.1447 0.2662 -0.9349 0.313 0.897 0.312 66 41 28 0 0
0.1444 0.2706 -0.9394 0.133 0.987 -0.094 70 45 33 0 0
0.1443 0.2701 -0.9431 0.111 0.992 -0.057 72 48 36 0 0
0.1441 0.2723 -0.9453 0.056 0.944 0.324 72 49 37 0 0
0.1373 0.3558 -1.0027 0.580 0.785 0.217 68 31 10 0 0
0.1366 0.3561 -1.0518 0.231 0.967 0.108 109 75 47 0 0
0.1365 0.3567 -1.0548 0.252 0.968 -0.001 108 74 46 0 0
0.1364 0.3555 -1.0654 0.351 0.932 -0.090 96 64 37 0 0
0.1364 0.3524 -1.0772 0.189 0.882 0.431 81 50 25 0 0
0.1364 0.3528 -1.0803 0.229 0.967 0.109 75 44 26 0 0
0.1363 0.3532 -1.0834 0.229 0.967 0.109 62 34 19 0 0
0.1362 0.3537 -1.0864 0.157 0.984 0.089 56 29 13 0 0
0.1360 0.3560 -1.0883 0.098 0.995 -0.008 62 33 19 0 0
0.1653 0.2003 -0.1008 0.709 0.347 0.614 119 104 97 0 0
0.1645 0.2102 -0.1031 0.542 0.370 0.755 114 93 84 0 0
0.1635 0.2237 -0.1080 0.434 0.305 0.848 112 87 74 0 0
0.1617 0.2475 -0.1121 -0.213 0.496 0.842 105 77 60 0 0
0.1605 0.2546 -0.1553 0.483 0.468 -0.740 88 75 67 0 0
0.1609 0.2487 -0.1588 0.508 0.506 -0.697 84 72 66 0 0
0.1589 0.2259 -0.3978 0.753 0.488 0.441 84 68 61 0 0
0.1581 0.2365 -0.4047 0.889 0.458 0.017 77 51 39 0 0
0.1580 0.2367 -0.4078 0.889 0.458 0.017 77 51 37 0 0
0.1585 0.2203 -0.4553 0.632 0.456 -0.626 181 181 182 0 0
0.1562 0.1810 -0.7885 0.864 0.010 0.503 92 82 77 0 0
0.1523 0.2323 -0.8072 0.675 0.276 0.685 70 49 38 0 0
0.1489 0.2672 -0.8645 0.139 0.898 -0.417 100 74 53 0 0
0.1489 0.2652 -0.8688 0.139 0.898 -0.417 102 76 57 0 0
0.1475 0.2705 -0.9362 -0.494 0.869 0.028 64 37 26 0 0
0.1474 0.2715 -0.9391 -0.322 0.878 -0.355 66 40 29 0 0
0.1475 0.2697 -0.9433 -0.250 0.865 -0.436 70 46 34 0 0
0.1416 0.3403 -0.9952 -0.104 0.825 0.556 81 47 27 0 0
0.1396 0.3567 -1.0483 0.074 0.994 0.084 108 74 46 0 0
0.1396 0.3566 -1.0516 -0.059 0.996 0.069 104 70 42 0 0
0.1395 0.3569 -1.0548 0.015 0.999 0.033 101 67 39 0 0
0.1381 0.3536 -1.1635 0.309 0.799 0.516 162 156 153 0 0
0.1383 0.3478 -1.1774 -0.786 0.618 -0.018 184 182 179 0 0
0.1679 0.2056 -0.1035 0.462 0.384 0.799 120 102 92 0 0
0.1614 0.2283 -0.4253 0.512 0.790 -0.337 90 59 39 0 0
0.1606 0.2358 -0.4391 0.751 0.500 -0.432 109 91 76 0 0
0.1597 0.1771 -0.7936 0.852 -0.021 0.524 97 88 84 0 0
0.1572 0.2081 -0.8076 -0.165 0.832 -0.529 74 55 45 0 0
0.1560 0.2229 -0.8147 0.331 0.270 0.904 72 50 39 0 0
0.1463 0.3226 -0.9689 -0.712 0.605 -0.357 90 70 59 0 0
0.1426 0.3562 -1.0519 -0.076 0.990 0.119 104 70 42 0 0
0.1425 0.3566 -1.0550 -0.076 0.990 0.119 103 69 41 0 0
0.1412 0.3528 -1.1641 0.309 0.799 0.516 166 160 159 0 0
0.1708 0.2056 -0.1036 0.553 0.173 0.815 123 108 98 0 0
0.1697 0.2208 -0.1055 0.535 0.169 0.828 119 98 86 0 0
0.1676 0.2463 -0.1124 -0.573 0.807 -0.142 112 83 66 0 0
0.1673 0.2506 -0.1150 -0.275 0.826 -0.493 110 78 58 0 0
0.1637 0.2400 -0.4165 -0.467 0.867 -0.176 85 56 36 0 0
0.1642 0.2319 -0.4214 0.529 0.834 -0.158 88 59 39 0 0
0.1642 0.2314 -0.4247 0.652 0.747 -0.132 91 61 40 0 0
0.1640 0.2332 -0.4305 0.808 0.551 -0.209 98 69 52 0 0
0.1648 0.2184 -0.4497 0.739 0.436 -0.513 182 181 181 0 0
0.1605 0.2057 -0.8088 0.430 0.881 -0.198 75 56 48 0 0
0.1605 0.2046 -0.8126 0.387 0.885 -0.259 73 54 44 0 0
0.1605 0.2040 -0.8162 0.580 0.740 0.341 70 51 40 0 0
0.1592 0.2210 -0.8190 -0.040 0.444 0.895 72 52 41 0 0
0.1559 0.2518 -0.8853 0.394 0.758 -0.520 102 82 67 0 0
0.1558 0.2533 -0.8880 0.584 0.726 -0.364 103 83 69 0 0
0.1550 0.2567 -0.9199 0.484 0.790 0.376 101 78 61 0 0
0.1550 0.2560 -0.9236 0.396 0.918 0.028 94 72 54 0 0
0.1500 0.3117 -0.9815 -0.361 0.879 0.312 89 69 57 0 0
0.1500 0.3106 -0.9854 -0.611 0.785 0.098 88 69 56 0 0
0.1466 0.3508 -1.0125 0.479 0.877 -0.050 79 36 12 0 0
0.1456 0.3564 -1.0519 -0.072 0.987 0.143 108 74 46 0 0
0.1455 0.3570 -1.0549 -0.168 0.942 0.291 105 72 44 0 0
0.1443 0.3520 -1.1647 0.309 0.799 0.516 171 165 164 0 0
0.1442 0.3518 -1.1682 0.404 0.888 0.219 179 173 173 0 0
0.1711 0.2391 -0.1159 0.747 0.662 0.058 111 79 59 0 0
0.1710 0.2396 -0.1188 0.773 0.557 0.305 104 69 47 0 0
0.1668 0.2390 -0.4168 0.347 0.938 -0.024 91 63 42 0 0
0.1669 0.2369 -0.4204 0.538 0.816 -0.210 93 66 45 0 0
0.1682 0.2149 -0.4475 0.803 0.449 -0.392 175 172 172 0 0
0.1639 0.2007 -0.8177 0.793 0.473 0.385 72 54 43 0 0
0.1617 0.2291 -0.8189 0.716 0.410 0.565 71 51 40 0 0
0.1615 0.2319 -0.8210 0.807 0.344 0.479 70 50 39 0 0
0.1597 0.2441 -0.8824 0.202 0.772 -0.602 105 85 70 0 0
0.1588 0.2480 -0.9243 0.319 0.946 -0.054 97 77 62 0 0
0.1493 0.3513 -1.0320 0.186 0.975 0.122 97 62 35 0 0
0.1492 0.3517 -1.0350 0.186 0.975 0.122 99 66 39 0 0
0.1487 0.3553 -1.0527 0.075 0.994 0.079 99 69 44 0 0
0.1486 0.3557 -1.0558 0.160 0.978 0.132 98 69 44 0 0
0.1490 0.3421 -1.1006 -0.080 0.964 0.255 54 26 15 0 0
0.1478 0.3531 -1.1238 0.059 0.980 -0.191 92 64 41 0 0
0.1474 0.3508 -1.1656 0.296 0.813 0.502 173 168 166 0 0
0.1473 0.3513 -1.1687 0.531 0.816 0.227 180 175 174 0 0
0.1676 0.1944 -0.8205 0.875 0.369 0.312 73 56 46 0 0
0.1671 0.1998 -0.8216 0.835 0.375 0.402 75 57 46 0 0
0.1507 0.3508 -1.1522 0.555 0.593 0.583 112 102 92 0 0
0.1504 0.3522 -1.1648 0.309 0.901 0.303 174 170 169 0 0
0.1500 0.3577 -1.1646 0.692 0.634 0.345 182 178 176 0 0
0.1707 0.1951 -0.8237 0.786 0.328 0.524 76 58 48 0 0
0.1706 0.1958 -0.8268 -0.110 0.798 0.592 75 55 45 0 0
0.1654 0.2431 -0.9303 -0.077 0.656 0.751 80 60 50 0 0
0.1569 0.3379 -1.0004 0.283 0.511 0.812 91 51 25 0 0
0.1552 0.3511 -1.0455 0.061 0.952 0.298 86 57 39 0 0
0.1551 0.3517 -1.0484 0.145 0.979 0.141 86 58 40 0 0
0.1540 0.3535 -1.1204 0.111 0.956 -0.270 101 73 49 0 0
0.1540 0.3525 -1.1244 0.007 0.995 -0.098 102 75 51 0 0
0.1543 0.3449 -1.1427 0.376 0.895 -0.240 90 69 47 0 0
0.1539 0.3482 -1.1540 0.490 0.577 0.654 124 114 106 0 0
0.1534 0.3530 -1.1644 0.432 0.897 -0.098 175 173 173 0 0
0.1532 0.3550 -1.1664 0.664 0.743 0.083 182 180 180 0 0
0.1811 0.2239 -0.1174 0.797 0.221 0.562 118 90 71 0 0
0.1742 0.1911 -0.8222 0.791 0.155 0.592 86 72 65 0 0
0.1737 0.1978 -0.8227 0.778 0.144 0.611 81 66 58 0 0
0.1731 0.2050 -0.8229 0.697 0.087 0.712 77 59 50 0 0
0.1736 0.1977 -0.8295 -0.270 0.211 0.939 74 55 46 0 0
0.1713 0.2258 -0.8273 0.597 0.299 0.745 73 53 42 0 0
0.1705 0.2331 -0.8475 -0.392 0.457 0.799 76 48 36 0 0
0.1575 0.3432 -1.1438 0.376 0.895 -0.240 78 57 38 0 0
0.1576 0.3408 -1.1487 0.661 0.723 -0.200 80 65 48 0 0
0.1576 0.3405 -1.1523 0.658 0.746 -0.104 96 85 72 0 0
0.1573 0.3442 -1.1533 0.576 0.622 0.530 115 106 97 0 0
0.1570 0.3478 -1.1544 0.455 0.584 0.672 136 128 119 0 0
0.1565 0.3516 -1.1654 0.313 0.916 -0.253 178 177 174 0 0
0.1569 0.3464 -1.1722 0.543 0.775 -0.322 183 182 179 0 0
0.1859 0.1546 -0.4110 0.650 0.116 0.751 147 143 139 0 0
0.1744 0.2263 -0.8305 0.144 0.325 0.935 73 53 42 0 0
0.1743 0.2270 -0.8369 0.366 0.742 0.561 77 53 41 0 0
0.1737 0.2322 -0.8480 0.089 0.536 0.839 79 53 39 0 0
0.1614 0.3484 -1.0473 0.239 0.971 0.032 89 62 44 0 0
0.1596 0.3512 -1.1657 0.122 0.951 -0.283 180 179 175 0 0
0.1642 0.3512 -1.0490 0.250 0.962 0.105 95 68 49 0 0
0.1642 0.3355 -1.1490 0.641 0.768 0.024 78 62 47 0 0
0.1641 0.3361 -1.1520 0.569 0.820 0.051 96 85 73 0 0
0.1703 0.3212 -1.0068 -0.295 0.951 0.098 92 56 30 0 0
