ply
format ascii 1.0
element vertex 854
property float x
property float y
property float z
property float nx
property float ny
property float nz
property uchar diffuse_red
property uchar diffuse_green
property uchar diffuse_blue
property uchar class
property uchar detection
end_header
0.0316 0.0242 -0.9375 -0.386 -0.837 -0.388 81 50 29 0 0
0.0134 -0.0061 -0.9689 -0.211 -0.959 -0.187 90 71 64 0 0
0.0059 -0.0185 -0.9777 -0.804 -0.580 -0.134 95 76 69 0 0
-0.0107 -0.0468 -1.0180 -0.145 -0.675 0.723 53 26 9 0 0
-0.0171 -0.0572 -1.0241 -0.581 -0.789 0.201 72 41 16 0 0
-0.0169 -0.0571 -1.0274 -0.561 -0.823 0.089 78 49 25 0 0
-0.0138 -0.0535 -1.0554 -0.494 -0.869 -0.015 89 66 48 0 0
-0.0130 -0.0525 -1.0593 -0.451 -0.893 0.008 83 62 43 0 0
-0.0139 -0.0563 -1.1117 -0.356 -0.890 0.286 73 44 22 0 0
-0.0114 -0.0545 -1.1553 -0.284 -0.955 -0.092 88 77 62 0 0
0.0236 0.0628 0.0301 -0.405 -0.672 0.620 133 109 96 0 0
0.0226 0.0610 0.0272 -0.210 -0.887 0.412 130 104 87 0 0
0.0199 0.0566 0.0242 0.226 -0.958 0.177 109 81 66 0 0
0.0227 0.0589 -0.0218 -0.452 -0.889 -0.076 55 36 26 0 0
0.0057 0.0278 -0.1046 -0.346 -0.536 0.770 82 62 53 0 0
0.0056 0.0274 -0.1103 -0.786 -0.618 -0.024 93 71 62 0 0
-0.0049 0.0096 -0.1350 -0.353 -0.929 -0.111 80 43 17 0 0
0.0138 0.0365 -0.1953 -0.829 -0.214 0.517 59 42 34 0 0
0.0136 0.0360 -0.2011 -0.399 -0.804 -0.441 60 43 35 0 0
0.0161 0.0388 -0.2250 -0.645 -0.748 -0.157 61 42 35 0 0
0.0305 0.0584 -0.2966 -0.469 -0.880 0.075 50 30 19 0 0
0.0304 0.0582 -0.2995 -0.451 -0.892 0.026 54 32 22 0 0
0.0302 0.0532 -0.3990 -0.612 -0.580 0.537 74 45 31 0 0
0.0126 0.0248 -0.4046 -0.003 -0.998 0.061 84 53 35 0 0
0.0132 0.0256 -0.4078 -0.064 -0.978 -0.199 108 80 70 0 0
0.0134 0.0257 -0.4108 -0.107 -0.989 -0.100 110 85 73 0 0
0.0076 0.0159 -0.4235 -0.379 -0.889 0.258 75 37 15 0 0
0.0611 0.0986 -0.4791 -0.250 -0.961 0.119 79 52 33 0 0
0.0684 0.1043 -0.6064 -0.585 -0.808 -0.073 102 71 45 0 0
0.0536 0.0760 -0.7065 -0.340 -0.940 -0.014 77 46 28 0 0
0.0503 0.0696 -0.7300 -0.173 -0.983 0.060 79 47 31 0 0
0.0503 0.0695 -0.7332 -0.411 -0.858 -0.306 78 45 30 0 0
0.0498 0.0685 -0.7360 -0.320 -0.843 -0.432 75 43 28 0 0
-0.0042 -0.0294 -0.9895 -0.418 -0.906 -0.065 92 75 68 0 0
-0.0040 -0.0294 -0.9960 -0.437 -0.900 -0.008 89 69 62 0 0
-0.0181 -0.0545 -1.0506 -0.608 -0.658 0.445 85 63 46 0 0
-0.0145 -0.0536 -1.1549 -0.284 -0.955 -0.092 82 71 57 0 0
0.0643 0.1367 0.1039 -0.879 -0.047 0.474 119 88 69 0 0
0.0568 0.1240 0.0853 -0.074 -0.942 0.327 107 80 62 0 0
0.0180 0.0590 0.0242 -0.068 -0.858 0.509 108 80 66 0 0
0.0196 0.0594 -0.0218 -0.797 -0.599 0.079 56 37 26 0 0
0.0036 0.0298 -0.1104 -0.844 -0.505 0.181 93 71 61 0 0
0.0022 0.0274 -0.1132 -0.215 -0.976 0.017 93 68 57 0 0
0.0137 0.0418 -0.1958 -0.661 -0.287 0.693 58 41 33 0 0
0.0107 0.0370 -0.1982 -0.660 -0.567 0.493 58 41 33 0 0
0.0085 0.0333 -0.2007 -0.076 -0.884 -0.460 58 41 33 0 0
0.0141 0.0411 -0.2252 -0.736 -0.665 -0.126 58 39 32 0 0
0.0306 0.0648 -0.2853 -0.092 -0.892 -0.443 60 39 28 0 0
0.0296 0.0630 -0.2880 0.152 -0.986 0.073 59 38 27 0 0
0.0274 0.0592 -0.2935 -0.494 -0.865 -0.086 50 30 19 0 0
0.0279 0.0598 -0.2966 -0.469 -0.880 0.075 53 32 21 0 0
0.0278 0.0596 -0.2996 -0.494 -0.865 -0.086 50 27 16 0 0
0.0239 0.0521 -0.3255 -0.306 -0.937 -0.167 68 35 15 0 0
0.0410 0.0777 -0.3641 0.020 -0.943 0.333 60 37 26 0 0
0.0094 0.0252 -0.4044 0.077 -0.996 -0.035 82 51 32 0 0
0.0576 0.0988 -0.4788 -0.317 -0.927 0.200 74 47 28 0 0
0.0562 0.0963 -0.4876 -0.295 -0.932 -0.213 78 50 29 0 0
0.0614 0.0973 -0.6426 -0.170 -0.961 0.217 95 61 34 0 0
0.0611 0.0968 -0.6456 -0.207 -0.952 0.224 97 62 35 0 0
0.0606 0.0958 -0.6485 -0.286 -0.947 -0.150 97 62 35 0 0
0.0374 0.0546 -0.7359 -0.581 -0.727 0.366 73 42 25 0 0
0.0382 0.0555 -0.7460 -0.469 -0.883 0.004 75 44 25 0 0
0.0394 0.0569 -0.7531 -0.052 -0.999 -0.009 75 44 26 0 0
0.0108 0.0012 -0.9684 -0.569 -0.794 0.215 90 71 64 0 0
0.0534 0.1252 0.1058 -0.212 -0.633 0.744 123 93 79 0 0
0.0513 0.1216 0.1026 -0.001 -0.618 0.786 117 85 65 0 0
0.0511 0.1211 0.0997 0.124 -0.809 0.574 120 88 67 0 0
0.0388 0.0996 0.0603 -0.751 -0.659 0.043 61 32 15 0 0
0.0056 0.0438 0.0066 -0.315 -0.886 0.340 61 28 10 0 0
0.0186 0.0633 -0.0219 -0.371 -0.926 -0.063 57 36 26 0 0
0.0163 0.0591 -0.0334 -0.032 -0.964 -0.263 34 20 14 0 0
0.0259 0.0742 -0.0394 0.384 -0.905 -0.182 23 13 11 0 0
0.0010 0.0312 -0.1047 -0.243 -0.623 0.743 75 54 42 0 0
0.0010 0.0311 -0.1076 -0.553 -0.221 0.803 77 58 49 0 0
-0.0112 0.0103 -0.1350 -0.124 -0.973 0.194 77 41 15 0 0
-0.0155 0.0023 -0.1572 -0.445 -0.869 0.217 64 47 38 0 0
0.0180 0.0525 -0.2354 -0.618 -0.723 -0.309 57 38 31 0 0
0.0173 0.0512 -0.2411 -0.277 -0.765 0.581 59 40 33 0 0
0.0234 0.0586 -0.2902 -0.339 -0.907 0.248 52 32 21 0 0
0.0248 0.0607 -0.2935 -0.494 -0.865 -0.086 51 31 20 0 0
0.0250 0.0609 -0.2966 -0.494 -0.865 -0.086 49 28 17 0 0
0.0252 0.0611 -0.2996 -0.494 -0.865 -0.086 47 24 14 0 0
0.0375 0.0779 -0.3638 -0.078 -0.986 0.146 52 31 20 0 0
0.0113 0.0341 -0.4001 0.048 -0.588 0.808 72 40 27 0 0
0.0057 0.0248 -0.4040 -0.013 -1.000 -0.006 77 46 27 0 0
0.0059 0.0251 -0.4071 0.080 -0.994 -0.068 103 75 65 0 0
0.0059 0.0250 -0.4101 0.056 -0.998 -0.026 100 75 63 0 0
0.0548 0.1002 -0.4788 -0.089 -0.915 0.394 72 45 26 0 0
0.0524 0.0961 -0.4840 -0.038 -0.869 -0.493 75 47 28 0 0
0.0528 0.0966 -0.4873 -0.215 -0.912 -0.350 75 47 27 0 0
0.0521 0.0954 -0.4902 -0.316 -0.943 0.105 75 47 27 0 0
0.0530 0.0966 -0.4937 -0.231 -0.950 0.211 75 46 27 0 0
0.0528 0.0963 -0.4968 -0.214 -0.905 0.367 73 43 22 0 0
0.0564 0.0965 -0.6158 -0.195 -0.980 0.047 93 58 29 0 0
0.0564 0.0964 -0.6190 -0.195 -0.980 0.047 93 58 29 0 0
0.0432 0.0717 -0.6907 -0.194 -0.958 0.213 73 42 22 0 0
0.0344 0.0556 -0.7357 -0.339 -0.918 0.203 72 39 22 0 0
0.0333 0.0537 -0.7381 -0.780 -0.626 0.008 74 41 24 0 0
0.0329 0.0529 -0.7411 -0.847 -0.518 -0.117 74 41 23 0 0
0.0093 0.0113 -0.8213 0.581 -0.579 0.572 75 40 17 0 0
0.0072 0.0079 -0.8228 0.525 -0.641 0.559 76 41 19 0 0
0.0046 0.0036 -0.8238 0.295 -0.491 0.820 77 41 19 0 0
0.0118 0.0120 -0.8957 -0.165 -0.986 0.037 69 43 30 0 0
0.0202 0.0240 -0.9251 -0.480 -0.861 -0.169 75 49 35 0 0
0.0201 0.0237 -0.9282 -0.333 -0.939 0.088 77 51 35 0 0
-0.0215 -0.0471 -1.0152 0.038 -0.972 -0.230 55 26 10 0 0
-0.0124 -0.0363 -1.0967 -0.373 -0.837 0.401 42 25 18 0 0
0.0508 0.1266 0.1058 -0.091 -0.674 0.733 114 84 68 0 0
0.0250 0.0832 0.0652 -0.307 -0.952 -0.015 64 32 17 0 0
0.0129 0.0592 -0.0335 -0.032 -0.964 -0.263 33 19 13 0 0
0.0264 0.0794 -0.0658 -0.257 -0.902 0.348 22 14 15 0 0
0.0010 0.0321 -0.2062 -0.706 -0.591 -0.392 55 38 30 0 0
0.0160 0.0547 -0.2385 -0.512 -0.839 0.184 57 38 31 0 0
0.0179 0.0538 -0.3254 -0.405 -0.908 -0.109 67 34 14 0 0
0.0308 0.0726 -0.3687 -0.451 -0.576 0.682 37 20 15 0 0
0.0272 0.0662 -0.3796 -0.376 -0.902 0.210 69 41 29 0 0
0.0118 0.0406 -0.3983 -0.255 -0.441 0.860 70 39 25 0 0
0.0491 0.0964 -0.4901 -0.235 -0.968 0.089 74 45 27 0 0
0.0449 0.0865 -0.5572 -0.480 -0.877 -0.028 79 44 21 0 0
0.0446 0.0860 -0.5603 -0.352 -0.856 0.377 80 45 23 0 0
0.0456 0.0807 -0.7068 -0.580 -0.811 0.071 66 35 16 0 0
0.0328 0.0588 -0.7366 -0.166 -0.978 0.127 70 37 17 0 0
0.0317 0.0552 -0.7771 0.374 -0.883 -0.283 72 39 19 0 0
0.0309 0.0537 -0.7829 -0.467 -0.857 -0.216 76 42 22 0 0
0.0079 0.0146 -0.8254 -0.937 -0.083 0.338 76 40 16 0 0
0.0051 0.0100 -0.8264 -0.655 0.145 0.742 75 39 17 0 0
0.0060 0.0095 -0.8710 0.054 -0.995 -0.089 83 56 36 0 0
0.0073 0.0104 -0.8973 0.111 -0.899 0.423 64 41 27 0 0
0.0172 0.0249 -0.9281 -0.336 -0.916 0.219 75 48 32 0 0
-0.0112 -0.0243 -1.0031 -0.417 -0.524 0.742 71 53 42 0 0
-0.0231 -0.0441 -1.0162 -0.165 -0.891 0.423 52 23 8 0 0
0.0486 0.1289 0.1087 -0.115 -0.707 0.698 118 93 80 0 0
0.0490 0.1295 0.1058 -0.009 -0.513 0.858 113 84 67 0 0
0.0229 0.0853 0.0623 -0.641 -0.767 -0.030 62 32 17 0 0
-0.0021 0.0420 0.0008 -0.387 -0.904 -0.184 62 30 11 0 0
0.0234 0.0802 -0.0659 -0.257 -0.902 0.348 16 10 10 0 0
-0.0194 0.0077 -0.1375 -0.527 -0.840 -0.130 74 40 17 0 0
-0.0194 0.0076 -0.1404 -0.510 -0.860 -0.038 70 38 18 0 0
0.0108 0.0520 -0.2380 -0.490 -0.576 0.655 56 39 31 0 0
0.0052 0.0355 -0.3999 -0.287 -0.374 0.882 69 35 22 0 0
0.0423 0.0872 -0.5794 -0.251 -0.965 -0.071 80 46 21 0 0
0.0438 0.0894 -0.5834 -0.181 -0.983 -0.029 82 48 22 0 0
0.0452 0.0915 -0.5873 -0.391 -0.920 0.009 86 52 25 0 0
0.0458 0.0923 -0.5908 -0.247 -0.926 0.287 89 55 27 0 0
0.0405 0.0801 -0.6703 -0.401 -0.887 0.229 74 39 19 0 0
0.0412 0.0812 -0.6739 -0.455 -0.834 0.313 73 38 18 0 0
0.0399 0.0790 -0.6763 -0.430 -0.897 0.104 73 38 18 0 0
0.0399 0.0787 -0.6794 -0.544 -0.720 0.431 75 40 20 0 0
0.0381 0.0755 -0.6879 -0.579 -0.802 0.147 68 36 15 0 0
0.0296 0.0592 -0.7458 0.181 -0.920 0.349 66 33 14 0 0
0.0247 0.0496 -0.7804 0.048 -0.842 -0.538 71 34 15 0 0
0.0283 0.0550 -0.7894 -0.511 -0.751 -0.417 69 32 14 0 0
0.0287 0.0555 -0.7929 -0.095 -0.972 -0.214 67 30 11 0 0
0.0041 0.0111 -0.8937 -0.340 -0.925 0.167 69 43 29 0 0
0.0035 0.0101 -0.8964 -0.218 -0.891 0.399 66 42 28 0 0
-0.0176 -0.0280 -0.9806 -0.533 -0.804 0.262 102 85 77 0 0
-0.0262 -0.0434 -1.0158 -0.234 -0.967 0.097 50 22 8 0 0
-0.0287 -0.0478 -1.0226 -0.069 -0.993 0.099 57 28 11 0 0
-0.0290 -0.0526 -1.1190 -0.366 -0.839 0.401 84 57 40 0 0
0.0453 0.1293 0.1086 -0.115 -0.707 0.698 122 95 84 0 0
0.0454 0.1293 0.1057 0.059 -0.526 0.848 116 86 71 0 0
0.0054 0.0581 -0.0335 0.053 -0.967 0.250 35 20 14 0 0
0.0266 0.0915 -0.0544 -0.085 -0.866 0.492 9 8 6 0 0
0.0276 0.0930 -0.0603 -0.080 -0.688 0.722 13 10 9 0 0
0.0154 0.0727 -0.0686 0.002 -0.828 0.561 14 10 8 0 0
0.0172 0.0754 -0.0716 -0.263 -0.942 0.210 19 11 8 0 0
-0.0226 0.0080 -0.1375 -0.535 -0.794 0.289 71 37 15 0 0
-0.0201 0.0115 -0.1463 -0.435 -0.858 0.272 64 36 23 0 0
-0.0211 0.0099 -0.1490 -0.442 -0.892 0.098 64 39 27 0 0
0.0083 0.0518 -0.2766 0.175 -0.857 -0.485 56 37 26 0 0
0.0218 0.0719 -0.3161 -0.153 -0.893 -0.424 70 37 18 0 0
-0.0043 0.0250 -0.4152 -0.318 -0.924 0.210 85 50 25 0 0
0.0416 0.0929 -0.5584 -0.313 -0.941 0.127 69 37 17 0 0
0.0396 0.0889 -0.5763 -0.648 -0.716 0.260 77 43 19 0 0
0.0392 0.0882 -0.5793 -0.648 -0.716 0.260 78 44 20 0 0
0.0393 0.0882 -0.5825 -0.489 -0.858 0.154 80 45 21 0 0
0.0395 0.0883 -0.5857 -0.492 -0.871 -0.002 82 48 22 0 0
0.0394 0.0848 -0.6586 -0.255 -0.966 -0.044 76 40 17 0 0
0.0385 0.0827 -0.6740 -0.455 -0.834 0.313 70 37 17 0 0
0.0380 0.0818 -0.6769 -0.455 -0.834 0.313 65 32 12 0 0
0.0355 0.0772 -0.6880 -0.340 -0.932 0.125 61 29 10 0 0
0.0282 0.0634 -0.7309 -0.384 -0.845 0.371 70 38 17 0 0
0.0256 0.0585 -0.7449 0.018 -0.901 0.434 63 30 11 0 0
0.0215 0.0503 -0.7801 0.276 -0.900 -0.337 65 28 10 0 0
0.0006 0.0124 -0.8679 -0.516 -0.843 0.155 84 53 32 0 0
0.0003 0.0117 -0.8707 -0.431 -0.890 0.151 82 54 32 0 0
0.0015 0.0127 -0.8938 -0.667 -0.729 0.156 70 44 30 0 0
0.0017 0.0129 -0.8972 -0.529 -0.845 -0.085 66 41 28 0 0
0.0011 0.0086 -0.9694 -0.570 -0.751 0.335 100 83 75 0 0
0.0006 0.0077 -0.9722 -0.570 -0.751 0.335 101 84 76 0 0
-0.0002 0.0062 -0.9746 -0.692 -0.660 -0.293 100 83 75 0 0
-0.0299 -0.0437 -1.0148 -0.282 -0.636 0.718 49 21 7 0 0
-0.0321 -0.0521 -1.1217 -0.252 -0.967 0.039 81 58 39 0 0
0.0419 0.1295 0.1085 -0.011 -0.616 0.787 117 88 80 0 0
0.0415 0.1287 0.1055 -0.093 -0.480 0.873 113 81 69 0 0
0.0373 0.1216 0.1020 -0.217 -0.511 0.832 125 97 80 0 0
0.0182 0.0888 0.0622 -0.343 -0.927 -0.155 59 29 13 0 0
0.0231 0.0915 -0.0544 -0.020 -0.927 0.375 8 7 5 0 0
0.0239 0.0927 -0.0574 -0.365 -0.579 0.729 9 9 7 0 0
0.0260 0.0959 -0.0604 -0.059 -0.613 0.788 10 9 7 0 0
0.0145 0.0767 -0.0717 -0.299 -0.844 0.444 19 12 9 0 0
-0.0246 0.0102 -0.1376 -0.504 -0.823 0.261 66 32 9 0 0
-0.0247 0.0099 -0.1404 -0.368 -0.853 0.371 65 34 13 0 0
-0.0227 0.0130 -0.1435 -0.620 -0.727 0.295 64 34 18 0 0
-0.0237 0.0113 -0.1462 -0.523 -0.819 0.237 64 36 22 0 0
-0.0046 0.0408 -0.1805 0.164 -0.574 -0.803 62 45 37 0 0
0.0033 0.0528 -0.1994 0.657 -0.670 0.345 55 38 30 0 0
0.0056 0.0541 -0.2529 -0.038 -0.552 -0.833 57 38 32 0 0
0.0132 0.0660 -0.2635 0.457 -0.889 -0.034 57 38 31 0 0
0.0113 0.0616 -0.2929 -0.220 -0.967 -0.128 48 28 17 0 0
0.0211 0.0749 -0.3500 -0.721 -0.692 -0.043 43 24 17 0 0
0.0222 0.0765 -0.3534 -0.282 -0.950 -0.131 42 23 16 0 0
-0.0079 0.0248 -0.4149 -0.437 -0.791 0.428 83 48 23 0 0
-0.0147 0.0129 -0.4329 -0.372 -0.921 -0.115 75 46 31 0 0
0.0342 0.0896 -0.4966 -0.326 -0.932 0.158 55 29 14 0 0
0.0343 0.0897 -0.4998 -0.505 -0.830 0.235 56 30 15 0 0
0.0308 0.0824 -0.5356 -0.222 -0.942 0.251 59 30 13 0 0
0.0362 0.0889 -0.5855 -0.254 -0.959 -0.128 84 49 26 0 0
0.0371 0.0900 -0.5923 -0.165 -0.985 -0.045 84 50 24 0 0
0.0355 0.0860 -0.6230 -0.103 -0.989 0.104 88 52 23 0 0
0.0354 0.0857 -0.6261 -0.103 -0.989 0.104 91 54 25 0 0
0.0338 0.0829 -0.6316 -0.177 -0.975 0.132 90 52 23 0 0
0.0336 0.0822 -0.6377 -0.239 -0.970 -0.050 93 56 29 0 0
0.0360 0.0854 -0.6550 0.042 -0.998 -0.044 77 41 17 0 0
0.0360 0.0853 -0.6582 -0.148 -0.988 0.048 74 38 16 0 0
0.0365 0.0859 -0.6617 0.008 -0.984 -0.178 72 36 13 0 0
0.0348 0.0827 -0.6702 -0.401 -0.887 0.229 68 34 14 0 0
0.0356 0.0839 -0.6739 -0.431 -0.858 0.278 63 31 11 0 0
0.0353 0.0833 -0.6769 -0.455 -0.834 0.313 61 29 10 0 0
0.0269 0.0676 -0.7223 -0.486 -0.852 0.193 64 33 15 0 0
0.0257 0.0655 -0.7247 -0.413 -0.908 0.069 65 32 15 0 0
0.0247 0.0633 -0.7367 -0.343 -0.881 0.325 62 29 10 0 0
0.0205 0.0560 -0.7465 -0.439 -0.808 0.392 63 30 11 0 0
0.0204 0.0558 -0.7496 -0.058 -0.945 0.321 64 31 12 0 0
-0.0045 0.0119 -0.8252 -0.516 -0.697 -0.498 74 38 14 0 0
-0.0039 0.0115 -0.8538 -0.346 -0.926 -0.149 82 46 20 0 0
-0.0034 0.0121 -0.8606 -0.264 -0.907 -0.328 83 47 23 0 0
-0.0011 0.0154 -0.8687 -0.399 -0.878 -0.264 83 52 31 0 0
0.0073 0.0268 -0.9203 -0.421 -0.897 -0.135 70 47 33 0 0
0.0065 0.0251 -0.9291 -0.339 -0.916 0.213 79 52 35 0 0
0.0001 0.0125 -0.9774 -0.870 -0.279 -0.405 104 87 79 0 0
-0.0345 -0.0497 -1.1063 -0.597 -0.705 0.382 57 34 20 0 0
0.0356 0.1249 0.1079 0.393 -0.685 0.614 113 86 77 0 0
-0.0113 0.0439 0.0091 -0.612 -0.770 0.179 68 33 13 0 0
-0.0117 0.0431 0.0062 -0.545 -0.736 0.403 68 32 12 0 0
0.0111 0.0777 -0.0512 -0.401 -0.632 -0.663 7 6 4 0 0
0.0183 0.0894 -0.0544 -0.516 -0.784 -0.345 7 6 4 0 0
0.0184 0.0894 -0.0573 -0.467 -0.884 -0.007 7 6 4 0 0
0.0180 0.0887 -0.0602 -0.287 -0.934 0.212 8 7 5 0 0
0.0128 0.0797 -0.0688 -0.498 -0.725 0.476 12 8 7 0 0
-0.0269 0.0114 -0.1462 -0.184 -0.978 0.098 63 36 23 0 0
-0.0006 0.0506 -0.2315 -0.587 -0.749 -0.306 54 37 29 0 0
0.0038 0.0539 -0.3155 -0.633 -0.758 -0.158 73 38 17 0 0
0.0189 0.0771 -0.3502 -0.668 -0.741 -0.069 42 23 16 0 0
0.0189 0.0770 -0.3532 -0.205 -0.976 -0.069 41 22 16 0 0
-0.0081 0.0306 -0.4039 -0.592 -0.719 0.365 70 39 26 0 0
-0.0167 0.0152 -0.4332 -0.750 -0.614 0.246 72 44 27 0 0
0.0340 0.0961 -0.4759 0.213 -0.740 0.638 54 29 17 0 0
0.0315 0.0894 -0.5342 -0.466 -0.857 0.221 56 29 13 0 0
0.0312 0.0889 -0.5372 -0.514 -0.829 0.221 58 29 12 0 0
0.0312 0.0887 -0.5403 -0.681 -0.728 0.076 59 30 13 0 0
0.0296 0.0850 -0.5646 -0.052 -0.999 -0.007 68 37 18 0 0
0.0323 0.0867 -0.6260 -0.441 -0.882 -0.164 81 44 18 0 0
0.0328 0.0853 -0.6739 -0.431 -0.858 0.278 59 28 10 0 0
0.0322 0.0842 -0.6767 -0.140 -0.878 0.457 61 30 11 0 0
0.0246 0.0697 -0.7226 -0.548 -0.835 0.048 59 29 12 0 0
0.0229 0.0663 -0.7374 -0.115 -0.980 0.163 59 26 8 0 0
0.0231 0.0664 -0.7407 -0.316 -0.947 0.057 58 25 8 0 0
-0.0060 0.0152 -0.8262 -0.755 -0.564 -0.335 72 36 12 0 0
-0.0048 0.0169 -0.8303 -0.742 -0.346 0.575 73 37 13 0 0
-0.0077 0.0115 -0.8467 -0.496 -0.787 0.367 80 43 16 0 0
-0.0078 0.0111 -0.8497 -0.420 -0.884 0.208 83 46 19 0 0
-0.0081 0.0106 -0.8526 -0.420 -0.884 0.208 84 48 22 0 0
-0.0083 0.0100 -0.8555 -0.420 -0.884 0.208 83 47 21 0 0
-0.0082 0.0101 -0.8588 -0.599 -0.800 0.042 81 48 23 0 0
0.0005 0.0221 -0.9072 -0.406 -0.843 -0.353 54 32 21 0 0
0.0030 0.0258 -0.9157 -0.251 -0.871 -0.422 59 39 27 0 0
0.0032 0.0259 -0.9190 -0.132 -0.991 -0.005 69 46 32 0 0
0.0033 0.0259 -0.9223 -0.326 -0.945 0.022 74 48 34 0 0
-0.0367 -0.0435 -1.0163 -0.073 -0.991 0.112 53 23 10 0 0
-0.0357 -0.0446 -1.0765 -0.513 -0.850 0.120 63 46 36 0 0
-0.0129 0.0473 0.0204 -0.414 -0.866 0.281 75 41 22 0 0
-0.0131 0.0466 0.0119 -0.667 -0.739 0.096 66 31 11 0 0
-0.0136 0.0456 0.0090 -0.567 -0.792 0.225 67 32 12 0 0
-0.0121 0.0467 -0.0222 -0.281 -0.774 -0.568 51 31 21 0 0
0.0155 0.0903 -0.0603 -0.430 -0.901 0.066 7 6 4 0 0
0.0147 0.0887 -0.0632 -0.377 -0.777 0.504 8 7 5 0 0
-0.0296 0.0128 -0.1405 -0.271 -0.932 0.239 67 36 16 0 0
-0.0304 0.0108 -0.1546 -0.605 -0.782 -0.150 63 46 36 0 0
-0.0076 0.0461 -0.2014 -0.423 -0.740 0.523 54 37 29 0 0
-0.0040 0.0508 -0.2284 -0.814 -0.465 -0.349 52 36 28 0 0
-0.0029 0.0525 -0.2316 -0.599 -0.729 -0.332 52 36 28 0 0
0.0010 0.0581 -0.2472 -0.846 -0.532 0.029 54 37 29 0 0
0.0071 0.0660 -0.2963 -0.442 -0.791 0.423 48 28 19 0 0
0.0016 0.0559 -0.3187 -0.789 -0.612 0.049 73 39 19 0 0
0.0169 0.0796 -0.3504 -0.344 -0.939 -0.027 40 22 15 0 0
0.0161 0.0782 -0.3532 -0.527 -0.838 0.141 38 21 14 0 0
0.0317 0.0984 -0.4730 0.440 -0.589 0.678 55 31 21 0 0
0.0292 0.0941 -0.4750 0.358 -0.667 0.653 51 27 15 0 0
0.0272 0.0886 -0.5272 -0.434 -0.886 0.162 57 30 13 0 0
0.0270 0.0881 -0.5302 -0.434 -0.886 0.162 57 30 13 0 0
0.0275 0.0887 -0.5336 -0.455 -0.875 -0.164 58 31 14 0 0
0.0290 0.0910 -0.5375 -0.722 -0.691 -0.039 60 31 14 0 0
0.0288 0.0905 -0.5437 -0.681 -0.728 0.076 56 28 12 0 0
0.0286 0.0883 -0.5844 -0.691 -0.694 0.203 76 41 21 0 0
0.0283 0.0877 -0.5874 -0.626 -0.730 0.273 74 38 19 0 0
0.0315 0.0915 -0.6208 -0.483 -0.746 0.458 77 41 17 0 0
0.0310 0.0905 -0.6237 -0.639 -0.677 0.364 77 41 17 0 0
0.0302 0.0889 -0.6295 -0.677 -0.735 -0.044 82 45 19 0 0
0.0285 0.0857 -0.6380 -0.619 -0.781 0.078 84 47 21 0 0
0.0196 0.0667 -0.7402 -0.292 -0.956 -0.024 59 26 9 0 0
0.0100 0.0498 -0.7650 -0.599 -0.625 0.500 68 33 12 0 0
0.0095 0.0489 -0.7678 -0.278 -0.948 0.153 67 32 11 0 0
0.0087 0.0475 -0.7704 -0.179 -0.965 -0.190 67 32 11 0 0
0.0053 0.0408 -0.7963 -0.267 -0.883 0.385 71 35 13 0 0
-0.0072 0.0190 -0.8242 -0.527 -0.779 -0.340 70 34 9 0 0
-0.0054 0.0211 -0.8413 -0.243 -0.890 0.387 70 34 8 0 0
-0.0108 0.0121 -0.8463 -0.566 -0.450 0.691 80 43 16 0 0
-0.0115 0.0109 -0.8489 -0.494 -0.630 0.599 81 44 17 0 0
-0.0134 0.0073 -0.8598 -0.605 -0.766 -0.216 82 50 29 0 0
-0.0094 0.0132 -0.8725 -0.877 -0.337 0.342 81 53 32 0 0
-0.0106 0.0110 -0.8778 -0.571 -0.810 -0.135 75 48 29 0 0
-0.0017 0.0243 -0.9076 -0.623 -0.782 -0.030 53 31 20 0 0
0.0001 0.0269 -0.9156 -0.151 -0.929 -0.339 54 33 21 0 0
-0.0235 -0.0150 -0.9884 -0.735 -0.550 0.396 103 89 79 0 0
-0.0398 -0.0432 -1.0220 -0.336 -0.908 0.251 56 27 12 0 0
-0.0398 -0.0442 -1.0469 -0.311 -0.921 0.235 80 57 41 0 0
-0.0400 -0.0455 -1.0653 -0.577 -0.799 0.169 80 58 44 0 0
-0.0402 -0.0459 -1.0682 -0.577 -0.799 0.169 76 56 43 0 0
-0.0390 -0.0442 -1.0759 -0.486 -0.834 -0.261 65 48 38 0 0
-0.0410 -0.0498 -1.1268 -0.272 -0.962 -0.025 79 56 40 0 0
-0.0397 -0.0479 -1.1315 -0.378 -0.892 0.250 78 56 39 0 0
-0.0397 -0.0481 -1.1345 -0.318 -0.905 0.283 78 57 40 0 0
-0.0020 0.0719 0.0467 0.052 -0.629 0.776 106 83 74 0 0
-0.0156 0.0482 0.0175 -0.498 -0.866 0.033 71 33 12 0 0
-0.0152 0.0486 0.0119 -0.667 -0.739 0.096 65 30 10 0 0
-0.0038 0.0631 -0.0858 -0.574 -0.803 0.160 51 26 14 0 0
-0.0333 0.0121 -0.1404 -0.432 -0.901 -0.035 67 36 15 0 0
-0.0058 0.0538 -0.2198 -0.641 -0.754 -0.141 52 36 28 0 0
-0.0057 0.0537 -0.2287 -0.596 -0.793 -0.130 50 36 27 0 0
-0.0007 0.0610 -0.2474 -0.988 -0.137 -0.070 54 37 29 0 0
-0.0001 0.0619 -0.2505 -0.973 -0.194 0.123 53 36 28 0 0
0.0027 0.0641 -0.3048 -0.654 -0.754 0.062 76 57 49 0 0
0.0020 0.0625 -0.3136 -0.656 -0.747 0.110 62 28 9 0 0
0.0129 0.0787 -0.3531 -0.525 -0.819 -0.232 33 16 12 0 0
0.0134 0.0790 -0.3624 -0.356 -0.808 0.469 39 23 15 0 0
0.0108 0.0748 -0.3645 0.028 -0.882 0.471 35 20 13 0 0
0.0052 0.0645 -0.3868 -0.371 -0.841 0.393 55 27 12 0 0
-0.0173 0.0264 -0.4114 -0.323 -0.923 0.208 106 80 64 0 0
-0.0176 0.0259 -0.4142 -0.323 -0.923 0.208 79 43 17 0 0
0.0256 0.0915 -0.5340 -0.405 -0.863 -0.302 58 30 16 0 0
0.0268 0.0933 -0.5378 -0.722 -0.691 -0.039 58 31 15 0 0
0.0247 0.0891 -0.5555 -0.362 -0.888 0.283 56 28 14 0 0
0.0225 0.0852 -0.5638 -0.507 -0.862 0.002 59 30 16 0 0
0.0260 0.0900 -0.5845 -0.481 -0.876 0.019 70 38 18 0 0
0.0259 0.0897 -0.5876 -0.626 -0.730 0.273 72 40 20 0 0
0.0286 0.0926 -0.6239 -0.566 -0.725 0.393 75 41 16 0 0
0.0275 0.0905 -0.6264 -0.570 -0.695 0.438 76 41 15 0 0
0.0189 0.0733 -0.6972 -0.732 -0.672 -0.112 58 29 11 0 0
0.0179 0.0717 -0.6997 -0.444 -0.788 0.427 56 27 11 0 0
0.0185 0.0723 -0.7064 -0.237 -0.908 0.344 53 24 10 0 0
0.0079 0.0522 -0.7655 -0.331 -0.758 0.562 65 30 11 0 0
0.0068 0.0504 -0.7679 -0.380 -0.880 0.286 67 32 13 0 0
0.0065 0.0498 -0.7708 -0.659 -0.739 0.141 68 33 13 0 0
-0.0078 0.0235 -0.8322 -0.418 -0.900 -0.127 73 37 13 0 0
-0.0064 0.0253 -0.8427 -0.600 -0.722 0.344 70 34 8 0 0
-0.0046 0.0259 -0.8980 -0.534 -0.845 -0.020 64 41 27 0 0
-0.0044 0.0260 -0.9013 -0.684 -0.660 0.309 62 40 27 0 0
-0.0055 0.0241 -0.9035 -0.498 -0.832 -0.245 59 37 25 0 0
-0.0060 0.0223 -0.9252 -0.590 -0.722 -0.361 75 47 33 0 0
-0.0201 -0.0026 -0.9660 -0.581 -0.756 0.302 105 88 81 0 0
-0.0212 -0.0046 -0.9713 -0.522 -0.733 0.437 108 91 84 0 0
-0.0254 -0.0124 -0.9892 -0.462 -0.830 0.314 105 91 83 0 0
-0.0432 -0.0427 -1.0151 -0.465 -0.884 -0.044 56 27 11 0 0
-0.0429 -0.0436 -1.0464 -0.367 -0.921 0.131 80 57 41 0 0
-0.0421 -0.0426 -1.0503 -0.196 -0.981 -0.007 80 57 41 0 0
-0.0415 -0.0419 -1.0604 -0.438 -0.879 -0.187 80 59 43 0 0
-0.0413 -0.0419 -1.0668 -0.761 -0.648 -0.008 79 57 44 0 0
-0.0411 -0.0418 -1.0702 -0.556 -0.830 -0.036 76 56 42 0 0
-0.0312 -0.0266 -1.0934 -0.494 -0.862 0.113 41 28 20 0 0
-0.0428 -0.0465 -1.1153 -0.498 -0.867 0.011 73 47 25 0 0
0.0068 0.0928 0.0648 -0.730 -0.646 0.225 57 26 10 0 0
-0.0183 0.0495 0.0203 -0.543 -0.837 -0.067 77 43 24 0 0
-0.0181 0.0496 0.0175 -0.498 -0.866 0.033 74 36 15 0 0
-0.0064 0.0643 -0.0887 -0.594 -0.734 0.328 50 26 14 0 0
-0.0178 0.0448 -0.1052 -0.495 -0.426 0.757 68 39 27 0 0
-0.0283 0.0264 -0.1271 -0.468 -0.877 0.110 85 49 22 0 0
-0.0049 0.0584 -0.2797 -0.663 -0.728 0.173 54 37 29 0 0
0.0009 0.0670 -0.3021 -0.305 -0.951 0.042 38 19 9 0 0
0.0006 0.0663 -0.3050 -0.284 -0.959 -0.022 64 45 38 0 0
-0.0033 0.0595 -0.3159 -0.506 -0.854 0.125 67 31 9 0 0
-0.0038 0.0580 -0.3307 -0.044 -0.912 0.407 64 38 24 0 0
0.0076 0.0752 -0.3644 -0.005 -0.863 0.505 32 18 12 0 0
0.0214 0.0933 -0.4741 0.291 -0.905 0.311 47 25 15 0 0
0.0208 0.0920 -0.4801 0.068 -0.995 0.070 50 26 14 0 0
0.0208 0.0903 -0.5206 -0.238 -0.959 -0.152 55 28 11 0 0
0.0242 0.0942 -0.5567 -0.664 -0.727 0.173 55 27 13 0 0
0.0240 0.0935 -0.5660 -0.655 -0.756 0.015 57 27 16 0 0
0.0236 0.0922 -0.5816 -0.439 -0.893 0.098 62 31 13 0 0
0.0235 0.0919 -0.5847 -0.439 -0.893 0.098 65 34 14 0 0
0.0227 0.0872 -0.6601 -0.492 -0.839 -0.233 66 33 12 0 0
0.0232 0.0879 -0.6636 -0.492 -0.839 -0.233 59 26 7 0 0
0.0237 0.0885 -0.6671 -0.492 -0.839 -0.233 60 28 10 0 0
0.0162 0.0745 -0.7035 -0.607 -0.711 0.356 52 23 9 0 0
0.0163 0.0746 -0.7068 -0.638 -0.762 0.112 53 24 10 0 0
0.0162 0.0742 -0.7099 -0.638 -0.762 0.112 53 23 10 0 0
0.0075 0.0574 -0.7672 -0.289 -0.838 0.463 63 29 10 0 0
0.0057 0.0544 -0.7691 -0.529 -0.847 0.061 66 32 13 0 0
-0.0119 0.0230 -0.8216 -0.514 -0.854 -0.084 68 32 12 0 0
-0.0103 0.0254 -0.8261 -0.666 -0.680 -0.307 68 31 10 0 0
-0.0074 0.0269 -0.9043 -0.297 -0.929 -0.219 58 36 23 0 0
-0.0133 0.0148 -0.9592 -0.157 -0.843 0.514 79 59 48 0 0
-0.0228 -0.0012 -0.9660 -0.512 -0.837 0.194 106 89 82 0 0
-0.0231 -0.0019 -0.9689 -0.265 -0.812 0.519 107 91 84 0 0
-0.0238 -0.0032 -0.9713 -0.265 -0.812 0.519 107 90 83 0 0
-0.0407 -0.0328 -1.0141 -0.634 -0.598 -0.490 53 25 11 0 0
-0.0462 -0.0432 -1.0426 -0.586 -0.805 -0.088 81 56 40 0 0
-0.0457 -0.0425 -1.0463 -0.367 -0.921 0.131 79 56 40 0 0
-0.0458 -0.0429 -1.0492 -0.367 -0.921 0.131 78 55 39 0 0
-0.0456 -0.0428 -1.0557 -0.206 -0.968 0.145 80 59 42 0 0
-0.0429 -0.0390 -1.0711 -0.341 -0.812 0.473 75 55 42 0 0
-0.0441 -0.0411 -1.0729 -0.201 -0.897 0.393 70 52 39 0 0
-0.0330 -0.0234 -1.0882 -0.185 -0.967 0.173 66 48 39 0 0
-0.0549 -0.0615 -1.1325 -0.709 -0.702 0.063 78 58 42 0 0
0.0048 0.0954 0.0706 -0.582 -0.812 0.028 62 28 11 0 0
-0.0202 0.0516 0.0174 -0.781 -0.624 0.025 75 37 16 0 0
0.0029 0.0869 -0.0515 -0.042 -0.645 -0.763 6 5 3 0 0
-0.0083 0.0667 -0.0888 -0.566 -0.728 0.387 48 23 11 0 0
-0.0346 0.0209 -0.1438 -0.368 -0.927 0.073 57 27 11 0 0
-0.0323 0.0237 -0.1670 -0.655 -0.659 -0.371 61 44 37 0 0
-0.0343 0.0202 -0.1695 -0.795 -0.424 0.434 61 44 36 0 0
-0.0048 0.0626 -0.3192 -0.550 -0.835 0.028 68 36 14 0 0
-0.0062 0.0598 -0.3278 -0.162 -0.899 0.407 66 37 19 0 0
-0.0070 0.0585 -0.3305 -0.010 -0.862 0.507 63 37 23 0 0
-0.0245 0.0256 -0.4166 -0.351 -0.923 0.158 79 39 13 0 0
0.0179 0.0933 -0.4738 -0.008 -0.775 0.632 45 25 14 0 0
0.0165 0.0895 -0.5105 -0.518 -0.811 -0.273 60 34 19 0 0
0.0168 0.0899 -0.5137 -0.498 -0.847 -0.188 55 29 15 0 0
0.0198 0.0942 -0.5245 -0.631 -0.716 -0.299 51 24 11 0 0
0.0172 0.0899 -0.5264 -0.005 -1.000 -0.028 52 24 12 0 0
0.0218 0.0962 -0.5569 -0.664 -0.727 0.173 50 21 12 0 0
0.0220 0.0964 -0.5602 -0.573 -0.804 0.159 47 20 11 0 0
0.0218 0.0960 -0.5632 -0.573 -0.804 0.159 46 19 9 0 0
0.0216 0.0955 -0.5663 -0.655 -0.756 0.015 49 22 11 0 0
0.0214 0.0949 -0.5724 -0.668 -0.742 -0.051 53 27 14 0 0
0.0206 0.0927 -0.5941 -0.725 -0.683 0.090 68 37 17 0 0
0.0212 0.0914 -0.6418 -0.403 -0.913 0.057 73 39 14 0 0
0.0211 0.0912 -0.6450 -0.403 -0.913 0.057 72 38 13 0 0
0.0137 0.0765 -0.7038 -0.607 -0.711 0.356 52 23 9 0 0
0.0140 0.0766 -0.7103 -0.597 -0.750 0.283 53 24 10 0 0
0.0093 0.0683 -0.7229 -0.327 -0.945 0.001 56 24 9 0 0
0.0096 0.0679 -0.7422 -0.138 -0.988 -0.069 59 27 10 0 0
0.0048 0.0585 -0.7768 -0.558 -0.817 0.146 58 25 8 0 0
0.0049 0.0582 -0.7863 -0.660 -0.596 0.458 62 27 8 0 0
-0.0153 0.0236 -0.8117 -0.377 -0.926 0.030 65 28 9 0 0
-0.0099 0.0286 -0.9044 -0.250 -0.930 -0.269 58 36 23 0 0
-0.0101 0.0282 -0.9074 -0.465 -0.884 -0.052 55 33 22 0 0
-0.0094 0.0291 -0.9112 -0.209 -0.746 0.633 53 31 20 0 0
-0.0094 0.0282 -0.9335 -0.590 -0.807 0.025 70 41 26 0 0
-0.0086 0.0291 -0.9406 -0.682 -0.730 0.043 65 36 18 0 0
-0.0431 -0.0304 -0.9956 -0.364 -0.884 0.294 69 44 33 0 0
-0.0448 -0.0364 -1.0719 -0.639 -0.542 0.546 76 56 42 0 0
-0.0445 -0.0366 -1.0879 -0.653 -0.732 0.193 39 23 17 0 0
-0.0447 -0.0371 -1.0908 -0.653 -0.732 0.193 32 18 13 0 0
-0.0561 -0.0578 -1.1342 -0.604 -0.625 0.494 79 57 43 0 0
0.0106 0.1121 0.1004 -0.407 -0.655 0.637 149 125 117 0 0
-0.0213 0.0550 0.0089 -0.477 -0.878 -0.030 66 31 11 0 0
-0.0251 0.0487 0.0060 -0.490 -0.871 0.010 66 31 11 0 0
-0.0009 0.0864 -0.0515 -0.327 -0.523 -0.787 6 5 3 0 0
-0.0114 0.0673 -0.0889 -0.435 -0.821 0.369 47 22 11 0 0
-0.0238 0.0460 -0.1052 -0.598 -0.671 0.438 64 35 22 0 0
-0.0363 0.0246 -0.1212 -0.316 -0.777 0.544 138 120 112 0 0
-0.0362 0.0227 -0.1668 -0.654 -0.677 -0.337 60 43 36 0 0
-0.0355 0.0237 -0.1698 -0.869 -0.434 0.238 59 42 34 0 0
-0.0320 0.0291 -0.1789 -0.978 0.076 -0.196 60 43 35 0 0
-0.0279 0.0354 -0.1940 -0.651 -0.656 -0.382 58 41 33 0 0
-0.0266 0.0372 -0.2000 -0.477 -0.746 0.465 53 38 29 0 0
-0.0081 0.0628 -0.3191 -0.660 -0.733 -0.163 70 37 16 0 0
-0.0101 0.0591 -0.3274 -0.351 -0.711 0.609 63 34 18 0 0
-0.0037 0.0679 -0.3715 -0.391 -0.919 0.059 60 38 29 0 0
-0.0035 0.0676 -0.3836 -0.277 -0.930 0.240 50 24 12 0 0
-0.0264 0.0284 -0.4110 -0.466 -0.755 0.462 115 90 74 0 0
-0.0273 0.0267 -0.4165 -0.351 -0.923 0.158 77 38 12 0 0
-0.0279 0.0256 -0.4193 -0.430 -0.843 0.324 77 38 12 0 0
0.0158 0.0959 -0.4741 0.114 -0.969 0.220 43 23 13 0 0
0.0165 0.0946 -0.5274 -0.436 -0.898 0.060 49 22 10 0 0
0.0121 0.0871 -0.5346 -0.597 -0.802 0.004 51 25 12 0 0
0.0199 0.0973 -0.5952 -0.478 -0.857 0.194 61 33 12 0 0
0.0183 0.0927 -0.6418 -0.403 -0.913 0.057 76 42 17 0 0
0.0099 0.0775 -0.6714 -0.394 -0.731 0.557 58 27 10 0 0
0.0117 0.0796 -0.6916 -0.528 -0.833 -0.165 52 23 9 0 0
0.0138 0.0826 -0.7025 -0.402 -0.871 0.284 52 23 9 0 0
0.0018 0.0606 -0.7513 -0.285 -0.867 0.409 60 28 9 0 0
0.0021 0.0608 -0.7578 -0.244 -0.878 -0.411 61 28 9 0 0
0.0014 0.0595 -0.7605 -0.445 -0.895 -0.028 61 29 10 0 0
0.0018 0.0600 -0.7639 -0.100 -0.937 0.333 61 28 11 0 0
0.0017 0.0591 -0.7797 -0.387 -0.915 0.113 59 26 7 0 0
0.0010 0.0577 -0.7855 -0.672 -0.601 0.432 61 28 9 0 0
-0.0178 0.0256 -0.8088 -0.352 -0.923 0.157 61 25 6 0 0
-0.0182 0.0247 -0.8116 -0.206 -0.978 0.036 62 25 7 0 0
-0.0129 0.0295 -0.9074 -0.356 -0.928 0.111 52 30 19 0 0
-0.0120 0.0294 -0.9432 -0.542 -0.808 0.231 56 27 10 0 0
-0.0162 0.0224 -0.9425 -0.388 -0.897 0.210 54 25 11 0 0
-0.0168 0.0210 -0.9514 -0.347 -0.935 0.074 61 27 15 0 0
-0.0284 0.0010 -0.9689 -0.736 -0.589 0.333 106 91 84 0 0
-0.0267 0.0036 -0.9737 -0.489 -0.872 -0.023 105 91 83 0 0
-0.0403 -0.0206 -1.0105 -0.340 -0.930 0.140 50 20 9 0 0
-0.0463 -0.0340 -1.0920 -0.468 -0.834 0.293 34 20 15 0 0
-0.0536 -0.0476 -1.1245 -0.481 -0.842 0.245 80 57 41 0 0
-0.0046 0.0860 -0.0515 -0.339 -0.580 -0.741 6 5 3 0 0
-0.0177 0.0623 -0.0915 -0.484 -0.832 0.273 43 19 12 0 0
-0.0255 0.0488 -0.1054 -0.467 -0.598 0.651 64 35 22 0 0
-0.0449 0.0150 -0.1376 -0.302 -0.899 0.318 64 30 10 0 0
-0.0384 0.0247 -0.1669 0.155 -0.959 -0.239 59 42 35 0 0
-0.0319 0.0349 -0.1794 -0.998 0.065 -0.007 59 42 34 0 0
-0.0316 0.0353 -0.1823 -0.937 0.097 0.336 59 42 34 0 0
-0.0287 0.0394 -0.1972 -0.586 -0.809 -0.040 57 40 32 0 0
-0.0126 0.0633 -0.2680 0.146 -0.964 -0.223 46 29 21 0 0
-0.0045 0.0723 -0.3722 -0.217 -0.748 0.628 58 36 28 0 0
-0.0071 0.0679 -0.3743 0.014 -1.000 -0.008 58 33 21 0 0
-0.0062 0.0691 -0.3806 -0.439 -0.789 -0.430 50 26 14 0 0
-0.0056 0.0700 -0.3839 -0.513 -0.857 0.047 49 25 13 0 0
-0.0303 0.0275 -0.4135 -0.541 -0.543 0.642 80 46 22 0 0
-0.0301 0.0278 -0.4165 -0.393 -0.885 0.250 76 37 11 0 0
-0.0305 0.0270 -0.4193 -0.430 -0.843 0.324 73 34 9 0 0
0.0131 0.0973 -0.4742 -0.229 -0.750 0.620 43 23 13 0 0
0.0166 0.0960 -0.6393 -0.459 -0.868 0.187 73 39 15 0 0
0.0159 0.0933 -0.6738 -0.350 -0.936 0.024 57 25 10 0 0
0.0159 0.0932 -0.6770 -0.350 -0.936 0.024 57 25 11 0 0
0.0094 0.0822 -0.6824 -0.288 -0.928 0.237 52 23 9 0 0
0.0075 0.0781 -0.7033 -0.396 -0.861 0.319 51 22 8 0 0
0.0067 0.0767 -0.7060 -0.466 -0.874 0.136 51 22 8 0 0
0.0082 0.0782 -0.7260 -0.775 -0.626 -0.091 52 20 7 0 0
0.0080 0.0778 -0.7290 -0.563 -0.822 -0.080 53 21 8 0 0
0.0076 0.0771 -0.7320 -0.300 -0.918 0.258 54 22 9 0 0
0.0003 0.0634 -0.7648 -0.746 -0.559 -0.362 59 26 9 0 0
-0.0131 0.0397 -0.7989 -0.487 -0.867 0.102 63 27 11 0 0
-0.0136 0.0387 -0.8017 0.006 -0.980 -0.199 62 27 10 0 0
-0.0120 0.0412 -0.8061 -0.470 -0.883 -0.009 63 27 10 0 0
-0.0114 0.0421 -0.8097 -0.520 -0.835 0.180 62 26 10 0 0
-0.0254 0.0170 -0.8485 -0.638 -0.682 0.358 81 44 17 0 0
-0.0252 0.0156 -0.8894 -0.537 -0.843 0.036 60 38 25 0 0
-0.0246 0.0165 -0.8931 -0.492 -0.805 -0.330 57 35 22 0 0
-0.0137 0.0335 -0.9186 -0.678 -0.647 -0.350 62 39 26 0 0
-0.0136 0.0329 -0.9378 -0.629 -0.753 0.194 65 36 19 0 0
-0.0141 0.0320 -0.9406 -0.407 -0.914 0.008 60 31 13 0 0
-0.0146 0.0309 -0.9433 -0.176 -0.954 0.245 55 26 10 0 0
-0.0185 0.0245 -0.9428 -0.676 -0.736 -0.006 55 26 12 0 0
-0.0198 0.0222 -0.9448 -0.395 -0.865 0.309 56 25 12 0 0
-0.0193 0.0226 -0.9580 -0.309 -0.906 0.290 68 39 22 0 0
-0.0479 -0.0268 -0.9961 -0.632 -0.599 0.492 71 51 40 0 0
-0.0538 -0.0386 -1.0430 -0.258 -0.816 -0.517 81 56 39 0 0
-0.0546 -0.0409 -1.0638 -0.083 -0.996 -0.009 78 56 43 0 0
-0.0517 -0.0363 -1.0701 -0.247 -0.946 0.211 75 55 42 0 0
-0.0456 -0.0273 -1.0989 0.142 -0.930 0.339 37 22 14 0 0
-0.0076 0.0913 0.0585 -0.653 -0.669 0.355 52 22 11 0 0
-0.0091 0.0886 0.0526 -0.667 -0.552 0.500 83 60 51 0 0
-0.0265 0.0576 0.0088 -0.453 -0.891 0.037 68 33 13 0 0
-0.0264 0.0577 0.0060 -0.456 -0.890 -0.006 68 33 13 0 0
-0.0268 0.0568 0.0031 -0.437 -0.866 0.242 66 31 12 0 0
-0.0271 0.0563 0.0003 -0.413 -0.881 0.229 60 29 9 0 0
-0.0273 0.0557 -0.0026 -0.413 -0.881 0.229 57 28 11 0 0
-0.0279 0.0504 -0.1054 -0.370 -0.614 0.698 65 36 24 0 0
-0.0394 0.0305 -0.1215 -0.527 -0.790 0.312 133 114 107 0 0
-0.0117 0.0705 -0.2689 -0.816 -0.558 0.148 44 27 20 0 0
-0.0065 0.0747 -0.3724 -0.505 -0.728 0.463 58 37 29 0 0
-0.0084 0.0714 -0.3778 -0.394 -0.915 0.089 52 28 17 0 0
-0.0088 0.0705 -0.3807 -0.329 -0.891 -0.313 50 26 15 0 0
-0.0085 0.0710 -0.3838 -0.229 -0.954 0.196 46 22 11 0 0
-0.0328 0.0289 -0.4165 -0.448 -0.857 0.253 75 36 10 0 0
-0.0331 0.0283 -0.4193 -0.578 -0.801 0.158 73 35 10 0 0
0.0110 0.0984 -0.5056 -0.839 -0.543 0.045 44 20 11 0 0
0.0070 0.0902 -0.5411 -0.461 -0.886 -0.039 48 24 11 0 0
0.0182 0.1070 -0.5847 -0.438 -0.899 -0.011 53 26 13 0 0
0.0162 0.1034 -0.5900 -0.338 -0.935 0.106 56 29 13 0 0
0.0056 0.0816 -0.6881 -0.076 -0.861 0.503 51 22 8 0 0
0.0045 0.0791 -0.7032 -0.366 -0.882 0.296 51 22 8 0 0
0.0039 0.0780 -0.7059 -0.396 -0.917 -0.035 51 22 8 0 0
0.0041 0.0781 -0.7092 -0.396 -0.917 -0.035 50 21 7 0 0
0.0042 0.0782 -0.7125 -0.463 -0.874 -0.145 50 21 7 0 0
0.0038 0.0774 -0.7154 -0.444 -0.896 0.017 48 19 5 0 0
0.0038 0.0773 -0.7186 -0.452 -0.891 0.030 49 20 6 0 0
0.0076 0.0832 -0.7275 -0.923 -0.348 0.161 51 21 7 0 0
0.0055 0.0797 -0.7292 -0.704 -0.710 0.017 52 22 8 0 0
0.0046 0.0781 -0.7318 -0.191 -0.937 0.292 52 22 8 0 0
0.0033 0.0754 -0.7404 -0.340 -0.899 0.277 54 22 10 0 0
0.0025 0.0736 -0.7526 -0.343 -0.919 -0.194 58 25 12 0 0
0.0001 0.0693 -0.7604 -0.036 -0.990 0.139 58 26 10 0 0
-0.0002 0.0688 -0.7634 0.003 -0.993 -0.117 58 27 10 0 0
-0.0002 0.0686 -0.7665 -0.136 -0.967 -0.217 58 25 8 0 0
-0.0027 0.0643 -0.7678 -0.376 -0.465 0.801 58 25 8 0 0
-0.0029 0.0639 -0.7709 -0.611 -0.631 0.478 59 26 9 0 0
-0.0044 0.0612 -0.7729 -0.509 -0.482 0.713 60 27 9 0 0
-0.0057 0.0589 -0.7751 -0.449 -0.622 0.641 62 29 11 0 0
-0.0097 0.0516 -0.7911 -0.128 -0.990 0.056 62 28 12 0 0
-0.0156 0.0417 -0.7928 -0.184 -0.834 0.521 63 28 11 0 0
-0.0153 0.0418 -0.7993 -0.694 -0.705 0.145 63 28 11 0 0
-0.0143 0.0434 -0.8033 -0.572 -0.765 0.294 62 28 10 0 0
-0.0140 0.0435 -0.8129 -0.596 -0.799 0.078 60 24 8 0 0
-0.0272 0.0200 -0.8462 -0.590 -0.759 0.275 80 42 11 0 0
-0.0297 0.0157 -0.8503 -0.625 -0.778 -0.059 85 49 22 0 0
-0.0279 0.0171 -0.8863 -0.090 -0.823 0.561 62 38 26 0 0
-0.0278 0.0172 -0.8895 -0.537 -0.843 0.036 60 37 24 0 0
-0.0269 0.0184 -0.8934 -0.619 -0.749 -0.235 57 35 22 0 0
-0.0179 0.0330 -0.9078 -0.307 -0.942 -0.136 51 29 17 0 0
-0.0327 0.0058 -0.9668 0.105 -0.922 0.373 102 88 79 0 0
-0.0472 -0.0194 -0.9870 -0.565 -0.455 0.688 103 90 83 0 0
-0.0484 -0.0214 -0.9890 -0.580 -0.814 0.013 96 83 77 0 0
-0.0483 -0.0214 -0.9922 -0.401 -0.916 0.005 82 69 62 0 0
-0.0485 -0.0219 -0.9952 -0.417 -0.906 0.074 77 61 52 0 0
-0.0476 -0.0209 -1.0086 -0.563 -0.737 0.375 54 24 11 0 0
-0.0558 -0.0349 -1.0125 -0.590 -0.619 0.518 52 23 8 0 0
-0.0555 -0.0357 -1.0439 -0.529 -0.652 0.544 81 56 40 0 0
-0.0044 0.1036 0.0878 -0.084 -0.866 0.492 161 141 131 0 0
-0.0097 0.0929 0.0469 -0.509 -0.834 -0.212 101 76 71 0 0
-0.0244 0.0675 0.0289 -0.157 -0.929 -0.334 164 146 139 0 0
-0.0248 0.0643 -0.0311 -0.552 -0.810 0.199 35 21 14 0 0
-0.0242 0.0651 -0.0369 -0.380 -0.864 -0.331 23 14 9 0 0
-0.0294 0.0536 -0.1056 -0.767 -0.166 0.620 64 35 24 0 0
-0.0479 0.0214 -0.1323 -0.386 -0.893 0.229 72 34 8 0 0
-0.0343 0.0415 -0.1943 -0.435 -0.900 -0.002 57 40 30 0 0
-0.0077 0.0800 -0.3397 -0.623 -0.678 -0.391 23 11 5 0 0
-0.0086 0.0773 -0.3697 -0.377 -0.892 0.248 30 19 13 0 0
-0.0091 0.0763 -0.3725 -0.348 -0.787 0.510 54 35 29 0 0
-0.0102 0.0743 -0.3752 -0.457 -0.889 -0.033 55 31 22 0 0
-0.0112 0.0724 -0.3808 -0.632 -0.774 -0.044 49 25 15 0 0
0.0095 0.1019 -0.5031 -0.663 -0.742 0.096 44 20 10 0 0
0.0097 0.1021 -0.5063 -0.322 -0.901 0.292 44 20 10 0 0
0.0078 0.0989 -0.5085 -0.498 -0.848 -0.182 43 19 10 0 0
0.0161 0.1094 -0.5883 -0.303 -0.951 -0.060 55 27 13 0 0
0.0075 0.0938 -0.6182 -0.590 -0.807 0.033 77 43 19 0 0
0.0080 0.0944 -0.6217 -0.435 -0.900 0.017 77 43 18 0 0
0.0005 0.0790 -0.6897 0.004 -0.777 0.630 52 23 9 0 0
0.0002 0.0759 -0.7497 -0.202 -0.941 0.270 55 21 9 0 0
-0.0002 0.0752 -0.7526 -0.246 -0.928 0.279 56 22 10 0 0
-0.0046 0.0671 -0.7685 -0.299 -0.659 0.690 60 27 10 0 0
-0.0131 0.0523 -0.7811 -0.270 -0.955 -0.120 64 31 12 0 0
-0.0126 0.0527 -0.7909 -0.029 -0.997 0.069 61 28 11 0 0
-0.0162 0.0463 -0.8008 -0.402 -0.888 0.225 62 29 10 0 0
-0.0320 0.0171 -0.8631 -0.588 -0.809 -0.022 85 56 32 0 0
-0.0187 0.0370 -0.9222 -0.637 -0.768 0.060 68 42 29 0 0
-0.0438 -0.0075 -0.9774 -0.464 -0.773 0.433 101 86 79 0 0
-0.0446 -0.0091 -0.9829 -0.148 -0.947 0.285 121 107 99 0 0
-0.0471 -0.0134 -0.9867 -0.500 -0.587 0.636 103 91 85 0 0
-0.0065 0.1057 0.0849 -0.646 -0.615 0.451 129 106 94 0 0
-0.0263 0.0701 0.0288 -0.379 -0.896 -0.232 158 140 133 0 0
-0.0297 0.0635 0.0116 -0.380 -0.915 0.138 63 28 8 0 0
-0.0283 0.0644 -0.0254 -0.722 -0.614 0.319 44 26 18 0 0
-0.0299 0.0613 -0.0340 -0.611 -0.750 0.253 27 15 9 0 0
-0.0293 0.0622 -0.0369 -0.560 -0.816 0.142 22 13 8 0 0
-0.0225 0.0714 -0.0919 -0.354 -0.785 0.508 41 17 9 0 0
-0.0310 0.0564 -0.1057 -0.662 -0.250 0.706 62 33 22 0 0
-0.0418 0.0379 -0.1162 -0.684 -0.730 0.013 111 88 81 0 0
-0.0392 0.0395 -0.1824 0.059 -0.859 -0.509 56 39 32 0 0
-0.0153 0.0750 -0.2933 -0.600 -0.770 -0.215 34 17 8 0 0
-0.0214 0.0637 -0.3184 -0.684 -0.705 0.189 64 33 14 0 0
-0.0132 0.0752 -0.3751 -0.391 -0.878 -0.278 57 33 24 0 0
-0.0146 0.0727 -0.3776 -0.579 -0.611 0.539 47 23 13 0 0
-0.0397 0.0288 -0.4159 -0.437 -0.713 0.549 79 40 16 0 0
0.0111 0.1107 -0.5052 -0.597 -0.537 0.596 44 20 10 0 0
0.0077 0.1048 -0.5067 -0.502 -0.790 0.353 44 20 10 0 0
0.0048 0.0999 -0.5085 -0.246 -0.964 -0.099 44 19 10 0 0
0.0057 0.1011 -0.5151 -0.355 -0.934 0.049 37 17 8 0 0
0.0056 0.1007 -0.5213 -0.098 -0.993 -0.067 43 19 12 0 0
0.0055 0.1002 -0.5275 -0.404 -0.912 0.069 44 20 10 0 0
0.0037 0.0938 -0.6082 -0.449 -0.893 0.033 59 28 9 0 0
0.0048 0.0952 -0.6182 -0.699 -0.714 -0.016 72 38 14 0 0
0.0050 0.0954 -0.6215 -0.629 -0.775 0.062 74 40 15 0 0
0.0049 0.0952 -0.6246 -0.629 -0.775 0.062 77 43 18 0 0
0.0013 0.0871 -0.6698 -0.378 -0.915 0.139 60 29 11 0 0
0.0005 0.0857 -0.6725 0.082 -0.918 0.388 57 28 12 0 0
-0.0013 0.0819 -0.6903 -0.397 -0.917 -0.027 52 23 9 0 0
-0.0002 0.0825 -0.7228 -0.438 -0.899 0.020 49 20 6 0 0
-0.0029 0.0768 -0.7495 -0.229 -0.923 -0.310 55 21 9 0 0
-0.0189 0.0475 -0.8039 -0.130 -0.900 0.416 62 29 10 0 0
-0.0307 0.0261 -0.8415 -0.475 -0.845 0.246 70 33 8 0 0
-0.0313 0.0250 -0.8441 -0.265 -0.864 0.429 73 36 8 0 0
-0.0277 0.0279 -0.9197 -0.712 -0.381 0.589 69 43 28 0 0
-0.0412 0.0031 -0.9701 -0.791 -0.581 0.193 107 93 86 0 0
-0.0456 -0.0052 -0.9909 -0.411 -0.906 -0.104 106 95 88 0 0
-0.0602 -0.0306 -1.0103 -0.413 -0.908 -0.062 54 25 11 0 0
-0.0600 -0.0303 -1.0137 -0.406 -0.907 0.112 54 25 9 0 0
-0.0634 -0.0374 -1.0442 -0.606 -0.776 0.175 79 56 40 0 0
-0.0615 -0.0352 -1.0681 -0.160 -0.940 0.302 77 58 43 0 0
-0.0565 -0.0278 -1.0892 -0.298 -0.954 -0.004 43 28 22 0 0
-0.0570 -0.0288 -1.0982 -0.190 -0.978 -0.084 38 21 13 0 0
-0.0608 -0.0356 -1.1032 -0.285 -0.771 0.570 45 27 14 0 0
-0.0618 -0.0374 -1.1084 -0.590 -0.692 0.415 64 37 20 0 0
-0.0634 -0.0401 -1.1098 -0.158 -0.976 0.153 70 39 18 0 0
-0.0139 0.0984 0.0700 -0.522 -0.850 -0.070 56 24 7 0 0
-0.0300 0.0672 -0.0226 -0.612 -0.790 -0.035 42 26 17 0 0
-0.0312 0.0646 -0.0369 -0.846 -0.530 0.065 22 13 8 0 0
-0.0339 0.0600 -0.0398 -0.309 -0.939 0.151 19 13 9 0 0
-0.0312 0.0619 -0.1031 -0.236 -0.748 0.620 60 32 21 0 0
-0.0518 0.0259 -0.1353 -0.416 -0.886 0.204 70 33 13 0 0
-0.0543 0.0214 -0.1379 -0.621 -0.764 0.172 63 32 14 0 0
-0.0398 0.0440 -0.1828 -0.027 -0.905 -0.425 54 39 32 0 0
-0.0388 0.0448 -0.2061 -0.856 -0.461 -0.233 52 37 30 0 0
-0.0176 0.0769 -0.2934 -0.600 -0.770 -0.215 36 19 11 0 0
-0.0194 0.0699 -0.3919 -0.748 -0.370 0.551 63 37 27 0 0
-0.0203 0.0682 -0.3946 -0.694 -0.439 0.571 61 31 19 0 0
-0.0407 0.0330 -0.4136 -0.627 -0.633 0.453 85 50 30 0 0
-0.0424 0.0301 -0.4159 -0.384 -0.859 0.339 77 38 16 0 0
-0.0361 0.0394 -0.4453 -0.158 -0.736 -0.659 71 45 31 0 0
-0.0109 0.0811 -0.4654 -0.053 -0.517 -0.854 51 31 23 0 0
-0.0024 0.0952 -0.4722 0.068 -0.962 0.263 43 23 14 0 0
0.0011 0.1008 -0.4800 -0.237 -0.972 -0.005 44 24 13 0 0
0.0008 0.0952 -0.6018 -0.432 -0.692 0.578 58 29 12 0 0
0.0025 0.0974 -0.6186 -0.699 -0.714 -0.016 74 40 16 0 0
-0.0020 0.0891 -0.6348 -0.571 -0.817 0.078 82 50 25 0 0
-0.0015 0.0898 -0.6382 -0.561 -0.814 -0.151 82 50 25 0 0
-0.0006 0.0911 -0.6419 -0.477 -0.875 -0.087 82 50 25 0 0
-0.0010 0.0893 -0.6702 -0.537 -0.829 0.158 58 27 9 0 0
-0.0027 0.0858 -0.6849 -0.863 -0.478 0.165 49 20 6 0 0
-0.0034 0.0834 -0.7161 -0.228 -0.908 0.352 51 22 8 0 0
-0.0039 0.0820 -0.7285 -0.238 -0.971 -0.027 50 21 7 0 0
-0.0203 0.0516 -0.7955 -0.332 -0.941 0.067 61 28 9 0 0
-0.0203 0.0514 -0.7987 -0.332 -0.941 0.067 62 29 10 0 0
-0.0215 0.0492 -0.8008 -0.597 -0.672 0.437 62 29 10 0 0
-0.0254 0.0421 -0.8167 -0.059 -0.921 0.384 59 28 10 0 0
-0.0291 0.0350 -0.8356 -0.632 -0.766 0.120 61 26 7 0 0
-0.0280 0.0341 -0.9029 -0.726 -0.684 -0.073 53 30 21 0 0
-0.0277 0.0344 -0.9063 -0.570 -0.791 -0.222 52 30 18 0 0
-0.0329 0.0250 -0.9238 -0.410 -0.912 -0.020 73 47 32 0 0
-0.0335 0.0238 -0.9263 -0.208 -0.927 -0.313 70 44 28 0 0
-0.0291 0.0303 -0.9495 -0.374 -0.927 -0.034 64 31 12 0 0
-0.0479 -0.0031 -0.9881 -0.266 -0.962 0.056 126 112 106 0 0
-0.0483 -0.0039 -0.9908 -0.411 -0.906 -0.104 114 102 96 0 0
-0.0544 -0.0143 -0.9941 -0.133 -0.906 0.402 81 67 61 0 0
-0.0665 -0.0395 -1.1092 -0.158 -0.976 0.153 70 40 17 0 0
-0.0646 -0.0373 -1.1333 -0.293 -0.947 0.134 81 58 43 0 0
-0.0336 0.0664 -0.0341 -0.462 -0.886 0.049 25 14 8 0 0
-0.0336 0.0662 -0.0370 -0.462 -0.886 0.049 21 14 8 0 0
-0.0329 0.0649 -0.1003 -0.379 -0.921 0.087 61 39 28 0 0
-0.0327 0.0651 -0.1032 -0.476 -0.865 0.159 58 30 21 0 0
-0.0353 0.0606 -0.1059 -0.374 -0.559 0.740 62 34 23 0 0
-0.0551 0.0259 -0.1325 -0.578 -0.816 0.007 69 32 13 0 0
-0.0541 0.0276 -0.1354 -0.294 -0.924 0.243 66 31 14 0 0
-0.0564 0.0235 -0.1380 -0.671 -0.719 0.182 62 33 17 0 0
-0.0345 0.0569 -0.2250 -0.970 0.034 0.242 48 33 28 0 0
-0.0199 0.0753 -0.3837 -0.614 -0.689 0.385 45 23 12 0 0
-0.0388 0.0407 -0.4453 0.100 -0.856 -0.507 71 46 33 0 0
-0.0014 0.0974 -0.6053 -0.629 -0.765 0.135 56 29 11 0 0
-0.0003 0.0986 -0.6217 -0.541 -0.813 0.215 75 40 15 0 0
-0.0035 0.0928 -0.6292 -0.739 -0.664 -0.117 77 43 18 0 0
-0.0035 0.0925 -0.6356 -0.387 -0.910 0.151 80 46 21 0 0
-0.0040 0.0916 -0.6384 -0.519 -0.843 0.145 80 46 21 0 0
-0.0051 0.0878 -0.6883 -0.489 -0.827 -0.278 48 18 6 0 0
-0.0209 0.0566 -0.7940 -0.347 -0.937 -0.045 59 26 9 0 0
-0.0315 0.0369 -0.8359 -0.632 -0.766 0.120 66 29 11 0 0
-0.0380 0.0254 -0.8493 -0.078 -0.983 0.164 80 43 16 0 0
-0.0383 0.0248 -0.8522 -0.059 -0.996 0.067 82 47 19 0 0
-0.0352 0.0291 -0.8737 -0.257 -0.923 0.287 77 50 29 0 0
-0.0300 0.0365 -0.9067 -0.727 -0.683 -0.073 52 30 17 0 0
-0.0335 0.0297 -0.9256 -0.212 -0.909 -0.359 73 47 32 0 0
-0.0429 0.0119 -0.9737 -0.101 -0.928 0.357 111 96 89 0 0
-0.0513 -0.0029 -0.9874 -0.577 -0.778 0.251 116 103 98 0 0
-0.0514 -0.0033 -0.9904 -0.790 -0.613 -0.026 112 102 98 0 0
-0.0607 -0.0194 -0.9997 -0.580 -0.809 0.096 59 37 22 0 0
-0.0695 -0.0391 -1.1150 -0.172 -0.984 0.055 83 58 37 0 0
-0.0674 -0.0362 -1.1332 -0.446 -0.882 0.154 80 58 43 0 0
-0.0356 0.0688 -0.0313 -0.160 -0.987 -0.009 34 20 14 0 0
-0.0355 0.0689 -0.0342 -0.712 -0.698 -0.077 23 12 7 0 0
-0.0251 0.0860 -0.0488 -0.745 -0.195 -0.639 7 6 4 0 0
-0.0223 0.0906 -0.0518 -0.909 -0.038 -0.414 5 4 2 0 0
-0.0401 0.0581 -0.1086 0.092 -0.624 0.776 57 30 19 0 0
-0.0568 0.0286 -0.1354 -0.596 -0.758 0.265 55 26 12 0 0
-0.0450 0.0456 -0.2089 -0.310 -0.932 -0.187 51 37 30 0 0
-0.0374 0.0578 -0.2250 -0.908 0.014 0.419 48 33 28 0 0
-0.0211 0.0823 -0.3060 -0.438 -0.894 -0.099 54 34 28 0 0
-0.0213 0.0788 -0.3842 -0.764 -0.580 0.282 42 20 10 0 0
-0.0354 0.0541 -0.4000 -0.189 -0.396 0.898 53 25 13 0 0
-0.0464 0.0346 -0.4194 -0.526 -0.815 0.242 68 34 9 0 0
-0.0466 0.0335 -0.4371 -0.422 -0.899 -0.116 73 48 35 0 0
-0.0464 0.0337 -0.4401 -0.543 -0.840 0.023 76 53 41 0 0
-0.0057 0.1013 -0.4826 -0.261 -0.880 0.398 44 24 13 0 0
-0.0065 0.0998 -0.4853 -0.612 -0.724 0.319 44 23 12 0 0
-0.0042 0.1014 -0.5393 -0.453 -0.808 0.377 46 22 12 0 0
-0.0028 0.1007 -0.6156 -0.379 -0.904 -0.199 64 32 10 0 0
-0.0042 0.0979 -0.6242 -0.469 -0.881 -0.060 76 40 16 0 0
-0.0054 0.0955 -0.6329 -0.398 -0.844 0.358 79 45 20 0 0
-0.0063 0.0937 -0.6387 -0.463 -0.877 0.127 75 41 17 0 0
-0.0080 0.0887 -0.6914 -0.341 -0.932 -0.122 49 20 6 0 0
-0.0087 0.0871 -0.7004 -0.325 -0.906 0.270 52 23 9 0 0
-0.0096 0.0852 -0.7125 -0.355 -0.915 0.192 54 25 11 0 0
-0.0092 0.0833 -0.7732 -0.836 -0.500 -0.228 62 29 12 0 0
-0.0204 0.0642 -0.7744 -0.823 -0.519 0.229 61 28 9 0 0
-0.0258 0.0539 -0.8018 -0.684 -0.596 0.421 58 25 8 0 0
-0.0405 0.0272 -0.8464 -0.297 -0.943 0.148 81 44 15 0 0
-0.0412 0.0258 -0.8488 -0.180 -0.969 0.170 82 45 18 0 0
-0.0414 0.0253 -0.8518 -0.180 -0.969 0.170 83 48 20 0 0
-0.0417 0.0248 -0.8547 -0.180 -0.969 0.170 83 48 23 0 0
-0.0387 0.0293 -0.8698 -0.733 -0.677 -0.068 80 50 28 0 0
-0.0370 0.0299 -0.9250 -0.389 -0.921 0.012 71 45 30 0 0
-0.0370 0.0294 -0.9344 -0.572 -0.594 0.565 65 35 15 0 0
-0.0368 0.0297 -0.9378 -0.661 -0.748 0.060 62 31 10 0 0
-0.0542 -0.0018 -0.9840 -0.391 -0.897 0.208 120 107 99 0 0
-0.0552 -0.0036 -0.9861 -0.472 -0.876 0.103 109 96 91 0 0
-0.0547 -0.0028 -0.9898 -0.636 -0.750 -0.182 101 90 86 0 0
-0.0619 -0.0153 -0.9950 -0.497 -0.799 0.338 78 61 53 0 0
-0.0629 -0.0174 -1.0033 -0.042 -0.972 0.230 58 31 17 0 0
-0.0702 -0.0323 -1.0641 -0.663 -0.711 -0.234 77 55 41 0 0
-0.0662 -0.0259 -1.0748 -0.263 -0.795 0.546 75 56 42 0 0
-0.0406 0.0685 0.0284 -0.441 -0.875 -0.200 135 118 109 0 0
-0.0416 0.0650 -0.0142 -0.651 -0.673 -0.350 36 16 9 0 0
-0.0324 0.0781 -0.0776 -0.749 -0.653 -0.114 47 36 28 0 0
-0.0398 0.0595 -0.2250 -0.313 -0.874 -0.373 48 33 28 0 0
-0.0194 0.0890 -0.3586 -0.747 -0.646 0.157 22 12 10 0 0
-0.0228 0.0824 -0.3786 -0.535 -0.749 0.391 51 29 16 0 0
-0.0238 0.0803 -0.3843 -0.616 -0.752 0.235 45 22 12 0 0
-0.0238 0.0803 -0.3873 -0.487 -0.755 0.439 43 18 11 0 0
-0.0483 0.0371 -0.4227 -0.702 -0.706 0.094 65 30 11 0 0
-0.0490 0.0351 -0.4402 -0.776 -0.604 0.184 76 53 41 0 0
-0.0066 0.1061 -0.4741 -0.349 -0.933 0.091 39 20 10 0 0
-0.0071 0.1052 -0.4770 -0.342 -0.915 0.212 42 22 13 0 0
-0.0076 0.1025 -0.5172 -0.503 -0.859 0.092 46 22 12 0 0
-0.0093 0.0952 -0.6291 -0.341 -0.940 -0.019 72 38 13 0 0
-0.0085 0.0950 -0.6675 -0.860 -0.469 -0.202 56 24 9 0 0
-0.0087 0.0936 -0.6928 -0.058 -0.981 0.187 52 23 9 0 0
-0.0114 0.0883 -0.7100 -0.203 -0.977 0.063 54 25 11 0 0
-0.0116 0.0873 -0.7257 -0.307 -0.826 -0.473 58 26 11 0 0
-0.0240 0.0639 -0.7800 -0.244 -0.917 0.316 55 22 7 0 0
-0.0268 0.0587 -0.7937 -0.347 -0.937 -0.045 58 25 8 0 0
-0.0281 0.0560 -0.8021 -0.402 -0.788 0.467 58 25 8 0 0
-0.0438 0.0273 -0.8489 -0.202 -0.979 0.025 81 44 17 0 0
-0.0440 0.0269 -0.8519 -0.136 -0.970 0.203 82 46 19 0 0
-0.0433 0.0266 -0.8901 -0.155 -0.981 -0.116 60 38 24 0 0
-0.0357 0.0390 -0.9065 -0.483 -0.859 -0.170 51 29 16 0 0
-0.0354 0.0392 -0.9099 -0.787 -0.603 -0.132 49 27 14 0 0
-0.0656 -0.0159 -0.9970 -0.242 -0.857 0.455 65 47 36 0 0
-0.0696 -0.0235 -1.0178 -0.329 -0.939 0.096 57 28 12 0 0
-0.0661 -0.0233 -1.1599 -0.409 -0.911 -0.052 62 44 37 0 0
-0.0364 0.0820 0.0430 -0.330 -0.544 0.771 108 85 78 0 0
-0.0432 0.0697 0.0284 -0.423 -0.888 -0.181 134 117 107 0 0
-0.0421 0.0709 0.0114 -0.679 -0.733 -0.049 53 24 8 0 0
-0.0420 0.0709 0.0085 -0.336 -0.942 -0.009 52 24 10 0 0
-0.0417 0.0713 0.0057 -0.405 -0.894 0.192 50 23 10 0 0
-0.0403 0.0722 -0.0314 -0.341 -0.894 -0.289 33 19 15 0 0
-0.0335 0.0815 -0.0923 -0.545 -0.806 0.228 37 18 11 0 0
-0.0608 0.0329 -0.1385 -0.552 -0.832 0.051 46 20 8 0 0
-0.0607 0.0327 -0.1470 -0.690 -0.695 0.203 48 24 14 0 0
-0.0610 0.0321 -0.1498 -0.690 -0.695 0.203 49 30 22 0 0
-0.0296 0.0814 -0.2604 -0.762 0.008 -0.647 45 31 21 0 0
-0.0310 0.0762 -0.3286 -0.624 -0.689 0.369 55 26 13 0 0
-0.0296 0.0785 -0.3321 -0.632 -0.723 0.279 57 32 18 0 0
-0.0300 0.0775 -0.3379 -0.449 -0.638 0.626 28 13 10 0 0
-0.0262 0.0822 -0.3844 -0.613 -0.763 0.205 44 21 12 0 0
-0.0504 0.0392 -0.4229 -0.702 -0.706 0.094 62 28 10 0 0
-0.0513 0.0372 -0.4344 -0.217 -0.970 0.111 68 40 24 0 0
-0.0505 0.0383 -0.4407 -0.493 -0.870 0.034 71 50 37 0 0
-0.0344 0.0654 -0.4507 -0.188 -0.372 -0.909 67 43 30 0 0
-0.0122 0.0964 -0.6291 -0.548 -0.827 0.127 71 36 12 0 0
-0.0155 0.0869 -0.7250 -0.804 -0.558 -0.205 58 26 11 0 0
-0.0284 0.0618 -0.7977 -0.978 -0.132 -0.164 58 25 8 0 0
