ply
format ascii 1.0
element vertex 856
property float x
property float y
property float z
property float nx
property float ny
property float nz
property uchar diffuse_red
property uchar diffuse_green
property uchar diffuse_blue
property uchar class
property uchar detection
end_header
-0.0478 0.0396 -0.4128 -0.586 -0.443 0.679 105 92 83 0 0
-0.0488 0.0400 -0.4158 -0.849 -0.078 0.522 110 93 81 0 0
-0.0530 0.0426 -0.4181 -0.943 -0.028 0.332 110 90 78 0 0
-0.0572 0.0452 -0.4204 -0.857 0.497 -0.137 109 88 77 0 0
-0.0638 0.0494 -0.4221 -0.955 -0.284 0.084 105 83 72 0 0
-0.0740 0.0347 -0.9679 -0.653 0.154 0.742 89 68 58 0 0
-0.0986 0.0498 -0.9818 0.082 0.415 0.906 80 58 44 0 0
-0.1494 0.0801 -1.0372 -0.817 0.433 -0.380 82 54 32 0 0
-0.1575 0.0830 -1.0933 -0.965 -0.251 -0.071 66 48 40 0 0
-0.1250 0.1033 -0.1307 -0.971 0.094 0.222 82 59 45 0 0
-0.0491 0.0440 -0.4155 -0.891 -0.121 0.438 99 81 71 0 0
-0.0770 0.0406 -0.9655 -0.635 -0.022 0.772 88 67 56 0 0
-0.0785 0.0414 -0.9681 -0.741 0.647 0.181 84 62 50 0 0
-0.0827 0.0439 -0.9727 -0.706 0.634 0.316 81 59 46 0 0
-0.1482 0.0844 -1.0032 -0.122 0.899 0.422 87 64 50 0 0
-0.1442 0.0804 -1.0396 -0.955 -0.128 -0.269 82 53 31 0 0
-0.1143 0.0997 -0.1405 -0.747 -0.390 -0.538 69 47 32 0 0
-0.0905 0.0737 -0.4247 -0.769 -0.638 0.040 95 73 56 0 0
-0.0828 0.0480 -0.9684 -0.495 0.494 0.715 81 59 46 0 0
-0.0809 0.0466 -0.9729 -0.822 0.490 0.291 80 58 44 0 0
-0.0805 0.0462 -0.9766 -0.493 0.469 -0.733 78 56 42 0 0
-0.1386 0.0824 -0.9945 -0.812 -0.072 -0.579 79 53 39 0 0
-0.1223 0.1081 -0.1459 -0.811 0.254 -0.528 63 43 32 0 0
-0.0574 0.0401 -0.8560 -0.317 0.921 0.227 113 98 88 0 0
-0.1269 0.0798 -0.9666 -0.026 0.853 -0.521 79 56 42 0 0
-0.1481 0.0905 -1.0388 -0.567 -0.598 0.567 82 51 30 0 0
-0.1813 0.1117 -1.0313 -0.823 0.316 0.473 88 62 42 0 0
-0.1810 0.1114 -1.0348 -0.664 0.727 0.177 88 65 46 0 0
-0.1857 0.1103 -1.1424 -0.420 0.906 0.054 91 71 56 0 0
-0.1870 0.1110 -1.1449 -0.547 0.836 -0.049 90 73 56 0 0
-0.0546 0.0664 -0.2144 0.308 0.897 0.315 130 128 128 0 0
-0.0717 0.0699 -0.4094 -0.779 -0.613 -0.131 90 72 64 0 0
-0.0990 0.0866 -0.4221 -0.802 -0.419 0.425 92 68 52 0 0
-0.0422 0.0347 -0.8488 -0.572 -0.249 0.781 105 87 76 0 0
-0.0537 0.0419 -0.8502 -0.722 -0.460 0.517 97 77 65 0 0
-0.0648 0.0487 -0.8552 -0.721 -0.588 0.366 102 82 68 0 0
-0.0587 0.0410 -0.9557 -0.728 -0.684 -0.045 97 78 70 0 0
-0.1385 0.0909 -0.9659 -0.845 -0.112 -0.523 79 56 41 0 0
-0.1344 0.0879 -0.9751 -0.823 -0.568 -0.006 80 55 41 0 0
-0.1619 0.1031 -1.0326 -0.421 0.119 0.899 81 50 29 0 0
-0.1709 0.1067 -1.0875 -0.680 0.712 -0.176 63 45 33 0 0
-0.0586 0.0769 -0.1043 -0.510 -0.582 0.633 98 89 84 0 0
-0.1124 0.1101 -0.1164 -0.730 0.034 0.682 86 67 59 0 0
-0.1109 0.1080 -0.1467 -0.770 -0.352 -0.532 63 45 30 0 0
-0.0745 0.0755 -0.4052 -0.654 -0.449 0.609 88 73 68 0 0
-0.0801 0.0790 -0.4072 -0.869 -0.394 0.298 86 68 61 0 0
-0.0932 0.0863 -0.4296 -0.948 -0.250 -0.196 85 60 44 0 0
-0.0337 0.0335 -0.8417 -0.401 -0.451 0.797 108 91 83 0 0
-0.0468 0.0414 -0.8494 -0.625 0.004 0.781 92 70 57 0 0
-0.0515 0.0444 -0.8506 -0.735 -0.162 0.658 90 68 53 0 0
-0.1383 0.0943 -0.9720 -0.794 -0.247 -0.555 80 56 40 0 0
-0.1385 0.0930 -1.0091 0.178 0.984 -0.030 89 71 60 0 0
-0.1708 0.1104 -1.0866 -0.890 -0.141 -0.433 60 42 29 0 0
-0.1673 0.1079 -1.0924 -0.597 0.764 0.244 61 42 30 0 0
-0.1828 0.1159 -1.1392 -0.905 0.132 -0.403 90 68 50 0 0
-0.1877 0.1190 -1.1391 -0.644 0.758 0.101 92 71 52 0 0
-0.0679 0.0904 0.0063 -0.857 0.515 0.015 37 17 8 0 0
-0.0631 0.0870 -0.0058 -0.931 0.273 -0.243 40 20 11 0 0
-0.0524 0.0793 -0.0335 -0.888 0.390 -0.243 79 69 65 0 0
-0.0853 0.0971 -0.1059 -0.223 0.399 0.889 93 84 79 0 0
-0.1137 0.1145 -0.1163 -0.792 0.356 0.496 88 68 59 0 0
-0.0493 0.0700 -0.2307 0.141 0.951 0.274 141 137 138 0 0
-0.0830 0.0845 -0.4062 -0.484 0.391 0.783 85 68 62 0 0
-0.0830 0.0843 -0.4094 -0.551 -0.259 0.794 84 65 54 0 0
-0.0395 0.0410 -0.8453 -0.201 0.244 0.949 90 71 61 0 0
-0.0435 0.0434 -0.8468 -0.259 0.407 0.876 89 68 55 0 0
-0.0461 0.0449 -0.8491 -0.321 0.598 0.734 89 66 51 0 0
-0.1377 0.0976 -0.9715 -0.181 0.769 -0.613 81 54 40 0 0
-0.1507 0.1040 -1.0177 -0.924 -0.339 -0.176 94 75 68 0 0
-0.1124 0.1174 -0.1133 -0.789 -0.246 0.564 87 70 63 0 0
-0.1113 0.1165 -0.1164 -0.798 0.428 0.423 85 65 55 0 0
-0.1207 0.1214 -0.1428 -0.675 -0.386 -0.629 65 39 27 0 0
-0.1172 0.1182 -0.1703 -0.631 0.764 0.133 69 60 55 0 0
-0.1185 0.1189 -0.1732 -0.993 0.120 0.018 74 62 59 0 0
-0.0842 0.0889 -0.4057 -0.456 0.289 0.842 85 68 63 0 0
-0.0248 0.0361 -0.8341 -0.496 -0.534 0.685 103 88 79 0 0
-0.0446 0.0480 -0.8456 -0.030 0.909 0.416 85 62 48 0 0
-0.0948 0.0751 -0.9578 -0.793 -0.558 -0.246 80 57 42 0 0
-0.1339 0.0986 -0.9831 -0.852 0.172 -0.494 81 55 40 0 0
-0.1445 0.1037 -1.0240 -0.805 -0.119 -0.581 90 69 58 0 0
-0.1863 0.1287 -1.0513 -0.985 0.170 0.008 80 60 48 0 0
-0.1947 0.1315 -1.1156 -0.706 0.607 0.365 89 64 44 0 0
-0.1848 0.1247 -1.1358 -0.952 0.106 -0.288 83 60 42 0 0
-0.1837 0.1238 -1.1400 -0.909 0.217 -0.355 80 57 39 0 0
-0.0523 0.0866 -0.0305 -0.883 0.213 -0.417 39 20 13 0 0
-0.0512 0.0858 -0.0336 -0.859 0.239 -0.453 40 22 14 0 0
-0.0498 0.0848 -0.0367 -0.849 0.194 -0.492 50 37 29 0 0
-0.0480 0.0836 -0.0398 -0.839 0.134 -0.528 80 70 68 0 0
-0.0435 0.0801 -0.0585 -0.208 0.842 -0.498 179 180 182 0 0
-0.1153 0.1226 -0.1161 -0.886 -0.237 0.399 80 62 53 0 0
-0.1185 0.1227 -0.1671 -0.652 0.753 0.084 66 55 51 0 0
-0.1169 0.1215 -0.1733 -0.628 0.772 0.095 71 60 56 0 0
-0.1159 0.1207 -0.1764 -0.996 0.006 -0.093 72 60 57 0 0
-0.0636 0.0802 -0.3973 -0.474 -0.120 0.872 87 76 74 0 0
-0.0842 0.0926 -0.4054 -0.655 -0.134 0.744 82 69 64 0 0
-0.0372 0.0476 -0.8380 -0.639 -0.181 0.747 87 69 57 0 0
-0.1334 0.1019 -0.9859 -0.880 -0.370 0.298 80 57 41 0 0
-0.1447 0.1074 -1.0264 -0.156 -0.019 0.987 90 65 55 0 0
-0.1873 0.1333 -1.0431 -0.881 0.131 0.455 73 51 37 0 0
-0.1933 0.1343 -1.1156 -0.858 0.192 0.477 86 62 42 0 0
-0.1850 0.1285 -1.1347 -0.996 -0.085 0.026 87 64 46 0 0
-0.1884 0.1298 -1.1559 0.011 0.029 1.000 118 110 101 0 0
-0.0681 0.1008 -0.0091 -0.801 0.432 0.414 38 18 11 0 0
-0.0508 0.0892 -0.0336 -0.829 0.230 -0.510 39 21 13 0 0
-0.0492 0.0881 -0.0367 -0.829 0.230 -0.510 38 21 14 0 0
-0.0469 0.0846 -0.0925 -0.764 -0.644 0.037 79 63 53 0 0
-0.1172 0.1253 -0.1701 -0.725 0.354 0.591 67 56 52 0 0
-0.1159 0.1243 -0.1763 -0.971 0.161 0.178 70 59 55 0 0
-0.0595 0.0814 -0.3947 -0.406 -0.066 0.912 86 75 73 0 0
-0.0895 0.0995 -0.4071 -0.490 -0.280 0.826 77 61 52 0 0
-0.1042 0.1084 -0.4131 -0.782 -0.357 0.511 92 69 53 0 0
-0.0190 0.0406 -0.8250 -0.650 -0.575 0.498 105 88 81 0 0
-0.0342 0.0497 -0.8354 -0.627 0.777 -0.060 85 67 54 0 0
-0.0409 0.0538 -0.8357 -0.375 0.895 -0.241 86 65 53 0 0
-0.0884 0.0825 -0.8539 -0.869 -0.494 -0.026 88 61 41 0 0
-0.0931 0.0846 -0.8786 -0.834 -0.156 -0.530 110 95 88 0 0
-0.1547 0.1183 -0.9993 -0.852 0.511 0.114 94 77 66 0 0
-0.1511 0.1156 -1.0116 -0.703 0.126 -0.700 96 80 70 0 0
-0.1481 0.1136 -1.0167 -0.752 0.087 -0.654 94 76 66 0 0
-0.1490 0.1140 -1.0196 -0.874 -0.002 -0.486 90 70 59 0 0
-0.1822 0.1328 -1.0688 -0.809 0.438 -0.391 76 57 43 0 0
-0.1890 0.1370 -1.0677 -0.981 -0.084 0.177 74 56 44 0 0
-0.1866 0.1331 -1.1360 -0.986 0.012 0.164 88 65 47 0 0
-0.2419 0.1668 -1.1494 -0.112 -0.110 0.988 198 198 198 0 0
-0.0603 0.0992 -0.0183 -0.982 0.185 -0.024 38 18 11 0 0
-0.0587 0.0977 -0.0336 -0.675 0.726 -0.133 37 18 11 0 0
-0.0467 0.0898 -0.0461 -0.996 -0.023 0.089 180 179 181 0 0
-0.0306 0.0793 -0.0620 -0.272 0.927 -0.256 180 181 183 0 0
-0.0297 0.0787 -0.0652 -0.272 0.927 -0.256 179 180 182 0 0
-0.1160 0.1281 -0.1702 -0.770 0.470 0.432 66 55 51 0 0
-0.1182 0.1293 -0.1730 -0.857 0.364 0.365 68 57 53 0 0
-0.1204 0.1305 -0.1788 -0.784 0.598 0.166 67 56 52 0 0
-0.0393 0.0773 -0.2666 0.257 0.944 0.208 124 121 120 0 0
-0.0408 0.0766 -0.3112 -0.099 0.801 -0.590 116 108 106 0 0
-0.0674 0.0899 -0.3959 -0.631 -0.342 0.697 83 72 70 0 0
-0.0867 0.1017 -0.4011 -0.882 -0.196 0.428 82 67 66 0 0
-0.0231 0.0483 -0.7911 -0.057 0.850 -0.523 209 209 209 0 0
-0.0205 0.0465 -0.7958 0.022 0.858 -0.513 209 209 209 0 0
-0.0147 0.0428 -0.8018 0.022 0.858 -0.513 205 205 205 0 0
-0.0090 0.0390 -0.8079 0.022 0.858 -0.513 182 179 177 0 0
-0.0380 0.0558 -0.8364 -0.347 0.857 -0.381 83 60 46 0 0
-0.1293 0.1069 -0.9834 -0.818 0.172 0.548 82 59 46 0 0
-0.1829 0.1372 -1.0575 -0.843 0.501 -0.195 80 58 44 0 0
-0.1826 0.1353 -1.1077 -0.709 0.705 -0.000 70 44 32 0 0
-0.0563 0.0998 -0.0337 -0.675 0.726 -0.133 36 17 10 0 0
-0.0467 0.0935 -0.0461 -0.996 -0.023 0.089 169 167 169 0 0
-0.0440 0.0917 -0.0493 -0.802 0.002 0.597 179 180 183 0 0
-0.0256 0.0799 -0.0622 -0.800 0.505 0.326 179 181 183 0 0
-0.0263 0.0802 -0.0653 -0.683 0.726 0.080 176 177 179 0 0
-0.1342 0.1440 -0.1356 -0.983 -0.045 -0.177 72 45 30 0 0
-0.1337 0.1433 -0.1505 -0.942 -0.232 -0.243 61 48 41 0 0
-0.1268 0.1385 -0.1631 -0.810 0.265 -0.523 63 52 48 0 0
-0.1165 0.1318 -0.1731 -0.803 0.594 0.052 65 54 50 0 0
-0.1116 0.1287 -0.1766 -0.676 0.668 0.310 66 55 51 0 0
-0.1189 0.1331 -0.1789 -0.961 0.260 0.094 65 54 50 0 0
-0.1196 0.1334 -0.1818 -0.966 0.125 0.228 66 55 50 0 0
-0.0358 0.0772 -0.3119 -0.826 -0.013 -0.564 98 86 82 0 0
-0.0554 0.0885 -0.3341 -0.034 0.423 0.906 179 179 180 0 0
-0.0240 0.0532 -0.7797 -0.131 0.873 -0.469 209 209 209 0 0
-0.0216 0.0515 -0.7842 -0.129 0.851 -0.509 209 209 210 0 0
-0.0148 0.0470 -0.7942 -0.057 0.850 -0.523 207 206 206 0 0
-0.0811 0.0826 -0.9381 -0.508 0.454 0.732 98 81 69 0 0
-0.0816 0.0828 -0.9413 -0.298 0.902 0.312 93 76 62 0 0
-0.1520 0.1232 -1.0227 -0.313 -0.438 0.843 86 61 50 0 0
-0.1823 0.1392 -1.0936 -0.938 0.204 -0.280 67 47 36 0 0
-0.1878 0.1418 -1.1166 -0.898 0.117 0.423 83 55 35 0 0
-0.0234 0.0864 0.0525 -0.735 -0.010 0.678 150 144 140 0 0
-0.0568 0.1047 -0.0063 -0.934 0.328 0.141 43 20 13 0 0
-0.0540 0.1020 -0.0337 -0.670 0.742 -0.018 34 15 9 0 0
-0.0468 0.0972 -0.0462 -0.998 0.026 0.062 124 120 121 0 0
-0.0246 0.0830 -0.0623 -0.704 0.676 -0.219 177 180 182 0 0
-0.0744 0.1122 -0.0973 -0.933 -0.161 0.323 78 64 57 0 0
-0.1342 0.1469 -0.1534 -0.969 0.229 -0.089 63 51 44 0 0
-0.1247 0.1405 -0.1692 -0.482 0.873 -0.074 61 50 46 0 0
-0.1255 0.1409 -0.1721 -0.568 0.648 -0.507 62 51 47 0 0
-0.1170 0.1356 -0.1760 -0.915 0.013 -0.403 64 53 49 0 0
-0.1124 0.1326 -0.1795 -0.461 0.860 0.220 65 54 50 0 0
-0.1128 0.1328 -0.1824 -0.556 0.804 0.212 65 54 50 0 0
-0.1136 0.1332 -0.1854 -0.670 0.733 -0.118 64 53 49 0 0
-0.0984 0.1228 -0.2145 -0.810 -0.225 0.542 71 58 52 0 0
-0.0359 0.0816 -0.2956 -0.811 -0.585 -0.009 104 95 97 0 0
-0.0485 0.0886 -0.3159 -0.863 -0.391 0.319 83 65 58 0 0
-0.0920 0.1120 -0.4057 -0.286 0.167 0.944 76 61 55 0 0
-0.0148 0.0512 -0.7866 -0.129 0.851 -0.509 209 208 210 0 0
-0.0239 0.0556 -0.8173 -0.884 -0.367 0.291 88 66 53 0 0
-0.0811 0.0863 -0.9408 -0.528 0.819 -0.225 93 76 63 0 0
-0.1904 0.1484 -1.0773 -0.779 0.211 0.591 51 34 25 0 0
-0.0183 0.0871 0.0587 -0.907 0.202 0.370 178 176 175 0 0
-0.0546 0.1082 0.0271 -0.878 0.479 -0.003 44 22 9 0 0
-0.0547 0.1079 0.0180 -0.822 0.569 0.008 47 25 13 0 0
-0.0516 0.1042 -0.0338 -0.675 0.726 -0.133 37 17 10 0 0
-0.0420 0.0980 -0.0432 -0.745 -0.007 -0.666 38 25 21 0 0
-0.0431 0.0986 -0.0463 -0.808 0.527 0.263 122 118 116 0 0
-0.0771 0.1176 -0.0941 -0.924 -0.090 -0.373 74 59 51 0 0
-0.0758 0.1167 -0.0972 -0.922 -0.038 -0.386 85 72 65 0 0
-0.1341 0.1503 -0.1533 -0.918 0.020 -0.397 61 48 42 0 0
-0.1225 0.1427 -0.1693 -0.715 0.654 -0.247 61 50 46 0 0
-0.1218 0.1422 -0.1724 -0.720 0.683 0.124 61 50 46 0 0
-0.1154 0.1380 -0.1791 -0.970 -0.014 -0.242 64 53 49 0 0
-0.1090 0.1339 -0.1828 -0.597 0.791 -0.135 63 52 48 0 0
-0.1118 0.1356 -0.1855 -0.622 0.690 -0.370 62 51 47 0 0
-0.0995 0.1270 -0.2143 -0.810 -0.225 0.542 69 56 50 0 0
-0.0954 0.1243 -0.2209 -0.730 0.264 -0.630 66 53 47 0 0
-0.0398 0.0877 -0.2948 -0.838 -0.543 -0.047 82 72 69 0 0
-0.0535 0.0945 -0.3404 -0.977 -0.157 -0.147 181 179 179 0 0
-0.0721 0.1038 -0.3972 -0.894 -0.211 0.396 79 66 60 0 0
-0.0908 0.1152 -0.3993 -0.604 0.482 0.635 79 64 58 0 0
-0.1056 0.1238 -0.4116 -0.438 0.004 0.899 76 55 41 0 0
-0.0142 0.0549 -0.7793 -0.123 0.878 -0.463 208 208 209 0 0
-0.0260 0.0615 -0.7984 -0.696 -0.600 0.394 104 84 75 0 0
-0.1043 0.1069 -0.8668 -0.830 0.193 0.524 93 70 51 0 0
-0.0814 0.0903 -0.9399 -0.467 0.692 0.550 93 76 64 0 0
-0.1163 0.1106 -0.9682 -0.468 0.488 -0.737 80 57 43 0 0
-0.0233 0.0937 0.0553 -0.746 -0.194 0.637 111 100 94 0 0
-0.0408 0.1008 -0.0464 -0.608 0.783 -0.130 87 84 79 0 0
-0.1193 0.1462 -0.1128 -0.664 0.544 0.513 79 60 53 0 0
-0.1115 0.1393 -0.1734 -0.395 0.709 -0.585 59 48 44 0 0
-0.1115 0.1390 -0.1824 -0.487 0.700 -0.522 62 51 47 0 0
-0.1112 0.1388 -0.1855 -0.607 0.712 -0.354 62 51 47 0 0
-0.0655 0.1085 -0.2527 -0.941 -0.278 -0.194 71 56 51 0 0
-0.0514 0.0981 -0.3055 -0.853 -0.523 -0.001 81 68 62 0 0
-0.0516 0.0971 -0.3373 -0.566 0.223 0.794 112 106 104 0 0
-0.0897 0.1181 -0.3993 -0.726 0.203 0.657 78 63 56 0 0
-0.1091 0.1295 -0.4136 -0.524 -0.030 0.851 109 91 77 0 0
-0.1072 0.1278 -0.4267 -0.765 -0.380 0.519 71 42 22 0 0
-0.1076 0.1279 -0.4297 -0.947 -0.307 -0.095 72 42 24 0 0
-0.1035 0.1101 -0.8665 -0.750 0.203 0.629 94 69 48 0 0
-0.1074 0.1124 -0.8679 -0.869 -0.089 0.488 97 75 57 0 0
-0.0134 0.0923 0.0832 -0.706 -0.598 0.379 155 146 143 0 0
-0.0283 0.1005 0.0611 -0.739 -0.598 0.310 99 83 75 0 0
-0.0517 0.1136 0.0269 -0.778 0.624 0.075 47 25 12 0 0
-0.0376 0.1025 -0.0465 -0.519 0.777 -0.356 71 64 58 0 0
-0.1084 0.1406 -0.1827 -0.325 0.734 -0.597 62 51 46 0 0
-0.0993 0.1337 -0.2233 -0.452 0.351 -0.820 62 49 43 0 0
-0.0924 0.1294 -0.2272 -0.467 0.513 -0.720 63 50 44 0 0
-0.0801 0.1218 -0.2319 -0.886 0.438 0.151 63 50 44 0 0
-0.1096 0.1329 -0.4258 -0.871 -0.248 0.423 72 41 21 0 0
-0.1085 0.1168 -0.8699 -0.810 -0.341 0.476 91 72 54 0 0
-0.1851 0.1569 -1.0516 -0.623 0.774 0.116 79 56 38 0 0
-0.0503 0.1162 0.0238 -0.839 0.543 0.036 45 23 10 0 0
-0.1397 0.1648 -0.1320 -0.776 0.594 0.213 63 35 16 0 0
-0.1415 0.1653 -0.1496 -0.964 0.239 0.120 56 41 33 0 0
-0.0987 0.1372 -0.2141 -0.833 -0.094 -0.546 64 51 45 0 0
-0.1005 0.1382 -0.2169 -0.757 -0.017 -0.653 65 52 46 0 0
-0.0985 0.1369 -0.2202 -0.943 -0.116 -0.313 63 50 44 0 0
-0.0788 0.1246 -0.2319 -0.980 0.169 -0.107 62 49 43 0 0
-0.0789 0.1244 -0.2381 -0.881 0.409 -0.237 62 49 43 0 0
-0.0820 0.1262 -0.2408 -0.811 0.400 -0.427 63 48 42 0 0
-0.0807 0.1253 -0.2441 -0.811 0.400 -0.427 64 49 42 0 0
-0.0794 0.1244 -0.2474 -0.771 0.452 -0.448 64 49 42 0 0
-0.0686 0.1170 -0.2739 -0.954 -0.186 -0.236 65 52 44 0 0
-0.0688 0.1164 -0.2927 -0.623 0.695 -0.360 62 48 40 0 0
-0.0676 0.1155 -0.2992 -0.602 0.593 0.535 68 54 45 0 0
-0.0926 0.1268 -0.4076 -0.465 0.438 0.769 76 57 49 0 0
-0.1101 0.1372 -0.4129 -0.664 -0.245 0.707 97 77 66 0 0
-0.1136 0.1390 -0.4214 -0.962 -0.273 -0.007 79 52 35 0 0
-0.0150 0.0679 -0.7564 -0.046 0.928 -0.370 202 203 202 0 0
-0.0518 0.1201 0.0086 -0.943 0.309 0.126 43 21 11 0 0
-0.0500 0.1176 -0.0341 -0.826 0.564 0.011 35 16 7 0 0
-0.0973 0.1400 -0.2111 -0.750 0.659 0.065 59 48 42 0 0
-0.0997 0.1414 -0.2138 -0.884 -0.183 -0.431 64 51 45 0 0
-0.0783 0.1273 -0.2474 -0.780 0.486 -0.394 63 48 41 0 0
-0.0791 0.1277 -0.2504 -0.987 0.079 -0.137 63 48 41 0 0
-0.0773 0.1265 -0.2538 -0.949 0.284 -0.137 64 48 41 0 0
-0.0662 0.1191 -0.2741 -0.998 0.063 -0.029 64 50 42 0 0
-0.0673 0.1196 -0.2802 -0.677 0.567 -0.469 65 49 42 0 0
-0.0664 0.1186 -0.2929 -0.713 0.603 -0.358 62 45 40 0 0
-0.0646 0.1174 -0.2964 -0.688 0.656 -0.310 60 43 38 0 0
-0.0634 0.1165 -0.2997 -0.990 0.122 -0.067 58 41 35 0 0
-0.0910 0.1297 -0.4014 -0.586 -0.016 0.810 74 58 51 0 0
-0.0935 0.1311 -0.4040 -0.699 0.204 0.685 71 54 47 0 0
-0.1258 0.1495 -0.4336 -0.890 0.446 0.097 72 49 34 0 0
-0.0128 0.0706 -0.7498 -0.051 0.929 -0.366 196 195 194 0 0
-0.0104 0.0690 -0.7543 -0.055 0.925 -0.376 177 173 171 0 0
-0.0060 0.0662 -0.7596 -0.084 0.923 -0.376 152 146 143 0 0
-0.1110 0.1257 -0.8673 -0.917 -0.215 0.337 93 69 49 0 0
-0.0501 0.1228 0.0115 -0.915 0.399 0.062 47 25 11 0 0
-0.0808 0.1380 -0.0848 -0.993 0.118 0.022 74 54 43 0 0
-0.1400 0.1719 -0.1319 -0.709 0.447 0.545 70 42 21 0 0
-0.1072 0.1505 -0.1826 -0.781 0.610 -0.137 58 46 41 0 0
-0.0921 0.1404 -0.2116 -0.782 0.507 -0.363 59 46 41 0 0
-0.0973 0.1434 -0.2140 -0.923 0.302 -0.239 62 48 42 0 0
-0.0971 0.1431 -0.2202 -0.844 -0.259 -0.469 62 49 43 0 0
-0.0669 0.1232 -0.2739 -0.916 0.383 0.120 59 44 36 0 0
-0.0772 0.1252 -0.3948 -0.705 -0.264 0.659 67 52 43 0 0
-0.0885 0.1318 -0.4017 -0.617 -0.315 0.721 67 51 44 0 0
-0.1245 0.1523 -0.4337 -0.890 0.446 0.097 74 51 35 0 0
-0.1130 0.1449 -0.4491 0.132 0.916 -0.379 155 153 154 0 0
-0.0102 0.0731 -0.7434 -0.044 0.934 -0.356 183 183 182 0 0
-0.0081 0.0717 -0.7478 -0.051 0.929 -0.366 159 157 155 0 0
-0.0434 0.0922 -0.7671 -0.690 -0.129 -0.713 91 67 54 0 0
-0.0327 0.0842 -0.8129 -0.641 -0.765 0.062 77 52 38 0 0
-0.1825 0.1666 -1.0375 -0.844 0.495 -0.210 81 50 29 0 0
-0.1863 0.1688 -1.0384 -0.832 0.555 0.003 79 50 28 0 0
-0.1823 0.1660 -1.0508 -0.822 0.497 0.279 80 53 35 0 0
-0.2017 0.1747 -1.1368 -0.885 0.390 -0.254 79 59 43 0 0
-0.0301 0.1125 -0.0437 -0.999 -0.033 -0.011 36 18 8 0 0
-0.1397 0.1752 -0.1319 -0.906 0.302 0.297 67 35 20 0 0
-0.0992 0.1483 -0.2076 -0.946 -0.285 0.152 60 45 40 0 0
-0.1024 0.1501 -0.2133 -0.949 -0.077 0.305 60 45 40 0 0
-0.1003 0.1487 -0.2166 -0.885 0.050 -0.464 61 46 41 0 0
-0.0681 0.1271 -0.2860 -0.957 0.045 -0.287 59 43 36 0 0
-0.0695 0.1245 -0.3867 -0.899 -0.197 0.391 70 53 45 0 0
-0.0714 0.1256 -0.3895 -0.965 -0.032 0.259 62 45 35 0 0
-0.0759 0.1281 -0.3917 -0.697 0.032 0.716 62 46 34 0 0
-0.0888 0.1356 -0.3982 -0.349 0.414 0.841 68 51 43 0 0
-0.1062 0.1458 -0.4067 -0.525 -0.114 0.843 79 57 44 0 0
-0.1102 0.1481 -0.4089 -0.542 -0.225 0.810 86 66 57 0 0
-0.1189 0.1531 -0.4161 -0.924 -0.265 0.276 88 62 48 0 0
-0.1226 0.1548 -0.4307 -0.827 0.561 -0.038 70 41 21 0 0
-0.1246 0.1559 -0.4333 -0.949 0.060 0.309 77 52 36 0 0
-0.0464 0.0980 -0.7618 -0.808 0.589 -0.026 86 63 49 0 0
-0.1541 0.1545 -0.9981 -0.777 0.312 0.547 91 72 58 0 0
-0.2004 0.1775 -1.1367 -0.973 0.137 -0.186 83 62 45 0 0
-0.0272 0.1144 -0.0438 -0.955 -0.020 0.297 37 19 9 0 0
-0.1243 0.1698 -0.1182 -0.840 0.056 0.539 108 91 84 0 0
-0.1468 0.1823 -0.1460 -0.987 0.160 -0.027 53 35 25 0 0
-0.1448 0.1808 -0.1550 -0.509 0.849 -0.140 55 44 41 0 0
-0.1256 0.1692 -0.1596 -0.425 0.755 0.500 57 45 40 0 0
-0.0968 0.1497 -0.2291 -0.218 0.948 -0.233 60 46 41 0 0
-0.0920 0.1467 -0.2328 -0.945 0.326 0.018 59 45 39 0 0
-0.0506 0.1177 -0.3618 -0.936 -0.247 0.252 70 55 48 0 0
-0.0671 0.1268 -0.3838 -0.745 -0.089 0.661 62 45 37 0 0
-0.0698 0.1283 -0.3864 -0.675 0.183 0.715 72 55 46 0 0
-0.0715 0.1292 -0.3892 -0.965 -0.032 0.259 61 44 34 0 0
-0.0885 0.1391 -0.3980 -0.432 0.103 0.896 62 45 37 0 0
-0.1199 0.1572 -0.4156 -0.760 -0.317 0.567 96 68 53 0 0
-0.1231 0.1586 -0.4334 -0.980 -0.178 -0.086 74 48 32 0 0
-0.0185 0.0860 -0.7355 -0.638 -0.727 0.253 103 91 84 0 0
-0.0501 0.1041 -0.7596 -0.908 -0.010 -0.419 81 56 41 0 0
-0.1079 0.1351 -0.8634 -0.896 0.138 -0.422 88 59 35 0 0
-0.1834 0.1743 -1.0353 -0.768 0.637 0.064 83 52 27 0 0
-0.1836 0.1743 -1.0384 -0.768 0.637 0.064 81 51 27 0 0
-0.1856 0.1741 -1.0799 -0.810 0.449 0.378 52 35 26 0 0
-0.1978 0.1795 -1.1376 -0.976 0.151 -0.157 83 61 43 0 0
-0.0449 0.1305 0.0144 -0.862 0.437 0.258 42 20 9 0 0
-0.0861 0.1516 -0.0876 -0.796 0.377 0.474 66 45 34 0 0
-0.0876 0.1524 -0.0905 -0.832 0.266 0.487 57 34 23 0 0
-0.1036 0.1614 -0.1046 -0.554 0.413 0.723 75 55 48 0 0
-0.1068 0.1598 -0.2095 -0.974 0.016 -0.227 58 43 38 0 0
-0.0943 0.1521 -0.2171 -0.977 0.126 0.172 60 45 40 0 0
-0.0936 0.1516 -0.2203 -0.969 0.248 -0.003 59 44 39 0 0
-0.0879 0.1476 -0.2394 -0.246 0.934 0.260 59 43 36 0 0
-0.0701 0.1320 -0.3892 -0.963 -0.117 0.244 61 44 35 0 0
0.0062 0.0761 -0.7069 -0.689 -0.692 0.216 194 193 191 0 0
0.0043 0.0771 -0.7097 -0.689 -0.692 0.216 190 186 185 0 0
-0.1565 0.1635 -0.9852 -0.948 0.241 0.210 96 77 63 0 0
-0.1605 0.1657 -0.9927 -0.772 0.621 -0.138 93 74 60 0 0
-0.1574 0.1636 -1.0011 -0.896 0.347 -0.278 85 66 52 0 0
-0.1814 0.1767 -1.0324 -0.730 0.674 -0.112 83 50 25 0 0
-0.1814 0.1767 -1.0357 -0.768 0.637 0.064 82 51 25 0 0
-0.1816 0.1767 -1.0388 -0.786 0.617 0.039 83 53 27 0 0
-0.1819 0.1767 -1.0420 -0.768 0.637 0.064 85 57 33 0 0
-0.1821 0.1768 -1.0451 -0.768 0.637 0.064 86 58 37 0 0
-0.1859 0.1778 -1.0821 -0.853 0.516 0.076 46 30 22 0 0
-0.1856 0.1775 -1.0856 -0.883 0.468 -0.040 46 31 21 0 0
-0.1851 0.1771 -1.0892 -0.812 0.576 -0.097 55 38 25 0 0
-0.0496 0.1365 0.0052 -0.776 0.629 -0.037 40 18 8 0 0
-0.0822 0.1529 -0.0848 -0.986 -0.142 0.084 76 55 46 0 0
-0.0859 0.1550 -0.0876 -0.922 0.241 0.302 61 39 30 0 0
-0.0868 0.1554 -0.0906 -0.881 0.206 0.426 57 33 23 0 0
-0.1032 0.1647 -0.1047 -0.296 0.620 0.726 74 54 46 0 0
-0.1435 0.1874 -0.1374 -0.857 0.427 0.288 54 29 14 0 0
-0.1294 0.1786 -0.1533 -0.794 0.597 -0.115 51 40 37 0 0
-0.1074 0.1641 -0.1973 -0.959 -0.275 -0.073 57 44 37 0 0
-0.1091 0.1650 -0.2001 -0.845 0.483 -0.230 57 44 37 0 0
-0.1053 0.1624 -0.2096 -0.764 0.537 -0.357 57 42 37 0 0
-0.1055 0.1625 -0.2126 -0.687 0.678 -0.261 58 43 38 0 0
-0.0908 0.1533 -0.2266 -0.764 0.644 -0.031 57 42 36 0 0
-0.0702 0.1392 -0.2821 -0.885 -0.258 -0.387 51 36 29 0 0
-0.0554 0.1278 -0.3635 -0.993 0.070 -0.098 57 43 34 0 0
-0.0678 0.1346 -0.3800 -0.909 0.214 0.358 61 43 34 0 0
-0.0682 0.1347 -0.3831 -0.933 0.188 0.309 65 46 37 0 0
-0.0693 0.1353 -0.3860 -0.912 0.198 0.359 68 50 40 0 0
0.0045 0.0813 -0.6954 -0.656 -0.735 0.170 182 181 179 0 0
-0.0154 0.0925 -0.7151 -0.674 -0.688 0.270 107 90 80 0 0
-0.0231 0.0968 -0.7222 -0.690 -0.668 0.279 95 74 61 0 0
-0.0252 0.0980 -0.7248 -0.698 -0.657 0.285 92 70 58 0 0
-0.0311 0.1014 -0.7258 -0.709 -0.659 0.253 90 68 54 0 0
-0.0535 0.1137 -0.7570 -0.505 0.843 -0.185 81 54 37 0 0
-0.1047 0.1408 -0.8537 -0.965 -0.003 -0.262 82 47 25 0 0
-0.1019 0.1373 -0.9086 -0.996 0.025 0.085 68 45 31 0 0
-0.1563 0.1670 -0.9845 -0.920 0.025 0.391 95 75 63 0 0
-0.1572 0.1675 -0.9873 -0.829 0.171 0.532 95 76 63 0 0
-0.1750 0.1767 -1.0258 -0.795 0.466 0.388 79 42 17 0 0
-0.1796 0.1791 -1.0360 -0.786 0.617 0.039 84 52 26 0 0
-0.1797 0.1791 -1.0392 -0.786 0.617 0.039 85 55 30 0 0
-0.1799 0.1791 -1.0423 -0.768 0.637 0.064 88 59 35 0 0
-0.1781 0.1779 -1.0468 -0.662 0.665 -0.346 86 56 34 0 0
-0.1841 0.1802 -1.0857 -0.897 0.440 -0.045 53 36 26 0 0
-0.1966 0.1859 -1.1366 -0.958 0.229 -0.171 85 60 43 0 0
-0.0458 0.1397 0.0624 -0.914 0.396 0.086 47 21 8 0 0
-0.0433 0.1368 0.0203 -0.775 0.630 0.056 43 21 8 0 0
-0.0857 0.1584 -0.0876 -0.963 0.058 0.264 68 45 38 0 0
-0.0873 0.1592 -0.0905 -0.914 0.298 0.274 62 38 29 0 0
-0.1416 0.1897 -0.1375 -0.771 0.589 0.240 48 25 12 0 0
-0.1276 0.1810 -0.1504 -0.959 0.243 -0.143 50 36 30 0 0
-0.1285 0.1815 -0.1533 -0.998 0.069 -0.004 51 40 35 0 0
-0.1097 0.1687 -0.2030 -0.998 -0.058 0.009 55 42 36 0 0
-0.1080 0.1676 -0.2062 -0.918 0.103 -0.383 56 41 36 0 0
-0.1068 0.1668 -0.2093 -0.918 0.103 -0.383 56 41 36 0 0
-0.1056 0.1660 -0.2125 -0.782 0.077 -0.619 56 41 36 0 0
-0.0912 0.1572 -0.2203 -0.907 0.375 -0.193 58 43 38 0 0
-0.0918 0.1575 -0.2233 -0.851 0.523 -0.051 57 42 37 0 0
-0.0903 0.1565 -0.2266 -0.722 0.650 -0.237 54 39 34 0 0
-0.0986 0.1613 -0.2285 -0.832 -0.294 0.471 54 39 32 0 0
-0.0816 0.1503 -0.2616 -0.863 0.263 -0.432 51 36 29 0 0
-0.0754 0.1455 -0.2935 -0.925 0.261 -0.277 49 31 27 0 0
-0.0722 0.1433 -0.3034 -0.952 -0.120 0.281 67 51 47 0 0
-0.0704 0.1397 -0.3823 -0.994 0.110 -0.002 58 38 28 0 0
-0.0709 0.1398 -0.3854 -0.985 0.142 0.095 61 42 31 0 0
-0.0713 0.1400 -0.3885 -0.997 0.037 0.061 71 55 47 0 0
-0.0181 0.1057 -0.4756 -0.127 0.991 -0.040 167 163 162 0 0
-0.0161 0.1043 -0.4827 -0.719 0.690 -0.080 173 171 173 0 0
-0.0196 0.0988 -0.7129 -0.775 -0.581 0.249 93 74 57 0 0
-0.0233 0.1010 -0.7148 -0.712 -0.631 0.309 90 69 52 0 0
-0.0302 0.1048 -0.7222 -0.736 -0.621 0.268 86 63 47 0 0
-0.0345 0.1073 -0.7239 -0.714 -0.659 0.236 84 60 43 0 0
-0.1049 0.1446 -0.8530 -0.896 0.112 -0.429 82 47 25 0 0
-0.1175 0.1518 -0.8599 -0.936 0.309 0.166 81 47 24 0 0
-0.1125 0.1479 -0.8889 -0.986 0.162 0.033 81 57 46 0 0
-0.1408 0.1615 -0.9829 -0.941 -0.095 0.325 94 74 63 0 0
-0.1559 0.1704 -0.9839 -0.976 0.024 0.215 98 78 65 0 0
-0.1563 0.1706 -0.9870 -0.829 0.171 0.532 97 77 64 0 0
-0.1587 0.1719 -0.9888 -0.575 0.753 -0.320 100 81 67 0 0
-0.1595 0.1721 -0.9982 -0.934 0.269 -0.233 87 68 54 0 0
-0.1791 0.1834 -1.0060 -0.943 0.269 0.195 77 41 16 0 0
-0.1775 0.1814 -1.0397 -0.757 0.640 0.132 85 54 30 0 0
-0.1826 0.1836 -1.0628 -0.998 -0.068 0.019 82 55 39 0 0
-0.1827 0.1829 -1.0857 -0.897 0.440 -0.045 55 37 27 0 0
-0.1831 0.1830 -1.0888 -0.869 0.486 -0.092 60 42 31 0 0
-0.1950 0.1888 -1.1268 -0.864 0.501 -0.050 82 55 34 0 0
-0.1956 0.1889 -1.1363 -0.867 0.468 -0.169 86 61 43 0 0
-0.0443 0.1425 0.0654 -0.914 0.396 0.086 48 20 6 0 0
-0.0446 0.1425 0.0623 -0.914 0.396 0.086 48 20 6 0 0
-0.0413 0.1392 0.0202 -0.844 0.533 0.053 40 18 5 0 0
-0.0421 0.1379 -0.0345 -0.866 0.462 0.190 35 15 6 0 0
-0.0861 0.1621 -0.0876 -0.993 0.114 0.006 61 38 30 0 0
-0.0868 0.1624 -0.0906 -0.978 0.205 0.049 46 23 14 0 0
-0.1341 0.1880 -0.1586 -0.778 0.571 -0.262 59 45 39 0 0
-0.1054 0.1700 -0.1943 -0.719 0.692 -0.071 56 43 37 0 0
-0.1053 0.1698 -0.1973 -0.719 0.692 -0.071 55 42 36 0 0
-0.1105 0.1727 -0.2028 -0.965 0.250 0.074 55 42 36 0 0
-0.1078 0.1710 -0.2061 -0.902 0.139 -0.409 56 41 36 0 0
-0.0904 0.1602 -0.2234 -0.962 0.135 -0.239 55 40 35 0 0
-0.0945 0.1625 -0.2259 -0.974 0.094 -0.204 54 39 33 0 0
-0.0687 0.1423 -0.3825 -0.970 -0.194 0.145 55 36 25 0 0
-0.0696 0.1427 -0.3854 -0.998 0.059 -0.015 56 37 27 0 0
-0.0708 0.1433 -0.3883 -0.966 0.189 -0.179 75 57 50 0 0
-0.0699 0.1425 -0.3980 -0.803 0.365 -0.471 51 28 18 0 0
-0.1197 0.1706 -0.4331 -0.736 0.654 -0.174 73 44 27 0 0
-0.0165 0.1016 -0.6898 -0.757 -0.646 0.102 97 78 66 0 0
-0.0174 0.1020 -0.6928 -0.750 -0.649 0.127 95 76 62 0 0
-0.0216 0.1039 -0.7082 -0.820 -0.534 0.203 86 65 45 0 0
-0.0515 0.1206 -0.7365 -0.835 0.017 0.550 80 55 35 0 0
-0.0407 0.1140 -0.7444 -0.733 -0.010 0.680 80 54 37 0 0
-0.1117 0.1511 -0.8887 -0.971 0.181 0.156 82 58 45 0 0
-0.1014 0.1437 -0.9309 -0.897 0.414 0.154 82 57 37 0 0
-0.1588 0.1758 -0.9814 -0.755 0.577 -0.311 101 78 65 0 0
-0.1812 0.1856 -1.0858 -0.681 0.687 0.254 53 35 25 0 0
-0.1806 0.1848 -1.0994 -0.982 0.064 -0.179 70 45 34 0 0
-0.1817 0.1852 -1.1053 -0.924 0.325 0.203 70 40 22 0 0
-0.0414 0.1424 0.0080 -0.957 0.280 0.081 42 19 9 0 0
-0.0420 0.1427 0.0050 -0.886 0.459 -0.058 40 17 8 0 0
-0.0858 0.1654 -0.0876 -0.953 -0.123 0.276 54 31 24 0 0
-0.0874 0.1662 -0.0905 -0.985 -0.016 0.169 54 31 21 0 0
-0.0880 0.1665 -0.0935 -0.985 -0.016 0.169 57 35 25 0 0
-0.0895 0.1673 -0.0964 -0.892 -0.013 0.451 67 49 41 0 0
-0.1235 0.1867 -0.1123 -0.829 0.370 0.420 88 65 54 0 0
-0.1250 0.1875 -0.1151 -0.949 0.234 0.209 105 83 72 0 0
-0.1353 0.1921 -0.1585 -0.745 0.656 0.121 57 43 37 0 0
-0.1050 0.1734 -0.1883 -0.962 -0.151 -0.228 56 42 36 0 0
-0.0798 0.1540 -0.3329 -0.993 0.109 0.050 52 38 32 0 0
-0.1231 0.1767 -0.4134 -0.257 0.251 0.933 77 46 26 0 0
-0.1193 0.1744 -0.4174 -0.752 0.282 0.596 74 39 19 0 0
-0.1177 0.1729 -0.4333 -0.736 0.654 -0.174 69 41 23 0 0
-0.0179 0.1057 -0.7057 -0.878 -0.461 0.133 83 59 42 0 0
-0.0390 0.1168 -0.7412 -0.569 0.068 0.819 80 55 35 0 0
-0.0496 0.1230 -0.7435 -0.741 0.658 -0.132 80 54 37 0 0
-0.1047 0.1501 -0.9050 -0.956 0.212 -0.200 67 44 30 0 0
-0.1044 0.1498 -0.9085 -0.990 0.087 -0.115 62 40 26 0 0
-0.0957 0.1440 -0.9299 -0.785 0.127 0.607 80 55 35 0 0
-0.0995 0.1461 -0.9346 -0.674 0.370 0.639 80 55 34 0 0
-0.1583 0.1790 -0.9842 -0.541 0.754 -0.372 101 77 64 0 0
-0.1578 0.1782 -0.9977 -0.672 0.666 0.325 101 81 66 0 0
-0.1776 0.1872 -1.0807 -0.744 0.623 0.242 64 44 32 0 0
-0.1783 0.1875 -1.0836 -0.744 0.623 0.242 55 36 26 0 0
-0.1792 0.1880 -1.0863 -0.795 0.589 0.145 49 31 21 0 0
-0.1797 0.1881 -1.0893 -0.795 0.589 0.145 55 37 27 0 0
-0.1803 0.1882 -1.0988 -0.953 0.081 -0.291 65 40 30 0 0
-0.1807 0.1882 -1.1051 -0.924 0.325 0.203 70 39 22 0 0
-0.0402 0.1438 -0.0377 -0.925 0.380 0.013 40 17 10 0 0
-0.0718 0.1611 -0.0732 -0.982 0.046 0.181 83 65 56 0 0
-0.0860 0.1689 -0.0906 -0.985 0.167 -0.039 53 29 18 0 0
-0.0867 0.1692 -0.0936 -0.977 0.073 -0.198 50 27 15 0 0
-0.0863 0.1688 -0.0996 -0.955 0.132 -0.264 79 62 54 0 0
-0.0916 0.1718 -0.1023 -0.805 0.178 0.566 78 60 52 0 0
-0.0831 0.1613 -0.2732 -0.815 0.579 0.015 50 32 28 0 0
-0.0685 0.1490 -0.3947 -0.731 0.370 -0.574 51 28 20 0 0
-0.1196 0.1781 -0.4171 -0.993 0.021 0.113 68 32 11 0 0
-0.1168 0.1759 -0.4332 -0.988 0.091 -0.126 71 43 25 0 0
-0.1061 0.1568 -0.8338 -0.898 -0.073 -0.433 85 61 45 0 0
-0.1121 0.1596 -0.8572 -0.785 0.619 0.035 85 48 21 0 0
-0.1221 0.1629 -0.9381 -0.681 0.732 0.018 81 54 35 0 0
-0.1263 0.1642 -0.9724 -0.987 -0.048 -0.156 99 77 66 0 0
-0.1580 0.1826 -0.9770 -0.609 0.656 -0.445 104 81 67 0 0
-0.1550 0.1806 -0.9853 -0.532 0.721 -0.444 104 81 67 0 0
-0.1727 0.1900 -1.0140 -0.758 0.603 0.249 81 42 17 0 0
-0.1860 0.1947 -1.1105 -0.987 0.006 -0.161 90 56 28 0 0
-0.1997 0.2010 -1.1635 -0.665 0.581 -0.470 193 191 192 0 0
-0.0370 0.1466 -0.0012 -0.773 0.634 -0.027 43 19 7 0 0
-0.0703 0.1638 -0.0733 -0.889 0.152 0.431 87 69 59 0 0
-0.0843 0.1715 -0.0877 -0.987 0.161 0.016 56 31 23 0 0
-0.0853 0.1720 -0.0906 -0.973 0.229 -0.021 55 31 20 0 0
-0.0792 0.1609 -0.3264 -0.921 -0.005 0.389 49 28 18 0 0
-0.0686 0.1538 -0.3566 -0.906 0.376 -0.194 38 23 16 0 0
-0.0667 0.1526 -0.3601 -0.821 0.482 0.305 49 35 25 0 0
-0.0395 0.1256 -0.7129 -0.926 -0.368 -0.088 80 53 32 0 0
-0.1002 0.1541 -0.9260 -0.502 0.627 -0.596 79 55 36 0 0
-0.1082 0.1586 -0.9317 -1.000 -0.015 -0.013 80 55 35 0 0
-0.1112 0.1603 -0.9334 -0.996 0.035 -0.086 80 55 35 0 0
-0.1411 0.1763 -0.9763 -0.986 -0.153 0.062 105 83 70 0 0
-0.1411 0.1762 -0.9796 -0.957 -0.008 0.289 108 86 73 0 0
-0.1869 0.1988 -1.1089 -0.957 0.137 -0.257 88 54 26 0 0
-0.1937 0.2008 -1.1702 -0.925 0.226 -0.304 196 194 195 0 0
-0.0382 0.1522 0.0410 -0.859 0.497 0.124 58 28 10 0 0
-0.0382 0.1511 0.0047 -0.714 0.641 0.281 44 21 7 0 0
-0.0366 0.1492 -0.0256 -0.927 0.266 0.264 41 19 5 0 0
-0.0853 0.1754 -0.0906 -0.896 0.442 -0.028 45 21 10 0 0
-0.0863 0.1712 -0.2448 -0.845 0.220 0.488 53 36 28 0 0
-0.0756 0.1634 -0.2927 -0.982 0.135 -0.133 42 25 17 0 0
-0.0749 0.1629 -0.2959 -0.995 0.020 -0.097 44 29 20 0 0
-0.0808 0.1658 -0.3135 -0.951 -0.255 0.175 48 26 17 0 0
-0.0813 0.1657 -0.3258 -0.888 0.410 0.209 53 31 21 0 0
-0.0819 0.1659 -0.3319 -0.874 0.464 -0.145 52 38 31 0 0
-0.0737 0.1595 -0.3836 -0.912 0.324 0.251 47 28 16 0 0
-0.0318 0.1281 -0.6085 -0.952 0.303 0.031 85 59 41 0 0
-0.0321 0.1282 -0.6117 -0.992 -0.116 0.050 86 59 42 0 0
-0.1092 0.1652 -0.8573 -0.645 0.764 -0.013 85 50 22 0 0
-0.1006 0.1581 -0.9217 -0.918 0.364 0.159 75 53 35 0 0
-0.1124 0.1650 -0.9220 -0.985 0.150 -0.082 78 53 33 0 0
-0.1086 0.1625 -0.9307 -0.832 0.504 -0.230 80 55 35 0 0
-0.1079 0.1620 -0.9344 -0.832 0.504 -0.230 80 55 35 0 0
-0.1094 0.1628 -0.9370 -0.893 0.448 0.046 79 54 34 0 0
-0.1239 0.1700 -0.9755 -0.764 -0.028 0.645 103 81 70 0 0
-0.1551 0.1879 -0.9804 -0.624 0.684 -0.379 103 79 67 0 0
-0.1529 0.1863 -0.9916 -0.374 0.828 -0.418 103 80 66 0 0
-0.1810 0.2017 -1.0202 -0.803 0.382 0.458 83 44 17 0 0
-0.1941 0.2085 -1.0444 -0.693 0.719 -0.059 80 49 29 0 0
-0.1741 0.1956 -1.0870 -0.729 0.463 0.505 54 33 24 0 0
-0.1768 0.1969 -1.0951 -0.872 0.482 -0.085 61 39 27 0 0
-0.1777 0.1974 -1.0977 -0.698 0.588 -0.408 65 41 29 0 0
-0.1858 0.2017 -1.1087 -0.954 0.218 -0.207 94 59 31 0 0
-0.1861 0.2018 -1.1119 -0.998 0.060 -0.008 96 64 36 0 0
-0.1856 0.2014 -1.1155 -1.000 0.018 0.020 97 65 40 0 0
-0.1865 0.2018 -1.1182 -0.910 0.086 0.405 96 66 42 0 0
-0.1879 0.2025 -1.1205 -0.862 0.099 0.497 92 63 39 0 0
-0.0364 0.1536 0.0047 -0.855 0.448 0.260 49 25 11 0 0
-0.0848 0.1788 -0.0847 -0.845 0.414 0.337 58 35 22 0 0
-0.0838 0.1781 -0.0877 -0.808 0.575 0.130 57 33 22 0 0
-0.0838 0.1780 -0.0907 -0.829 0.559 -0.035 46 22 11 0 0
-0.1381 0.2078 -0.1433 -0.548 0.792 -0.270 65 35 20 0 0
-0.0822 0.1695 -0.3316 -0.908 0.160 -0.388 53 39 31 0 0
-0.1166 0.1868 -0.4170 -0.872 -0.020 0.489 80 38 15 0 0
-0.1196 0.1879 -0.4378 -0.782 0.330 -0.529 78 55 43 0 0
-0.0354 0.1354 -0.5606 -0.921 0.289 -0.262 78 51 34 0 0
-0.0346 0.1348 -0.5642 -0.921 0.289 -0.262 75 46 30 0 0
-0.0318 0.1330 -0.5683 -0.970 0.149 -0.194 73 45 29 0 0
-0.0403 0.1372 -0.5919 -0.896 0.393 -0.207 80 52 34 0 0
-0.0349 0.1337 -0.6037 -0.803 0.460 -0.378 81 52 33 0 0
-0.0311 0.1314 -0.6082 -0.805 0.592 -0.030 82 52 34 0 0
-0.0381 0.1338 -0.6623 -0.813 0.540 -0.220 81 49 25 0 0
-0.1116 0.1681 -0.9217 -0.884 0.461 -0.079 78 52 33 0 0
-0.1061 0.1645 -0.9380 -0.874 0.435 0.218 78 52 31 0 0
-0.1164 0.1703 -0.9423 -0.593 0.612 0.523 80 52 33 0 0
-0.1513 0.1891 -0.9852 -0.632 0.713 -0.305 109 86 74 0 0
-0.1474 0.1865 -0.9974 -0.927 0.282 0.245 103 79 66 0 0
-0.1812 0.2055 -1.0160 -0.917 0.395 -0.053 85 45 18 0 0
-0.1917 0.2106 -1.0451 -0.777 0.567 0.271 78 47 26 0 0
-0.1924 0.2109 -1.0479 -0.777 0.567 0.271 77 46 26 0 0
-0.0334 0.1583 0.0980 -0.957 0.275 0.095 102 66 39 0 0
-0.0835 0.1815 -0.0847 -0.863 0.452 0.226 57 34 20 0 0
-0.0822 0.1806 -0.0878 -0.829 0.559 -0.035 52 29 16 0 0
-0.0821 0.1805 -0.0908 -0.769 0.640 0.013 50 26 16 0 0
-0.0824 0.1806 -0.0938 -0.612 0.785 0.097 48 25 17 0 0
-0.1211 0.2023 -0.1123 -0.845 0.431 0.318 113 83 72 0 0
-0.0801 0.1729 -0.3008 -0.981 0.088 -0.174 36 21 11 0 0
-0.1148 0.1892 -0.4171 -0.890 0.300 0.343 79 37 14 0 0
-0.0360 0.1399 -0.5436 -0.984 0.008 0.179 68 42 25 0 0
-0.0403 0.1412 -0.5817 -0.752 -0.178 0.635 76 46 28 0 0
-0.1149 0.1763 -0.8367 -0.973 -0.088 -0.213 79 44 22 0 0
-0.1203 0.1790 -0.8504 -0.798 0.535 0.277 85 49 20 0 0
-0.1206 0.1791 -0.8536 -0.932 0.211 0.293 88 53 25 0 0
-0.1095 0.1723 -0.8658 -0.973 0.229 -0.007 87 53 27 0 0
-0.1134 0.1738 -0.8902 -0.990 -0.138 -0.038 72 49 35 0 0
-0.1022 0.1660 -0.9327 -0.991 -0.108 -0.083 80 53 34 0 0
-0.1046 0.1673 -0.9348 -0.945 0.090 -0.315 78 51 32 0 0
-0.1153 0.1733 -0.9422 -0.899 0.177 0.401 80 51 32 0 0
-0.1496 0.1919 -0.9788 -0.958 0.279 0.070 112 90 77 0 0
-0.1452 0.1888 -0.9979 -0.709 0.616 -0.343 103 80 67 0 0
-0.1850 0.2080 -1.1174 -0.813 0.263 0.520 97 66 42 0 0
-0.1984 0.2151 -1.1375 -0.881 0.468 -0.075 82 57 37 0 0
-0.1984 0.2150 -1.1409 -0.873 0.451 0.185 69 48 31 0 0
-0.0313 0.1606 0.0980 -0.686 0.720 0.106 94 60 34 0 0
-0.0358 0.1620 0.0618 -0.759 0.639 0.126 67 35 14 0 0
-0.0350 0.1605 0.0257 -0.931 0.342 0.129 58 27 7 0 0
-0.0823 0.1842 -0.0848 -0.840 0.415 0.351 65 39 26 0 0
-0.0817 0.1838 -0.0878 -0.923 0.382 0.054 51 28 15 0 0
-0.0812 0.1835 -0.0908 -0.905 0.409 0.115 47 24 13 0 0
-0.1208 0.2056 -0.1094 -0.940 0.315 0.133 114 86 75 0 0
-0.1351 0.2123 -0.1581 -0.740 0.671 0.049 63 46 36 0 0
-0.1315 0.2102 -0.1614 -0.599 0.487 -0.636 64 47 38 0 0
-0.1046 0.1930 -0.2178 -0.856 0.049 0.515 55 38 30 0 0
-0.1044 0.1928 -0.2208 -0.992 0.039 0.122 54 37 29 0 0
-0.1063 0.1938 -0.2236 -0.453 0.852 0.263 54 37 29 0 0
-0.0817 0.1782 -0.2696 -0.898 0.438 0.043 48 29 22 0 0
-0.0780 0.1752 -0.3010 -0.967 0.093 0.238 37 22 14 0 0
-0.0652 0.1657 -0.3689 -0.805 0.275 0.526 41 30 24 0 0
-0.1125 0.1914 -0.4174 -0.970 0.232 0.067 82 40 15 0 0
-0.1145 0.1923 -0.4262 -0.869 0.488 0.084 68 30 7 0 0
-0.1148 0.1923 -0.4292 -0.869 0.488 0.084 68 31 10 0 0
-0.0364 0.1439 -0.5431 -0.716 0.679 0.164 66 39 21 0 0
-0.0359 0.1401 -0.6555 -0.975 -0.214 -0.058 80 44 22 0 0
-0.0357 0.1399 -0.6589 -0.975 -0.214 -0.058 78 42 20 0 0
-0.0678 0.1553 -0.7557 -0.089 0.626 0.775 63 34 16 0 0
-0.1143 0.1797 -0.8298 -0.367 -0.193 0.910 79 44 22 0 0
-0.1155 0.1803 -0.8358 -0.962 0.020 -0.273 81 44 23 0 0
-0.1196 0.1821 -0.8534 -0.852 0.279 0.443 86 50 22 0 0
-0.1496 0.1956 -0.9747 -0.812 0.162 0.560 109 87 74 0 0
-0.1488 0.1950 -0.9785 -0.948 0.272 0.167 111 89 76 0 0
-0.1511 0.1963 -0.9804 -0.966 0.210 -0.154 110 88 75 0 0
-0.1532 0.1974 -0.9824 -0.912 0.337 0.236 112 90 78 0 0
-0.1921 0.2159 -1.1083 -0.892 0.400 -0.209 96 62 34 0 0
-0.1975 0.2181 -1.1373 -0.747 0.618 -0.245 82 56 36 0 0
-0.1970 0.2177 -1.1409 -0.873 0.451 0.185 69 46 30 0 0
0.0228 0.1340 0.1257 -0.366 0.162 0.916 184 184 186 0 0
-0.0304 0.1620 0.0468 -0.838 0.486 0.247 61 29 8 0 0
-0.0321 0.1627 0.0377 -0.814 0.577 0.066 60 29 9 0 0
-0.0339 0.1634 0.0256 -0.931 0.342 0.129 59 26 7 0 0
-0.0351 0.1615 -0.0594 -0.328 0.931 0.158 38 14 8 0 0
-0.0811 0.1870 -0.0849 -0.986 0.166 -0.034 63 37 24 0 0
-0.1197 0.2084 -0.1095 -0.981 0.142 0.133 123 94 84 0 0
-0.1326 0.2147 -0.1437 -0.934 0.353 -0.047 64 35 20 0 0
-0.0644 0.1693 -0.3532 -0.993 0.021 0.115 38 23 16 0 0
-0.1112 0.1941 -0.4174 -0.927 0.344 -0.148 79 39 13 0 0
-0.1062 0.1782 -0.8463 -0.656 0.733 -0.180 76 35 14 0 0
-0.1155 0.1821 -0.8943 -0.978 -0.024 0.208 64 41 27 0 0
-0.1044 0.1745 -0.9334 -0.945 0.090 -0.315 80 53 34 0 0
-0.1022 0.1732 -0.9379 -0.910 0.343 -0.232 79 51 33 0 0
-0.1266 0.1863 -0.9642 -0.810 -0.151 -0.566 105 86 71 0 0
-0.1955 0.2203 -1.1410 -0.880 0.424 0.213 69 45 29 0 0
0.0238 0.1370 0.1256 -0.366 0.162 0.916 184 183 185 0 0
-0.0272 0.1654 0.1039 -0.634 0.744 0.211 110 92 85 0 0
-0.0297 0.1650 0.0437 -0.847 0.500 0.182 60 27 8 0 0
-0.0316 0.1658 0.0316 -0.887 0.456 0.069 52 21 3 0 0
-0.0321 0.1659 0.0256 -0.799 0.571 0.189 58 27 7 0 0
-0.0324 0.1659 0.0225 -0.815 0.561 0.145 60 29 9 0 0
-0.0343 0.1652 -0.0381 -0.851 0.350 0.391 45 22 9 0 0
-0.0810 0.1904 -0.0849 -0.966 0.093 0.243 63 33 18 0 0
-0.1183 0.2106 -0.1213 -0.918 0.360 0.167 153 126 114 0 0
-0.1313 0.2173 -0.1437 -0.878 0.457 -0.141 64 35 20 0 0
-0.1317 0.2175 -0.1466 -0.960 0.222 0.170 63 36 23 0 0
-0.1313 0.2169 -0.1584 -0.811 0.579 0.086 66 49 38 0 0
-0.1129 0.2054 -0.1897 -0.787 0.544 0.292 60 43 35 0 0
-0.1035 0.1998 -0.1997 -0.324 0.846 -0.424 59 42 34 0 0
-0.0894 0.1903 -0.2468 -0.481 0.347 0.805 53 36 28 0 0
-0.0906 0.1886 -0.3261 -0.979 -0.023 0.200 63 44 33 0 0
-0.0681 0.1742 -0.3773 -0.902 0.410 0.135 50 32 20 0 0
-0.0889 0.1853 -0.4039 -0.432 0.835 0.341 65 30 13 0 0
-0.0730 0.1654 -0.7622 -0.989 -0.063 0.134 65 35 17 0 0
-0.1075 0.1815 -0.8812 -0.684 0.599 -0.417 73 48 31 0 0
-0.1011 0.1763 -0.9344 -0.820 0.473 -0.321 80 53 32 0 0
-0.1015 0.1764 -0.9375 -0.971 0.239 0.026 80 52 31 0 0
-0.1228 0.1877 -0.9656 -0.758 0.066 -0.649 105 86 73 0 0
-0.1588 0.2070 -1.0069 -0.919 -0.196 0.343 92 54 28 0 0
-0.1864 0.2199 -1.1005 -0.912 0.409 -0.033 89 48 21 0 0
-0.1886 0.2203 -1.1285 -0.833 0.226 0.504 88 57 36 0 0
-0.1917 0.2216 -1.1427 -0.839 0.502 -0.212 73 48 30 0 0
-0.1910 0.2211 -1.1465 -0.884 0.341 -0.320 69 49 36 0 0
-0.0231 0.1668 0.1100 -0.686 0.693 0.222 146 115 98 0 0
-0.0300 0.1685 0.0345 -0.887 0.456 0.069 58 25 8 0 0
-0.0302 0.1685 0.0315 -0.887 0.456 0.069 56 25 7 0 0
-0.0307 0.1686 0.0255 -0.848 0.464 0.258 59 28 8 0 0
-0.0315 0.1689 0.0224 -0.848 0.464 0.258 61 30 10 0 0
-0.0303 0.1669 -0.0230 -0.831 0.557 0.011 59 32 13 0 0
-0.0293 0.1658 -0.0413 -0.917 0.355 0.184 46 21 9 0 0
-0.0813 0.1943 -0.0759 -0.821 0.382 0.424 151 133 125 0 0
-0.0802 0.1934 -0.0849 -0.968 0.086 -0.238 62 31 17 0 0
-0.1286 0.2191 -0.1439 -0.717 0.696 0.041 63 34 19 0 0
-0.1258 0.2174 -0.1500 -0.815 0.404 0.416 64 39 27 0 0
-0.1029 0.2031 -0.1937 -0.840 0.528 -0.122 60 41 34 0 0
-0.0880 0.1931 -0.2438 -0.606 -0.012 0.795 52 35 27 0 0
-0.0892 0.1937 -0.2467 -0.629 0.309 0.713 53 36 28 0 0
-0.0833 0.1899 -0.2597 -0.928 0.306 0.214 49 32 24 0 0
-0.0837 0.1900 -0.2658 -0.984 0.172 0.037 49 32 24 0 0
-0.0729 0.1800 -0.3948 -0.517 0.387 0.764 61 31 18 0 0
-0.0379 0.1546 -0.5775 -0.904 0.225 0.364 62 33 19 0 0
-0.0409 0.1529 -0.6920 -0.923 0.172 0.343 64 33 12 0 0
-0.0959 0.1803 -0.8204 -0.925 0.311 -0.217 67 31 11 0 0
-0.1045 0.1847 -0.8359 -0.984 0.174 0.028 72 36 12 0 0
-0.1008 0.1796 -0.9372 -0.951 0.307 -0.025 80 52 31 0 0
-0.1628 0.2130 -0.9972 -0.874 0.102 0.476 100 65 41 0 0
-0.1719 0.2174 -1.0242 -0.893 0.385 0.235 73 36 12 0 0
-0.1813 0.2217 -1.0605 -0.997 0.052 0.055 77 50 33 0 0
-0.1913 0.2241 -1.1684 -0.953 0.255 0.163 196 195 194 0 0
-0.0290 0.1712 0.0284 -0.880 0.452 0.145 57 26 7 0 0
-0.0293 0.1713 0.0254 -0.887 0.456 0.069 57 26 7 0 0
-0.0805 0.1973 -0.0760 -0.834 0.523 0.177 142 124 115 0 0
-0.1245 0.2200 -0.1501 -0.829 0.366 0.423 64 39 28 0 0
-0.0848 0.1947 -0.2441 -0.971 -0.155 -0.183 52 35 27 0 0
-0.0827 0.1931 -0.2597 -0.920 0.338 0.200 49 32 24 0 0
-0.0705 0.1824 -0.3888 -0.890 0.256 0.377 64 40 27 0 0
-0.1117 0.2045 -0.4257 -0.692 0.612 0.383 71 34 8 0 0
-0.1168 0.2074 -0.4275 -0.879 0.400 0.261 71 35 11 0 0
-0.0388 0.1611 -0.4986 -0.894 0.410 -0.183 57 31 16 0 0
-0.0487 0.1647 -0.5671 -0.773 0.535 -0.341 57 28 13 0 0
-0.0439 0.1614 -0.5882 -0.845 0.465 -0.265 67 36 18 0 0
-0.0434 0.1590 -0.6574 -0.952 0.124 0.279 76 41 19 0 0
-0.0425 0.1579 -0.6776 -0.935 -0.021 0.354 65 32 11 0 0
-0.0398 0.1560 -0.6919 -0.874 0.214 0.437 65 34 13 0 0
-0.0408 0.1564 -0.6948 -0.997 0.067 0.048 62 31 11 0 0
-0.0862 0.1787 -0.8112 -0.947 -0.074 0.314 62 27 8 0 0
-0.0904 0.1810 -0.8125 -0.708 0.252 0.660 63 28 8 0 0
-0.0933 0.1826 -0.8144 -0.565 0.471 0.678 63 28 8 0 0
-0.0898 0.1803 -0.8260 -0.795 -0.153 0.587 68 31 12 0 0
-0.0951 0.1814 -0.8896 -0.820 0.400 0.410 72 49 34 0 0
-0.1551 0.2127 -0.9814 -0.841 0.521 0.147 113 91 78 0 0
-0.1577 0.2138 -0.9929 -0.655 0.141 0.742 107 80 64 0 0
-0.1660 0.2180 -1.0107 -0.714 0.541 0.445 75 34 9 0 0
-0.1733 0.2218 -1.0192 -0.920 0.380 -0.095 71 34 10 0 0
-0.2066 0.2368 -1.1531 0.054 0.018 0.998 192 191 189 0 0
-0.0263 0.1732 0.0284 -0.815 0.561 0.145 58 26 7 0 0
-0.0277 0.1738 0.0223 -0.877 0.434 0.207 59 27 7 0 0
-0.0280 0.1726 -0.0262 -0.773 0.627 0.092 63 32 12 0 0
-0.0281 0.1725 -0.0292 -0.717 0.661 0.222 60 30 10 0 0
-0.0307 0.1732 -0.0566 -0.868 0.462 0.182 48 20 6 0 0
-0.1167 0.2201 -0.1125 -0.903 0.423 0.076 114 84 74 0 0
-0.1030 0.2103 -0.1816 -0.985 -0.173 0.000 61 43 35 0 0
-0.1030 0.2102 -0.1846 -0.985 -0.173 0.000 60 40 33 0 0
-0.0921 0.2036 -0.2007 -0.470 0.868 -0.160 60 40 33 0 0
-0.0792 0.1946 -0.2601 -0.834 0.547 -0.075 49 32 24 0 0
-0.0791 0.1944 -0.2631 -0.764 0.641 -0.079 50 33 25 0 0
-0.0810 0.1944 -0.2996 -0.703 0.697 0.139 45 27 16 0 0
-0.0854 0.1963 -0.3204 -0.880 0.433 0.196 55 28 14 0 0
-0.0696 0.1854 -0.3887 -0.740 0.537 0.404 62 37 24 0 0
-0.0728 0.1870 -0.3943 -0.755 0.568 0.328 70 36 19 0 0
-0.1095 0.2070 -0.4168 -0.951 0.305 -0.058 80 38 13 0 0
-0.1100 0.2070 -0.4259 -0.653 0.642 0.402 72 34 8 0 0
-0.0364 0.1641 -0.4763 -0.817 0.548 -0.180 56 30 16 0 0
-0.0378 0.1625 -0.5571 -0.952 0.301 -0.060 65 34 16 0 0
-0.0376 0.1623 -0.5604 -0.959 0.278 -0.055 65 34 17 0 0
-0.0380 0.1623 -0.5668 -0.874 0.437 0.210 64 34 18 0 0
-0.0508 0.1695 -0.5660 -0.825 0.561 -0.068 58 30 13 0 0
-0.0523 0.1703 -0.5688 -0.729 0.577 0.368 55 27 12 0 0
-0.0489 0.1683 -0.5731 -0.711 0.666 0.226 55 27 13 0 0
-0.0460 0.1664 -0.5805 -0.699 0.684 -0.208 55 27 10 0 0
-0.0453 0.1659 -0.5840 -0.974 0.201 0.110 66 36 18 0 0
-0.0427 0.1643 -0.5882 -0.929 0.219 -0.297 67 37 19 0 0
-0.0399 0.1623 -0.6055 -0.927 0.106 0.361 65 33 13 0 0
-0.0410 0.1628 -0.6084 -0.927 0.106 0.361 64 31 12 0 0
-0.0419 0.1632 -0.6114 -0.959 0.138 0.248 63 30 10 0 0
-0.0875 0.1831 -0.8066 -0.953 0.286 -0.101 63 28 10 0 0
-0.0861 0.1823 -0.8106 -0.966 -0.092 0.241 62 27 8 0 0
-0.0896 0.1842 -0.8122 -0.905 0.244 0.347 61 25 7 0 0
-0.0932 0.1858 -0.8270 -0.861 -0.277 0.426 66 29 10 0 0
-0.1163 0.1980 -0.8550 -0.873 0.321 0.367 94 53 24 0 0
-0.1175 0.1986 -0.8577 -0.890 0.381 0.252 92 53 25 0 0
-0.1049 0.1897 -0.9169 -0.950 0.248 -0.188 74 47 32 0 0
-0.1536 0.2153 -0.9815 -0.897 0.370 0.243 112 90 77 0 0
-0.1551 0.2160 -0.9872 -0.629 0.709 -0.319 115 93 78 0 0
-0.1748 0.2253 -1.0467 -0.872 0.489 0.038 79 49 28 0 0
-0.1749 0.2253 -1.0499 -0.872 0.489 0.038 80 50 30 0 0
-0.1873 0.2299 -1.1331 -0.845 0.170 0.506 83 55 33 0 0
-0.1849 0.2284 -1.1381 -0.993 0.113 -0.026 82 55 34 0 0
-0.2068 0.2403 -1.1520 0.052 -0.006 0.999 193 191 190 0 0
-0.0270 0.1756 -0.0232 -0.946 0.318 0.058 64 31 12 0 0
-0.0288 0.1758 -0.0506 -0.927 0.375 0.009 52 24 10 0 0
-0.1154 0.2227 -0.1126 -0.903 0.423 0.076 109 80 70 0 0
-0.1150 0.2224 -0.1155 -0.873 0.467 -0.141 135 107 93 0 0
-0.1231 0.2261 -0.1442 -0.958 0.285 0.028 62 35 20 0 0
-0.0756 0.1960 -0.2604 -0.764 0.641 0.073 50 33 25 0 0
-0.0735 0.1945 -0.2700 -0.799 0.586 0.132 50 33 25 0 0
-0.0812 0.1982 -0.2933 -0.689 0.666 0.287 39 20 13 0 0
-0.0660 0.1874 -0.3705 -0.933 0.273 0.233 51 34 25 0 0
-0.0673 0.1877 -0.3859 -0.774 0.563 0.290 52 32 18 0 0
-0.0678 0.1879 -0.3889 -0.897 0.420 0.139 67 42 29 0 0
-0.0341 0.1664 -0.4766 -0.943 0.284 -0.174 57 31 16 0 0
-0.0435 0.1706 -0.5128 -0.572 0.793 0.210 54 27 14 0 0
-0.0375 0.1659 -0.5568 -0.947 0.287 -0.147 61 33 16 0 0
-0.0370 0.1656 -0.5602 -0.947 0.287 -0.147 61 32 15 0 0
-0.0366 0.1652 -0.5636 -0.947 0.287 -0.147 59 30 16 0 0
-0.0366 0.1652 -0.5668 -0.934 0.338 -0.114 61 32 16 0 0
-0.0481 0.1716 -0.5665 -0.786 0.593 0.175 60 31 14 0 0
-0.0522 0.1738 -0.5684 -0.795 0.561 0.230 57 28 13 0 0
-0.0407 0.1662 -0.6081 -0.923 0.149 0.354 71 39 18 0 0
-0.0501 0.1712 -0.6212 -0.921 0.287 0.263 64 31 13 0 0
-0.0510 0.1716 -0.6241 -0.853 0.521 0.008 74 42 21 0 0
-0.0493 0.1684 -0.7004 -0.982 0.017 0.188 54 23 5 0 0
-0.0510 0.1692 -0.7063 -0.988 -0.140 0.069 55 24 6 0 0
-0.0526 0.1693 -0.7322 -0.715 0.690 -0.110 56 25 7 0 0
-0.0845 0.1854 -0.7975 -0.827 0.134 0.546 58 25 8 0 0
-0.0899 0.1880 -0.8114 -0.987 -0.076 0.138 60 25 7 0 0
-0.1151 0.2012 -0.8419 -0.848 0.499 0.179 82 42 16 0 0
-0.1155 0.2014 -0.8449 -0.879 0.294 0.375 85 44 16 0 0
-0.1050 0.1935 -0.9128 -0.909 0.307 -0.283 65 39 26 0 0
-0.1046 0.1932 -0.9163 -0.938 0.322 -0.130 72 44 30 0 0
-0.1415 0.2120 -0.9813 -0.992 0.115 -0.059 111 92 78 0 0
-0.1736 0.2284 -1.0401 -0.878 0.478 0.037 77 43 18 0 0
-0.1756 0.2289 -1.0584 -0.948 0.195 -0.251 79 51 33 0 0
-0.1712 0.2260 -1.0743 -0.895 0.446 0.025 77 50 36 0 0
-0.1786 0.2284 -1.1350 -0.962 0.270 0.032 83 52 31 0 0
-0.1827 0.2306 -1.1387 -0.841 0.539 -0.054 81 54 33 0 0
-0.0278 0.1814 0.0402 -0.821 0.473 0.319 63 30 11 0 0
-0.0262 0.1789 -0.0142 -0.880 0.458 0.124 63 31 11 0 0
-0.0267 0.1791 -0.0172 -0.933 0.359 0.017 64 32 12 0 0
-0.0328 0.1822 -0.0293 -0.790 0.568 0.231 59 27 9 0 0
-0.0781 0.2059 -0.0880 -0.938 0.341 0.065 59 27 15 0 0
-0.1142 0.2254 -0.1126 -0.893 0.436 0.110 111 82 70 0 0
-0.1131 0.2245 -0.1215 -0.965 0.261 0.007 141 114 98 0 0
-0.1151 0.2255 -0.1243 -0.857 0.322 0.402 129 94 76 0 0
-0.1293 0.2323 -0.1641 -0.759 0.624 0.188 65 47 37 0 0
-0.1089 0.2206 -0.1749 -0.727 0.610 0.317 62 43 36 0 0
-0.0673 0.1914 -0.3793 -0.899 0.402 -0.173 47 28 14 0 0
-0.0683 0.1916 -0.3916 -0.943 0.160 0.292 71 38 23 0 0
-0.0898 0.2035 -0.3962 -0.984 0.064 0.164 75 36 15 0 0
-0.1094 0.2138 -0.4193 -0.753 0.629 0.192 78 36 11 0 0
-0.0332 0.1695 -0.4765 -0.943 0.284 -0.174 56 30 15 0 0
-0.0496 0.1760 -0.5688 -0.932 0.324 0.161 58 29 14 0 0
-0.0432 0.1720 -0.5839 -0.952 0.267 -0.153 57 28 13 0 0
-0.0400 0.1700 -0.5882 -0.903 0.348 -0.251 58 27 14 0 0
-0.0411 0.1702 -0.6042 -0.840 0.527 0.129 73 40 21 0 0
-0.0496 0.1720 -0.7064 -0.944 0.152 0.292 56 25 7 0 0
-0.0504 0.1724 -0.7093 -0.975 0.083 0.205 56 25 7 0 0
-0.0510 0.1727 -0.7124 -0.975 0.083 0.205 57 26 8 0 0
-0.0487 0.1711 -0.7200 -0.811 0.451 0.373 60 29 11 0 0
-0.0687 0.1812 -0.7579 -0.919 0.119 0.376 57 25 10 0 0
-0.0708 0.1824 -0.7602 -0.975 -0.151 0.166 59 27 11 0 0
-0.1052 0.1978 -0.8921 -0.961 0.264 -0.084 64 40 28 0 0
-0.1036 0.1962 -0.9161 -0.944 0.303 -0.133 71 43 29 0 0
-0.1025 0.1953 -0.9267 -0.619 0.701 -0.355 74 47 27 0 0
-0.1014 0.1946 -0.9306 -0.551 0.725 0.412 76 48 27 0 0
-0.1383 0.2139 -0.9758 -0.862 0.506 -0.018 106 87 73 0 0
-0.1383 0.2138 -0.9791 -0.862 0.506 -0.018 112 93 79 0 0
-0.1410 0.2153 -0.9808 -0.941 0.301 0.154 110 91 77 0 0
-0.1585 0.2246 -0.9966 -0.863 0.494 0.104 94 60 40 0 0
-0.1758 0.2313 -1.0999 -0.825 0.262 0.501 77 40 16 0 0
-0.1813 0.2337 -1.1256 -0.865 0.366 0.342 86 54 31 0 0
-0.0789 0.2096 -0.0909 -0.888 0.405 0.220 60 27 11 0 0
-0.1129 0.2280 -0.1127 -0.915 0.250 0.317 115 87 73 0 0
-0.1143 0.2285 -0.1214 -0.982 0.022 0.185 143 115 97 0 0
-0.1076 0.2233 -0.1750 -0.874 0.451 0.180 63 44 37 0 0
-0.0813 0.2056 -0.2776 -0.787 0.555 0.269 49 32 24 0 0
-0.0812 0.2040 -0.3329 -0.647 0.672 -0.360 49 26 18 0 0
-0.0649 0.1937 -0.3734 -0.929 0.196 0.315 53 31 18 0 0
-0.0895 0.2068 -0.3960 -0.975 0.131 0.180 77 36 16 0 0
-0.1117 0.2181 -0.4338 -0.902 0.388 -0.189 75 45 26 0 0
