ply
format ascii 1.0
element vertex 678
property float x
property float y
property float z
property uchar diffuse_red
property uchar diffuse_green
property uchar diffuse_blue
end_header
-0.0007523688894563686 0.245185186696917 -0.7376854599809153 65 30 10
-0.0008384270542549557 0.24480803834807577 -0.7411013584619144 66 31 11
-0.0008088022357148191 0.24695215807036253 -0.7435340825536029 68 33 12
-0.0008430234215699136 0.2477040186244867 -0.7465080656688053 72 37 15
-0.0008772315799145747 0.2484557456339231 -0.7494811901553253 73 38 16
-0.000909399531147854 0.24925139656764755 -0.7524360048391822 72 36 14
-0.0009683271108042561 0.24946543085971795 -0.7556211117985192 68 31 11
-0.0010265769841619737 0.24969457630250536 -0.7588010695523387 66 29 10
-0.0010862098122149605 0.24989411599390998 -0.7619937397385836 68 31 12
-0.0009571564679812091 0.25418235728378447 -0.7635404324022199 72 35 16
-0.0009360490212818517 0.25612769889160847 -0.7660219948872087 71 34 15
-0.0009226699257341361 0.2579036064221587 -0.7685674525647083 70 35 15
-0.0010130956637555127 0.2574335326841053 -0.772024526921989 71 36 16
-0.0010423517599453345 0.2582862306019391 -0.7749431001209157 70 35 15
-0.0009999499609588429 0.2606850598683614 -0.7772246679928351 68 33 13
-0.000638134334283922 0.2699701073336188 -0.7766566995342277 66 31 11
-0.0006722994570091149 0.2707076903018706 -0.7796024387411952 66 31 12
-0.0005874697236542912 0.2740074559531312 -0.7814808422659125 69 34 14
-0.0005862012414321639 0.27550477797567385 -0.7841030002752334 67 32 13
-0.0006589402255925414 0.2754092001086963 -0.7873900857128274 65 30 10
-0.0008221977107550748 0.2733696011808858 -0.7914980649126926 65 30 10
-0.0009425879927716166 0.27225417568942833 -0.7952236245023253 65 30 11
-0.0005755134726269972 0.2815989480406848 -0.7945126240686855 67 32 12
-0.0003383013307050528 0.2881463577070889 -0.794964319304925 66 31 12
-0.0005048849371627525 0.28603490807720544 -0.7991017149274848 65 29 11
-0.0006420198026213745 0.2845577210669074 -0.8029752824485203 65 29 10
-0.0006567766011976641 0.28570094776782234 -0.8057249838138681 75 39 19
-0.0005952790055492067 0.2884728632930954 -0.807767045671623 76 39 20
-0.0002858956210889897 0.296535073095473 -0.8075011987387753 74 37 18
-0.00029271175773113497 0.29783820471398753 -0.8101598391911425 74 37 19
-0.000270791675795877 0.2997528235001319 -0.8125477253808766 72 35 17
-0.0002790803731811328 0.3010215862329917 -0.8152148053089326 71 34 16
-0.00029104979224452415 0.3022107698962373 -0.8179143153926115 70 33 14
-0.0004923143823830287 0.29937163789563404 -0.8223969393244271 70 33 14
-0.0007863779608539454 0.2945647375008411 -0.827766337301516 71 33 14
-0.0009587080910396714 0.29235177133470586 -0.831995078724545 70 32 11
-0.0012533235660094968 0.2875471862504413 -0.8373948640599768 70 32 11
-0.0010666453891501797 0.29585323068226116 -0.8433997656139866 72 34 12
-0.0009231225222697077 0.3003353831388259 -0.8446059106724877 77 37 14
-0.0008654161925590294 0.3029967679791382 -0.84663020830088 79 40 14
-0.0008436977950459328 0.30489440387623246 -0.8489972583970898 84 43 13
-0.0007211613707370588 0.3089185754325642 -0.850380709072984 88 47 15
-0.0007704912187616077 0.30931128924703843 -0.8534296060143688 93 56 24
-0.000766492213400664 0.3108284137303463 -0.8559574198873513 93 57 27
-0.0008397927642954314 0.31071553151878845 -0.8592402036440052 94 57 30
-0.0008756545303617285 0.31139163159822736 -0.8621564611464124 94 59 31
-0.0012810346286092587 0.30429476560448504 -0.8687158142814896 91 57 31
-0.0014256884686035436 0.3026894463715274 -0.8727173150324652 87 55 32
-0.0015083553163567796 0.30238916208838984 -0.8761096789029995 86 55 36
-0.0016222686414242397 0.30143427460071404 -0.8798149023879733 80 51 34
-0.0015841934712717172 0.30366890482064585 -0.8820080120207633 77 50 34
-0.00161116011793033 0.30453790543345116 -0.8848469416944292 77 49 33
-0.001802588257510238 0.3019625706250696 -0.8893344950482841 76 49 33
-0.0018059496760678521 0.3033268766359458 -0.8919384783387911 75 48 31
-0.001819768861061481 0.3044711868171141 -0.894645542716594 65 36 19
-0.002042951278174882 0.30124043835136327 -0.8994686466871346 63 34 16
-0.0022328025576075095 0.2987111034920743 -0.903963638900463 65 36 18
-0.002361932217430045 0.2974529845502133 -0.9078490681911352 65 36 18
-0.0024463161404179286 0.2971301959606355 -0.9112827522829887 68 39 21
-0.0025461697104428365 0.29648638539699584 -0.9148768138119294 71 42 24
-0.002836733831615675 0.291874890098311 -0.9204299031471582 73 44 28
-0.0026549525835787976 0.2970948434483853 -0.9211388629597562 75 45 27
-0.002740039065274481 0.29676154328643634 -0.9245871180333601 76 45 25
-0.002829884184905696 0.29633063689616357 -0.9280867560589668 78 47 27
-0.002917692582514962 0.29594335593905907 -0.9315677152278323 82 51 30
-0.0031620034033570683 0.2923122302165823 -0.9366780717265294 83 52 31
-0.0032438770644102263 0.2920529448489564 -0.9401061741543955 82 48 26
-0.0032811093357340846 0.2927190303425877 -0.9430696499543915 76 42 18
-0.0033340711851373977 0.29305940564177146 -0.9461974624029855 71 39 16
-0.0033412476600270047 0.29434651229431075 -0.9488445259536327 71 39 18
-0.0033808887863831707 0.2949617579304491 -0.9518314486516506 71 39 18
-0.0036353134713563292 0.2911432064462776 -0.9570868852833613 74 42 21
-0.00359996326227031 0.2933081789026155 -0.9592847583495582 77 48 30
-0.0028590313952993962 0.3100134656241412 -0.953985456235461 80 55 40
-0.002797116566940423 0.31270958173646896 -0.9558718857293319 81 58 47
-0.0026822041863797334 0.3164930644589211 -0.9571866188015727 81 60 50
-0.0026348616216733114 0.31888202049357806 -0.959215594112607 80 60 51
-0.0026913246018143676 0.31913495984050966 -0.9623532225343978 82 61 53
-0.002578350085133383 0.3228674536203907 -0.9636687425372008 88 68 60
-0.0027024409808300747 0.32173080667504494 -0.967532226265969 88 68 60
-0.0026384855022990473 0.3244521260354599 -0.969366786619132 88 68 59
-0.0023751767581950264 0.3312544007568602 -0.9690343339689275 88 68 58
-0.0022348746749031234 0.33552893337280226 -0.9700216555277004 88 68 57
-0.0022008942261584194 0.3376227219537392 -0.972157126099118 89 69 58
-0.002153822026584753 0.3399816962595027 -0.9741452431357911 92 72 62
-0.0021019511091508476 0.3424358606351573 -0.9760757430827098 93 73 66
-0.001961628498028509 0.34669246933647657 -0.9770299777959712 94 74 65
-0.002169437527767464 0.3438428859535735 -0.9818050278775784 93 73 64
-0.002366584831543227 0.3412155524332143 -0.9864713379086003 92 72 63
-0.0020410245060282642 0.34923809961105745 -0.9853653158778557 92 72 63
-0.001950166812682218 0.35247306484309765 -0.9868410345107349 95 75 66
-0.0018509948847208989 0.3558729622505759 -0.9882169374114245 99 80 70
-0.0017990663438510026 0.35830848822878525 -0.9901113068304076 94 73 60
-0.0017797785671091271 0.3600783033340519 -0.9923649265675233 88 60 43
-0.0018128564174726006 0.36078368504897024 -0.9952012834623253 83 47 28
-0.0018161252992072892 0.36209306647242556 -0.997702469235644 76 37 14
-0.0017963489268018676 0.3638680666045205 -0.9999421481268111 79 36 12
-0.001774634216859479 0.3656803479396256 -1.0021564600193218 80 36 10
-0.001830381806448413 0.36592361431886966 -1.0052427465806604 80 36 9
-0.001777515851108664 0.3683627324435753 -1.007098982778671 82 38 11
-0.0019450810055569832 0.36634640278441055 -1.0114534536294877 85 41 14
-0.0019082455580645774 0.3684593862630903 -1.0134875735208873 88 44 15
-0.0018902703911986727 0.3701895164467699 -1.0157325042736405 91 47 18
-0.0017447236087603409 0.3744888267023745 -1.0165148603836274 91 48 16
-0.001778799803433222 0.3751650048512535 -1.0193463642509526 93 49 17
-0.001824049979566274 0.3756159959472428 -1.0223057009226606 95 52 19
-0.0018978235368181922 0.3754934240863483 -1.0255936142697992 95 54 19
-0.0019322949864247659 0.3761614550747679 -1.028429314485058 99 59 24
-0.0019663484995439753 0.37683756782394306 -1.0312596228126965 100 61 25
-0.0020196681845921476 0.37712679975104013 -1.0343128244100546 101 61 28
-0.0020935565016774044 0.3770039003152784 -1.0376056070638529 102 66 35
-0.0021606699560482714 0.37701759651579947 -1.0408209969490183 103 69 39
-0.0022291412794247416 0.37700477197900883 -1.0440534334211404 105 71 43
-0.0022921346750504655 0.37710223324954373 -1.0472230044979312 107 73 46
-0.002379178240710279 0.3767194780363772 -1.050675708286169 108 74 47
-0.0024752970615033003 0.3761566980073459 -1.0542373712782929 100 67 42
-0.002494419590378795 0.3771322829980402 -1.0568943058854618 94 62 39
-0.002513527865217022 0.3781073876542646 -1.0595497022724958 96 64 40
-0.002587929068729437 0.37797971930403573 -1.0628583261255988 98 66 43
-0.0026509588586952418 0.37807939184382333 -1.0660335890511505 97 67 41
-0.0028709735856747793 0.37505547061164596 -1.0710766208420592 95 65 43
-0.002928642878362817 0.37526512876055296 -1.0741940636978198 87 58 41
-0.00323733414117977 0.3704870228483069 -1.0803105082775901 77 49 35
-0.0035305036744549094 0.3660248930883957 -1.086255059562587 64 42 30
-0.00361674103074254 0.3656759847452516 -1.089730069797209 40 21 15
-0.003843874774720862 0.36253470397809007 -1.0949013185462804 34 15 12
-0.003664413718965083 0.36745441848521154 -1.0951827091577662 41 19 10
-0.003802552046247097 0.36607976174253265 -1.0992876694007077 51 24 14
-0.0035744284458420787 0.37195364474674786 -1.0989648421837457 56 28 14
-0.0035169513039819194 0.37444609293465825 -1.1006973847043509 59 27 11
-0.0034441028332525417 0.3772391810858592 -1.1022377096727545 68 32 13
-0.0034386396763715164 0.37869868396066086 -1.1045926820164698 71 34 13
-0.003396729396234619 0.3808756186451143 -1.106500092443591 76 38 13
-0.0034504279261889023 0.3811655590434771 -1.1095725751380368 84 45 22
-0.003512611291255947 0.38128863970434745 -1.112749531376392 91 55 28
-0.0035524014179379518 0.38185294071949927 -1.1156522703872673 91 55 29
-0.0035173833012247958 0.3838882992056609 -1.1176337278218835 92 57 29
-0.003702832604365454 0.3815887330200335 -1.1223310645659463 95 61 33
-0.0037712626875568553 0.3815911939153498 -1.1255889243079538 95 61 33
-0.003839721070415793 0.38159377780151654 -1.1288483498732673 100 68 40
-0.0038882953551876457 0.3819869346645397 -1.1318621179180417 103 72 44
-0.003939986215620225 0.38231912722910516 -1.1349148428114546 105 75 47
-0.003984059250816658 0.38280066410983626 -1.1378729363724964 104 74 48
-0.00412815766447038 0.3813251760812081 -1.1420806237055998 99 72 51
-0.004304964468016346 0.3792130788279575 -1.1467029124525827 78 56 40
-0.004514308223066772 0.3764691321647743 -1.1517401789730146 72 55 40
-0.00469845779418586 0.3742217489286708 -1.1564692073065894 94 84 69
-0.004957585268366379 0.3705157423325488 -1.1621498593737511 139 133 123
-0.005234835940222036 0.3664626076830822 -1.1680702804274739 168 162 158
-0.0054986741795042555 0.3626773873581384 -1.1738329897141822 181 178 177
-0.0059598998943669 0.35505642845593954 -1.1821085584124356 187 188 186
-0.005743346450363817 0.36063014334065435 -1.1817980704973168 194 193 191
-0.00571692677327611 0.36250097640477824 -1.183893584656094 197 196 194
-0.005619713392491639 0.36574465152932883 -1.185082731306867 200 199 197
-0.003533818519457152 0.40757861234187115 -1.1608565524110213 201 200 198
-0.01169370720048492 0.25065793050416524 -1.267686704891911 203 201 200
-0.011992868215344284 0.24629765949301843 -1.274098597090446 203 201 202
-0.012085523574866116 0.24594335378853321 -1.277869076491259 204 202 203
0.008106144190600236 0.6518337594898029 -1.0450297354819544 208 208 208
0.017711463943575805 0.17139564779126004 0.12825467501044435 183 183 185
0.016708834187515648 0.14460486039047812 0.126648850223802 183 183 185
0.016914179672457647 0.15222704906524948 0.12326373364979842 183 182 184
0.017329357183737626 0.1658012636216607 0.11961424558789321 146 139 137
0.018412700835537914 0.19832876625968973 0.11512238571747577 127 106 99
0.018248513279981612 0.19540160172234367 0.1123199129991895 122 95 84
0.0184472944036276 0.20277080839410178 0.109059221549062 121 93 80
0.018371799469734967 0.20235880219393582 0.10614616384365308 128 99 84
0.018773165220850496 0.21544446590053593 0.10268239854037708 152 124 109
0.0189945481167021 0.22341885698773206 0.09945572636591501 156 131 120
0.019090212210422917 0.22782831390226307 0.09638542549046394 156 131 123
0.01912630565060275 0.2305493365330964 0.0933878703899495 150 126 118
0.019182234288118744 0.2338259011379279 0.09037766831088181 156 134 124
0.01916193221984156 0.23494939007385973 0.08744740535706269 131 109 97
0.01920014858679881 0.23771938174434748 0.0844667421092336 112 89 78
0.019230107438062242 0.24025308685734492 0.08150005986063394 102 74 64
0.01925325346101278 0.24259171896324105 0.07854513136278227 97 62 45
0.019282980727382326 0.24511193312548027 0.07559078065140096 74 36 15
0.019228058414723772 0.24525336315200544 0.07270419295933248 68 31 11
0.01926005887476248 0.24783224362463482 0.06975709153771659 63 27 7
0.0192006025469214 0.24784563758919065 0.06687521739396289 61 24 6
0.0191246475077492 0.24739802457400847 0.0640019720542537 68 30 12
0.019079140216934645 0.2478033726359234 0.061108993152441976 71 33 13
0.019085056035489396 0.24964552878291882 0.05818921813131777 71 33 14
0.019060049083242638 0.25062207577835416 0.05528833799536567 69 32 16
0.019140908942741345 0.2545505115165052 0.052342946193543446 106 79 69
0.019203673032755268 0.2579687036166452 0.049415039859459484 117 90 79
0.01924822031238986 0.26087458767395677 0.04650239028926984 126 89 71
0.019263408163993714 0.26295948706548006 0.04360618024705276 144 103 78
0.01918557883910148 0.2624560594476518 0.040739904365909296 150 108 84
0.019431689665662895 0.27095087584360467 0.03779690201493176 143 99 75
0.019300750139731995 0.2689692673170518 0.03494827207850305 141 99 71
0.019166254904732533 0.2668932226716251 0.03209294839720702 137 97 70
0.019238257991017624 0.2705417716861371 0.029208563145934646 128 89 64
0.01925414178283151 0.2726316009626919 0.02633723801897627 116 78 54
0.019205107648165427 0.2729233774144826 0.02347223695570643 109 73 48
0.0192134034434551 0.27479947311821745 0.020607854287713286 105 69 44
0.018959586527087992 0.26943698806439426 0.017732061585632824 105 69 44
0.019074662426539636 0.27425974186287994 0.014876175128181488 105 72 47
0.019010728791506035 0.2741415437804256 0.012007926162981627 105 73 48
0.018927032612477246 0.27348011446492315 0.009134404259263637 107 75 53
0.018877844666262196 0.27376999718346384 0.006265302063193756 105 73 50
0.018996919122964195 0.2786856221478801 0.0034401229104889935 107 75 54
0.01893512807689797 0.27862594186497197 0.0005731022597584914 107 75 54
0.018882687796005417 0.27882373214811057 -0.002292184408177786 107 75 54
0.01878159367529831 0.27768787327549044 -0.005176964356460832 111 79 58
0.01875826162540148 0.27868509533713565 -0.008033279213205409 114 82 61
0.01869636289905979 0.27862569258406306 -0.010905959709164394 112 80 59
0.01863735094166161 0.27864609949031655 -0.013778667275453002 112 79 59
0.018443566111558982 0.2749843403237363 -0.016726400413874694 108 78 55
0.018360225243319254 0.27434504922401265 -0.019621346118605915 107 77 53
0.018261459165111148 0.27328679504081327 -0.022529180654375404 101 71 47
0.018263402698550393 0.2749761519905653 -0.025374162567501884 97 67 45
0.018160312704081603 0.2738029119099159 -0.02828988141532531 94 63 44
0.018068336754154486 0.2729348403836237 -0.03120205493752584 90 58 44
0.017974253177277952 0.27201169363384736 -0.03411976377808063 84 52 41
0.017922752004775222 0.27224761716503293 -0.03700622742562589 74 46 35
0.017792211118978715 0.27033860264361276 -0.03996195945861033 57 34 23
0.017655456450148307 0.2682650619483605 -0.04293026886297814 32 18 11
0.017483134824545783 0.2652320573179991 -0.045939720732799415 15 8 5
0.017079973582378435 0.25595535863596197 -0.04918749649261822 11 6 3
0.01682574252641796 0.2507237077719861 -0.05231077009101392 11 6 5
0.015791865380850464 0.22442973384448855 -0.05628307028126376 8 6 3
0.015611935878053049 0.22124153607706268 -0.05938835926398184 15 12 8
0.01592154001072876 0.23126806772264752 -0.061942918664067 17 11 8
0.016087099503280675 0.23739513730660827 -0.06464031815001511 25 13 10
0.016202214834892377 0.24215386194024074 -0.06738293807231763 40 25 21
0.01632211420084987 0.2470340934651255 -0.07010689429891474 58 43 37
0.016475379983517578 0.25280413174907346 -0.07277434703539701 97 81 74
0.016608594206321 0.2580264648124239 -0.07545318624932 126 109 99
0.01671137567051363 0.26242377727148525 -0.07816017015904064 108 90 79
0.016817006237632746 0.2668908741483599 -0.0808515544197336 83 56 42
0.0167473887099003 0.266654444254744 -0.08378742760132767 64 26 10
0.01683430953374778 0.27061098093966024 -0.08649029478876187 60 25 10
0.016821447798423667 0.27189187628334893 -0.08933662562877484 55 23 8
0.016789070139030665 0.27264965286468185 -0.09221135538366731 61 28 13
0.016845122511094244 0.27576894400547225 -0.09494205103708891 106 80 68
0.016885369427313588 0.2784619323009394 -0.0976911506169713 89 67 59
0.016731795061288815 0.2759827318187255 -0.10076253326018661 88 60 52
0.017054522368813704 0.28619881220236143 -0.10301584500953131 100 69 59
0.017295965388282354 0.29423462697437547 -0.10538489330445801 102 73 61
0.01753156928442181 0.3021024054643782 -0.10774240046414842 117 90 81
0.017627567301394254 0.3062474944284086 -0.11033681192397193 107 78 69
0.017673251591192166 0.30905033446272395 -0.11301556349822292 121 94 83
0.017845138659212882 0.31519764892178 -0.11544395543011719 162 139 127
0.017972537025435914 0.32015602188671766 -0.11794328744266291 145 122 113
0.01792212319534973 0.3203969945386277 -0.12078625550020344 153 125 116
0.01789089688633077 0.3211461085881386 -0.12359056255425913 102 63 37
0.017947285570099933 0.32421154802734065 -0.12621142053887113 87 42 10
0.017870688837126867 0.32375894482733175 -0.12910683781849033 80 35 9
0.01789199358601681 0.3258923597679094 -0.13179334270618945 75 34 12
0.017823567944321193 0.32565610635010256 -0.13467221863287065 69 29 5
0.017736823154172965 0.32493817542328035 -0.13759403603425752 70 33 8
0.01768472250478559 0.3251344672674678 -0.14044038734839565 69 31 11
0.017610878815601146 0.32475907830959916 -0.14333774661433535 67 33 15
0.017469171461603074 0.32260095985372317 -0.14639706179538894 66 37 22
0.01732990234999964 0.32051121871036226 -0.14945808344374722 68 42 31
0.017118050035067542 0.31652071152262184 -0.15270266006280012 68 46 33
0.016903059350209818 0.3124552874654388 -0.1559678166282012 68 46 35
0.01669525692399946 0.30858571515712196 -0.1592280313028545 66 46 37
0.0166023735821018 0.30773190307157655 -0.1622086334675768 64 44 35
0.016360049417264086 0.3029711464124894 -0.16557850174527977 64 44 35
0.01625989582225643 0.30193488283103864 -0.16859129603709758 63 43 34
0.015685620834956823 0.2980446729768786 -0.18943510209451464 64 44 35
0.01546498941609516 0.29389726232145263 -0.19282885186320659 63 43 36
0.015278146621828276 0.29063400830567326 -0.19613597130440247 62 42 35
0.015194242599326542 0.2900451101789149 -0.19914564492642953 62 42 35
0.014800446905934335 0.28143210387780637 -0.20309754776607697 62 42 35
0.015628361931262862 0.3044487705739505 -0.20332715364549397 62 42 35
0.015523645846908463 0.30331401376803135 -0.20638798944308112 61 41 34
0.015335031050256787 0.30001438883630444 -0.20971704163757227 60 40 33
0.014499780707839886 0.2800292453139691 -0.21511306142766143 61 41 34
0.01444281087586216 0.2801511758080054 -0.2180641739945795 61 41 34
0.014418752556506993 0.28112179936193415 -0.22090914210617119 62 42 35
0.01420164988968596 0.27712082741662286 -0.2243879461636371 60 40 32
0.014031983740310948 0.2743476574936142 -0.22772167629904125 59 39 30
0.01414469155472519 0.27883871729073584 -0.23011447690621623 59 39 29
0.014221269189564734 0.28239509159001774 -0.23261859792306405 59 39 28
0.014137695846588857 0.28183618611519934 -0.2356645413881806 59 39 30
0.014046170781622883 0.2810750428096239 -0.23874102520543344 59 39 30
0.013950342424725346 0.2802056430903922 -0.2418361068378975 59 39 30
0.013864677159567455 0.27959860756579097 -0.24489891081567708 62 41 31
0.01378717749953124 0.27920219397577073 -0.24793547433552188 64 42 31
0.013630820036313069 0.2767916810374521 -0.251260137753895 63 40 30
0.013271813968426804 0.26921072357943704 -0.25533452346028335 62 38 28
0.013111114168331203 0.26670309635036554 -0.25869904224388346 66 39 28
0.013012800559015212 0.2657909206767097 -0.26183920793281196 69 42 30
0.012950685561232658 0.26580314394966054 -0.26484687093509096 68 40 28
0.012891239219395473 0.2658840267251379 -0.26784565327774534 67 40 28
0.012797967525733644 0.2651052572527813 -0.2709754540542303 67 41 28
0.012746242414191113 0.26538429549921877 -0.27394767701061423 67 41 28
0.012680473882067327 0.2653070516881978 -0.2769753800721968 68 42 29
0.012686744065609844 0.26705831817861836 -0.2797200265761499 68 40 26
0.012642261585900705 0.2675209173639955 -0.28266331513460186 65 37 23
0.012526504833625947 0.26617823876574703 -0.28589331694377934 65 37 23
0.012442909471645017 0.2656524456679955 -0.28899791387380824 64 37 22
0.01232317360472397 0.26421438296373456 -0.2922533172708205 60 34 19
0.01225181060332212 0.2640016299636793 -0.29531429336660797 57 29 15
0.01223958534888421 0.26528294166079947 -0.29813074729097766 58 29 15
0.012088727631067882 0.2630659234863073 -0.3015275504926044 52 25 13
0.012128944070120913 0.2656691577193866 -0.3041219994509289 67 46 34
0.012240541085358195 0.2700664991846019 -0.3064051944577091 70 48 34
0.012399185918462587 0.27564125681286267 -0.30847436379893806 61 32 18
0.012355109909598701 0.27611076166897147 -0.31141012135515794 50 17 5
0.011950939815032839 0.2675340330269368 -0.3159239113152132 59 24 7
0.011864097702058981 0.266937408744223 -0.3190614055367223 69 32 11
0.011828339771667255 0.2676237397356533 -0.3219743833578492 71 34 11
0.011864464410608285 0.27011109599079064 -0.3245640051466848 76 42 20
0.011736738116236852 0.2684923454535412 -0.327889293315263 80 50 33
0.011688147673900771 0.2688569151199276 -0.3308595769284276 74 47 32
0.011506575968475388 0.26589724908120643 -0.33444132296020923 59 36 24
0.01130519086963472 0.2624482519170196 -0.33812453916832885 33 14 9
0.011092848044837032 0.2587321460849935 -0.3418699855167104 49 28 20
0.01086691292183551 0.2546838889218963 -0.3456911950062419 68 45 31
0.01066880818732369 0.2513364471783632 -0.3493933387906635 50 27 13
0.010528523472595131 0.24943477102966966 -0.3528303046585837 51 28 15
0.010632288509281699 0.25360815498644435 -0.3551005042685553 49 27 14
0.010589407194333555 0.2541303600882875 -0.35807048807332065 46 24 13
0.010561096437089725 0.2550143507116841 -0.3609692203425408 42 21 13
0.010416770220946343 0.25301859102061003 -0.3644368494339322 28 11 4
0.01049868637624074 0.2566367482978892 -0.36679176559149723 32 15 7
0.010499871594679258 0.25824959631899336 -0.3695401285543651 55 31 23
0.010543965574059667 0.2609228143576071 -0.37206987884278736 60 32 23
0.010577406772362317 0.26332893767839016 -0.37464722221278224 43 16 6
0.010656896065664417 0.2668700074836288 -0.3769847345204708 49 21 9
0.01034129323668585 0.2606490898677148 -0.3813379717740876 48 22 8
0.010265795061735042 0.26036370574665624 -0.38447142851164023 57 27 12
0.01055185405527662 0.26899387537680697 -0.38572920886234063 67 36 21
0.01067452248991977 0.2735856026334763 -0.38781821519534904 73 43 29
0.01073727771423711 0.27669584171760286 -0.39021090217819054 63 29 17
0.010629682016260657 0.2756119222484832 -0.3934986109319529 63 29 17
0.010844846216208438 0.28246250553418734 -0.39506954674791633 70 35 19
0.010899941569248553 0.2853721423019593 -0.39748158708104 75 39 23
0.01098216799391212 0.2889434904806782 -0.3997401673725036 70 33 17
0.011154934147406793 0.2947294599848687 -0.40149777993052255 73 37 20
0.011160605884163597 0.2964136511348474 -0.40415452978630284 97 66 50
0.011162875207241206 0.2980125766128278 -0.4068265539999925 88 66 56
0.011196423775588259 0.30037463178942725 -0.40932208416538735 104 81 70
0.011204215324976934 0.30210418819084645 -0.4119558235551733 84 49 30
0.011232592729519517 0.3043343273453466 -0.4144705246827714 72 31 9
0.01126401012266098 0.3066357646049861 -0.4169630815144159 64 26 5
0.011372649394325937 0.3108166932408157 -0.4190120577506966 67 27 6
0.0113610637733605 0.31206318867906613 -0.4217372004825687 73 32 12
0.01122086838366863 0.3101782796390363 -0.42519903600781445 75 38 17
0.011126858292296968 0.30942030023153005 -0.4284004996198741 79 45 23
0.011063141178362362 0.30940036043462615 -0.4314292465030569 86 55 32
0.01096902084942733 0.3086430152908545 -0.43463711340499017 88 57 38
0.009505214115355836 0.2746594013571053 -0.44590466325919154 90 61 42
0.008991190225098655 0.2637541945432549 -0.45164997456716605 83 55 32
0.008103886089625204 0.24382620973597335 -0.45964808827748577 81 51 31
0.00735935485222911 0.22738633692880778 -0.4668490137009965 82 54 33
0.0072330441563208305 0.2259232925166785 -0.4703770731293574 76 47 26
0.007140123939313553 0.22527015307454487 -0.47370849306237794 62 32 14
0.007200207286887864 0.22831275723007385 -0.4761119976739805 65 38 20
0.007121585214301329 0.22800519095711289 -0.47935706396967315 67 40 22
0.006980699748200537 0.22619808698295227 -0.48298740954484604 59 32 14
0.00688570122618853 0.2254998178341249 -0.4863402540157541 72 41 24
0.006824560563360723 0.2256182307236861 -0.48948577586094577 63 31 16
0.006771864493706623 0.22594027415814558 -0.49257948324870726 59 27 12
0.0067956450358800475 0.22810003605831058 -0.4951927826883913 63 32 15
0.006709837289599057 0.2276261730069455 -0.49849407375379867 66 35 17
0.006607323510025891 0.22675308694445362 -0.5019041692200216 67 36 18
0.006566996968438566 0.22737271730991307 -0.5049207821097148 72 41 23
0.006501917660857196 0.2273992974680376 -0.5080959369770696 73 42 22
0.006509493827861335 0.2291652704865686 -0.5108033737830543 71 40 20
0.006456313491178248 0.2294764132085985 -0.5139014036313003 71 40 19
0.006366359196248265 0.22890921293225297 -0.5172397065695703 73 42 21
0.0063098690511199495 0.2291425689280173 -0.5203615671326585 72 42 18
0.006231591230786904 0.2288565931932025 -0.5236276362918069 72 40 17
0.0061489820164512266 0.22846859846403864 -0.5269245035820592 70 35 13
0.006099707612374586 0.22887587547936458 -0.5300019551890945 74 39 18
0.006033101981769349 0.22887083769096433 -0.5331954980834155 79 44 24
0.005874180847732231 0.22667153037350934 -0.5370107848627971 81 46 24
0.00577204507187538 0.22582563820942203 -0.540450006810936 82 48 22
0.005721704439546779 0.22621145422225158 -0.5435413924610024 85 52 23
0.005672235165310377 0.22661808469314287 -0.5466270885697113 86 55 26
0.005654857932929906 0.22778546225058233 -0.5494930682533697 88 53 25
0.005603033100822865 0.22813592332049898 -0.5525943166677596 82 46 20
0.005553229408331593 0.2285344137325276 -0.5556819325278528 81 45 20
0.005502154406168515 0.22890296881210626 -0.5587786024257718 85 49 24
0.005448937655670365 0.22922109519533368 -0.5618905302009903 85 48 24
0.005372480229153104 0.2289908254693371 -0.5651659709807029 84 47 21
0.005218701010786341 0.22693778106204862 -0.5689884476174781 82 45 19
0.005122774283122674 0.22625233211847973 -0.5724082180541579 87 50 23
0.005063098961296463 0.22642248871280157 -0.5755732900319094 90 53 26
0.005003409135508637 0.22659279398687582 -0.5787393179495941 89 54 26
0.004956753532482973 0.22707006786402972 -0.58181261201912 90 55 27
0.00488798209557962 0.2270277382458163 -0.5850454193936699 90 55 27
0.0048249386237739725 0.22712070617149932 -0.5882381673117134 89 52 25
0.004774064937503197 0.22749975729658495 -0.5913434147764686 88 51 23
0.0047234220291003225 0.2278843751843383 -0.5944472494489831 94 57 28
0.0046596505324625545 0.22796166973032753 -0.5976477379061098 99 61 31
0.004648464383584333 0.22927017403085753 -0.6004615312085994 94 55 24
0.004517565757166171 0.22777814096421575 -0.6041597497899556 94 55 24
0.004466668920720854 0.2281584209587808 -0.6072682477468501 97 58 27
0.0044259004186154695 0.22877531042811344 -0.6103013420350227 93 53 24
0.0043657767328373915 0.22894047813332286 -0.613479293177872 94 54 24
0.004253577991007589 0.22789234144056716 -0.6170505494836557 97 58 26
0.004202885501590418 0.22827912017809351 -0.6201605264687823 98 59 25
0.0040028459233494495 0.22519047785429158 -0.6244058439246256 100 62 26
0.004038134489362745 0.22757964696950475 -0.6268648787291289 100 62 26
0.003992733941949952 0.22809098902951253 -0.6299370888075458 100 62 26
0.003956193534154417 0.2288079817429594 -0.6329410192622884 98 60 24
0.0037784708994145298 0.22624944107448944 -0.6370354145748979 97 59 23
0.0037605711703355364 0.22740036046522732 -0.6398978882541901 96 58 22
0.00372283982701482 0.22809089068248234 -0.6429130490328699 96 58 23
0.0036593155350293947 0.22818416021510285 -0.6461294387195702 95 57 21
0.0036331170665992746 0.22914119156994117 -0.649053660279679 92 54 19
0.0035130491078265314 0.22792847677648326 -0.6527169945818876 91 53 17
0.0035367903518377765 0.23003873312134712 -0.6552460747251986 91 51 18
0.0034815126650578994 0.23032345044287114 -0.6583989785646054 85 45 15
0.0034590268365979563 0.23136438520327948 -0.6612906410295526 85 46 17
0.003409815874560766 0.23178885991283682 -0.66439495566172 83 44 16
0.0034470217147194856 0.2342023341522405 -0.6668040863203538 75 38 12
0.003353307181133895 0.23360195732226952 -0.6702654698211178 76 39 13
0.0033283605706805417 0.234583504581937 -0.6731721461398467 76 39 13
0.003253589053189407 0.23442023504113463 -0.6764830691821679 78 41 15
0.0031787670825139773 0.23425682165627107 -0.6797961677442914 76 39 13
0.0031212595989908807 0.23449135182509423 -0.6829689828400729 75 37 12
0.0030835869838795223 0.23518061898251724 -0.6859791231146715 76 38 15
0.0030785478017179464 0.23661648994044943 -0.6887189171681027 76 38 15
0.0030641239524747624 0.2378362222412419 -0.6915339668260841 77 39 16
0.0030695244006841427 0.23950782522044045 -0.6941818643131462 78 40 17
0.0030735030775498337 0.2411450859004023 -0.6968383844592835 77 40 17
0.0030341774285291435 0.24179246584932196 -0.6998551427511749 77 41 17
0.0030093708025092526 0.2427705950167944 -0.7027491434721111 77 41 17
0.002814403905855945 0.23987156229733667 -0.7070803755945945 74 38 14
0.002822670701450378 0.24160401416292568 -0.7096963021083262 74 38 14
0.002811083440992959 0.24288291728955178 -0.7124778927691563 73 37 13
0.0027451126439430795 0.24292458542987916 -0.7157221528528155 73 37 13
0.0027150005785524737 0.24378126430887453 -0.718659984146689 74 38 14
0.0027165614421803905 0.24535605286281092 -0.7213240869506337 75 39 17
0.0025600050165714566 0.24334403726814607 -0.725351452292031 71 35 13
0.002418747506481826 0.24168253984621013 -0.7292529495351541 69 33 11
0.002260394084343806 0.23963738422278902 -0.7333090690358861 66 31 9
0.0025324740109170536 0.24733269928013563 -0.7336128812213742 66 31 11
0.00242919271724819 0.24653259326886173 -0.7371868173260123 66 31 11
0.0023699789530553413 0.24672974829085503 -0.7403766586334998 64 29 9
0.002358147053211087 0.2479966163648235 -0.7431490777507885 64 29 8
0.0023197201076040177 0.24866254734036666 -0.7461548948217761 71 36 14
0.0022813121788091296 0.24932861389424155 -0.7491600334125342 74 39 17
0.002416701324439062 0.2539072757740294 -0.7506147201834367 71 36 14
0.0023955123825414072 0.2549570609689681 -0.7534594243771735 70 33 13
0.002562382914815517 0.26023332071398114 -0.7546139140300919 70 33 14
0.0025932328736943053 0.26244687253392796 -0.7569808866203516 71 34 15
0.002286971828509305 0.25709167288717305 -0.762390791683111 72 35 16
0.0022959490961502477 0.25881518912533413 -0.7649570172934027 72 35 16
0.002329223656313613 0.2610812279110887 -0.7672987129337088 72 36 16
0.002124643872889292 0.25801863492788824 -0.7718076266569964 70 35 15
0.0020335539024591686 0.2575007556223031 -0.7752863189191362 68 33 13
0.0019402065177608289 0.25693396382819583 -0.7787884673678761 68 33 13
0.0024462413980863695 0.2697582567805909 -0.7767652658328574 67 32 12
0.002526186224273178 0.27305238635300383 -0.7786513552304585 62 27 8
0.0026505724496962138 0.27733333404492394 -0.7801172105589631 61 26 7
0.0025583875224943617 0.27678172850244054 -0.7835898842560642 61 26 7
0.002514054170198941 0.2772973346550276 -0.7866182019405392 62 27 8
0.0023824426310865045 0.2758707810187035 -0.7904645896131545 63 28 9
0.0022555625817244646 0.27455239110041735 -0.7942716310863697 64 29 10
0.00251458465145095 0.28181042474155493 -0.7944426506387379 64 29 10
0.0021102413504826556 0.27433130805466116 -0.8008739262884226 64 29 10
0.0022364707353347496 0.27863401542686034 -0.8022890133228348 63 28 9
0.002278072772847345 0.28105497690914716 -0.8044998040846683 64 29 9
0.002335019624559705 0.28381276528976596 -0.8065587057513212 70 34 14
0.002401150218932128 0.28677024292338993 -0.8085234003054557 72 35 16
0.0024671040620888804 0.28971994737244844 -0.8104830723321808 69 32 13
0.0025726381980379805 0.29354038038279145 -0.8120543022746638 68 31 13
0.0026472240266669136 0.296672293789892 -0.8139158901241165 69 32 14
0.0025528169972533123 0.2960717442950712 -0.8174102675262117 68 31 12
0.0025493088917919312 0.29747671634016937 -0.8200227047759946 67 30 11
0.002513232859374397 0.29816283773597163 -0.8229506119320134 66 29 10
0.002208011754540021 0.29292455809906875 -0.8285138857936989 66 29 10
0.0016608835383332531 0.28237473309462585 -0.8364689487906938 68 30 11
0.0018075019908753006 0.2870881561446518 -0.8376181463360038 71 33 13
0.0022214965219368808 0.29766644212723026 -0.8361134688772665 71 33 14
0.0022300133287816376 0.2993318798889008 -0.8386008125812437 72 34 14
0.002201371903273225 0.3001807546972577 -0.8414543633670544 72 34 13
0.0019751222085910665 0.2966997532221762 -0.846277367061393 74 34 12
0.0020046041083278086 0.2988232154333792 -0.8485534144585846 76 36 12
0.0019979402954956706 0.30015344833475677 -0.8511875743463874 81 40 11
0.0021138245446759235 0.3041609531237686 -0.8525865731995851 86 45 13
0.002213513956668485 0.30780927577394396 -0.8541394449297871 89 51 19
0.002320281502193244 0.31160714955706026 -0.8556121353232332 91 54 24
0.002250298861281394 0.31154550611765924 -0.8588695817245362 91 54 27
0.0021873877105039515 0.3116387702197686 -0.8620564829944499 92 57 29
0.0017628536726313438 0.30385895078118863 -0.8689354663372953 91 57 31
0.0015932098503534057 0.301637353794598 -0.8732275148787039 87 56 32
0.001585531629709677 0.3029409672145694 -0.8758641448289847 84 54 34
0.0008377580713905645 0.2881664351880786 -0.88611760767457 79 51 34
0.0014639319576034253 0.30323823129758515 -0.8822275404111454 78 51 34
0.001239733098351339 0.29984362550041466 -0.8871022172414401 78 51 34
0.001256687749484996 0.301681363665263 -0.8894835761175434 75 48 31
0.0012686325883316816 0.3034085028822619 -0.8919134267745853 71 44 27
0.0012152597076003895 0.3037202972917607 -0.8950218473996934 67 38 21
0.0010133109420839299 0.3008197907935827 -0.8996861945518936 66 37 19
0.0007766805182172834 0.29717516772748814 -0.9047236899644773 65 36 18
0.0006690068599864351 0.29632093197572384 -0.9084146529229821 65 36 18
0.00060483852222591 0.2964072523183239 -0.9116499201856806 66 37 19
0.0004350008845653364 0.2942163972991765 -0.9160047588914932 70 41 24
0.00048457594454311744 0.29675559164338305 -0.9180378691094195 74 45 29
0.00025546755891995773 0.29329364844323996 -0.92303146413912 76 45 27
0.00015598479764863862 0.29262548219856327 -0.9266522647789629 77 46 26
0.00026338865692683046 0.2964049344537617 -0.9280623201631517 78 47 27
0.0001638091151460663 0.29573478563086275 -0.9316843254285654 82 51 30
0.00018047553151103856 0.2975606051190326 -0.9340588111874704 84 52 31
-9.111631636646387e-05 0.2932041495650509 -0.9395390597051076 82 48 26
5.535887229935442e-06 0.2967441274594588 -0.9410495040662085 77 43 19
-0.00010840191587204156 0.295771328182351 -0.9448354119782327 73 41 18
-0.00017750355820816705 0.29575981658580175 -0.9481376992466655 72 41 20
-0.00022049033407401612 0.29630723066679454 -0.9511566013184709 68 37 16
-0.00036683761036924393 0.294647008355171 -0.9553050252911184 67 36 15
-0.0003927446046507691 0.2955603979536264 -0.9581393238270169 73 45 26
-0.000378236205521635 0.2973349639599334 -0.9605284150383706 79 54 39
0.00029131282041753356 0.3130653956856405 -0.9556985457162477 80 57 45
0.0004204488234947996 0.3172659236805154 -0.9567961584185192 81 60 51
0.000355931432129317 0.3173406182796221 -0.960027986169034 83 63 56
0.00046063835136002634 0.321013526003874 -0.9613823858231961 87 67 60
0.0005630978918203054 0.32463378265472065 -0.9627532563723229 90 71 64
0.0006377596364721475 0.3276591517032913 -0.9644258737528211 88 68 61
0.0002773553318301744 0.3214526140598559 -0.9709581154061837 88 68 59
0.0007443723406773024 0.33279291878716366 -0.9682296273479969 88 68 58
0.0008139063423140552 0.3356986516975458 -0.9699406873959903 86 66 55
0.0009834478092867333 0.340716994612173 -0.9705181483072887 83 63 52
0.00103143233801374 0.34315796854880654 -0.9724568869761759 97 77 67
0.0009102957089357358 0.34202247776864947 -0.9763059229249672 94 74 67
0.0009763056904357244 0.3448407211401864 -0.9780342358620148 95 75 66
0.000925091829253104 0.3451822750086094 -0.9810906166909903 94 74 65
0.0011150257662394672 0.35060766301268353 -0.9813956400066552 92 72 63
0.001199695212472738 0.35380807949070675 -0.9828915741251711 93 73 64
0.0012553743967915736 0.3563941024634905 -0.9847126591075565 94 74 65
0.001305494314111172 0.35885995505173485 -0.9865920045721684 100 81 71
0.0013334186146916477 0.3608562693581383 -0.9887217813423266 99 77 65
0.0012675288178837767 0.3608800854279829 -0.9919310956128119 93 64 47
0.0012777409230293338 0.3625015379327108 -0.9942604249161197 88 52 33
0.0012426235676306942 0.3631707257911763 -0.9971127864610427 78 39 17
0.0011908545931643214 0.3634907022778431 -1.0001583252136534 79 36 12
0.0011688584696461354 0.36443423696748867 -1.0028570281579072 79 35 9
0.0010448512252308438 0.36324289883967287 -1.0067469398257765 79 35 8
0.0010970203425839991 0.3657369924903482 -1.0085768844027996 80 36 9
0.001065039782327421 0.3664702062275945 -1.0113897982040956 81 37 10
0.0011158674384657962 0.3689314479563119 -1.0132270965657313 83 39 10
0.0010979010420479954 0.3699548093011743 -1.0158709043140959 88 44 15
0.001219092261089798 0.3738775047063955 -1.0168672362107305 89 46 14
0.001263593663328376 0.3761978485032167 -1.0187636177453978 90 46 15
0.0011582622756288177 0.37539743946658544 -1.0224355924270512 92 48 16
0.0011116013036088918 0.375818910635705 -1.0254120828268574 93 51 17
0.001064943790344902 0.3762405116088049 -1.0283886327122436 93 53 18
0.0010385602956387583 0.377083096903652 -1.0311226855264306 94 54 18
0.0010008075933650301 0.3776892331548044 -1.033992080507038 97 57 24
0.0009208634333527123 0.3774205042865046 -1.0373682637042703 98 61 30
0.0008595679764022294 0.37753918188998004 -1.040521688270836 101 66 37
0.000805037074595602 0.37779839590016867 -1.0435943279263664 107 73 45
0.0007732439111668129 0.3785282013007423 -1.0463923035768177 109 75 48
0.0007184483111120068 0.378782196265244 -1.0494685916790205 106 72 45
0.0006636265606455184 0.37903596351816443 -1.052545740980714 97 64 39
0.0006088053876358223 0.37929005537079347 -1.0556234271195266 91 59 36
0.0006275641722851919 0.3810617046421494 -1.0578030924499457 95 63 39
0.00042983288009940633 0.37837064686037536 -1.062628979129006 99 67 44
0.000316055224754635 0.37741289713236004 -1.0664333641618808 99 69 44
0.00012352513877313034 0.3748370867081928 -1.0712096424334123 96 67 45
-4.50752505015313e-05 0.37275782390705964 -1.0756990966190902 91 62 45
-0.00024780439004927837 0.36998132924438487 -1.0806166660780843 78 51 35
-0.0004919357890993811 0.36635988911907275 -1.0860551216931125 65 44 30
-0.0005547534067554625 0.3664635973279994 -1.0892556922338017 43 25 19
-0.0007201845851565443 0.36446471933258134 -1.0937325944720542 33 15 12
-0.0006047951813542641 0.3682208138671066 -1.094718088230457 42 21 14
-0.0007024976671585513 0.3676110785178781 -1.0983549289230474 50 25 14
-0.0005948421199171222 0.3712023641929799 -1.0994255913643431 55 27 13
-0.0006086585731752059 0.37230679875523226 -1.1020108923353154 59 27 11
-0.00046084360923412133 0.37671048911292154 -1.1025638221622474 66 30 11
-0.0004324912491310319 0.37867085080775265 -1.1046104833764527 71 34 13
-0.00034067063329444765 0.3819228970818035 -1.1058524028166146 78 39 14
-0.0004061094645775006 0.38196704451508245 -1.109075399149536 85 46 23
-0.00044458851639063175 0.3825606301455939 -1.1119578857707422 90 55 28
-0.00043891026685446716 0.3840522270969507 -1.1142793290768638 96 61 34
-0.0005617869078532838 0.3829292848287731 -1.1182338489242574 99 64 36
-0.0006788422734767289 0.3819269670361769 -1.122118301127768 98 64 36
-0.0008054594097837925 0.3807328013769591 -1.126128774609028 96 62 34
-0.0009106530201170417 0.379975600080476 -1.1298692795861178 97 65 37
-0.0008416059453150247 0.3827511421114176 -1.1313772997081497 101 71 43
-0.0008612614042052399 0.3837270362300169 -1.1340197519364856 105 75 47
-0.0009527416881486466 0.3832488540926433 -1.1375862581653486 104 74 47
-0.0010864868627859531 0.3819175475646782 -1.1417008984324064 99 71 50
-0.0011963792883466998 0.3810708524586548 -1.1455116526250086 79 59 42
-0.0013048977965470386 0.38025386715420856 -1.1493080272630996 68 53 38
-0.0017342376801746922 0.3729668690934713 -1.1572752698462307 89 81 65
-0.0020780948724362387 0.3674146917849096 -1.164150127130703 135 128 118
-0.0022322325697113916 0.3656930319267442 -1.1685662407427067 167 160 156
-0.0024157623601705263 0.36338307725282337 -1.1733722200967251 181 178 176
-0.0030469534431474916 0.3520737819250559 -1.1840479048087653 187 188 186
-0.003076821005725693 0.352867138878237 -1.186863840211053 193 192 190
-0.001143442530876667 0.3930861109579638 -1.163865560815924 196 195 193
-0.001017658635468135 0.3969723035656607 -1.1645775912283882 200 199 197
-0.0009373894943865129 0.399940687110673 -1.1658814937092203 200 199 197
-0.0035971152753643335 0.34800447566946346 -1.2034208684188257 202 201 199
-0.004101775129864502 0.3392952637758109 -1.2125356274054073 203 201 202
-0.008702406225549294 0.24865284786664518 -1.27606643073715 204 202 203
-0.008906288162172735 0.24604582815860096 -1.2813342054685428 205 203 204
0.010711994855934371 0.6511207678041725 -1.0426916088013967 208 208 208
0.010422000013631095 0.6465384898099981 -1.0486638577551288 209 209 209
0.020601015393601745 0.1672387350167408 0.12840569452606598 183 183 185
0.019891417748245543 0.14795706733592107 0.12641145532343517 183 183 185
0.01989839246388411 0.1499994525971398 0.12330701872067397 183 181 183
0.020608084221034693 0.17289758177218562 0.11920826488398417 140 132 129
0.020878299820425553 0.18272250045237412 0.11578213622883132 124 105 96
0.0210643207591476 0.19003606223898153 0.11249632835069316 120 93 80
0.021252939990492083 0.19741433566341218 0.109227755118885 121 93 78
0.021456671843424067 0.205227276363861 0.10596116019539525 134 104 87
0.02186997991536563 0.21922025436355125 0.10246532569387516 157 128 114
0.021949162450499902 0.22332428167402857 0.09939595258153308 154 128 119
0.0219795826233787 0.2259834180983146 0.09639167524107337 154 130 123
0.022052041348430605 0.22987759209093003 0.09334918116544363 153 129 122
0.022082097911922484 0.23251708811292884 0.0903603381578646 161 138 131
0.02209435036223295 0.23462891005730716 0.08739545771302135 145 121 114
0.02214542308901734 0.23787884840018828 0.08439928631594315 121 97 90
0.022194026773592637 0.24105131140217376 0.08141368545348812 102 72 63
0.022242488240593557 0.24421477397789343 0.07843634449708624 90 53 35
0.022237942300118736 0.24581949686194388 0.07550963929441958 85 45 25
0.022202745795904966 0.24652443863114662 0.07260963092351165 71 31 11
0.022202956299899053 0.24826505759340461 0.0696850795806535 65 27 8
0.022150533065035977 0.24846451321901203 0.06679969889659518 61 24 5
0.022088011351674066 0.24836941924078557 0.06391990653441937 70 32 12
0.022009520530354994 0.24780921920050997 0.0610478107066661 68 30 10
0.02196781213531932 0.24832337868468532 0.05815283107817749 69 31 12
0.022028177413531382 0.2518112540580578 0.0552073352170363 67 32 13
0.02212362035834494 0.25631481494402575 0.05225498926802249 102 74 63
0.02213471006533749 0.2583579945869334 0.049349305281783155 111 79 67
0.02218092071152221 0.2614188673190942 0.046435490449353065 110 73 55
0.022071402013739985 0.2599540932117538 0.043579825775521414 132 92 72
0.02212791508424817 0.26330856878016284 0.04067193582000851 145 106 87
0.02201210562268395 0.26166398189971646 0.03781355697003222 147 109 87
0.021694851978462756 0.25419034248491684 0.03498805783125773 144 105 82
0.022150309694026288 0.2690845147440616 0.03202228811124814 136 96 72
0.022228141614807496 0.2730384860752563 0.029140244508350843 128 87 62
0.022243054186018928 0.2751692844596408 0.026272717382442044 127 85 60
0.022231080317605647 0.2765213681970957 0.0234107928466481 122 84 58
0.022230333117115374 0.27819549169225055 0.020551788311951192 118 84 54
0.022024412265378678 0.2739580327171441 0.017683467973845655 119 84 52
0.022181875376446104 0.280185806065854 0.014839735905535497 113 79 48
0.02217336180411803 0.28163134956296704 0.011988490003121854 103 71 42
0.022151745746488122 0.28269874985305804 0.00913770598828538 101 69 40
0.02210767156751581 0.28312048557514374 0.0062835217688627515 102 69 41
0.022043156795839798 0.2829561098257525 0.0034236298742513632 104 72 45
0.021982558976063937 0.2829050242976975 0.0005631862233981405 106 73 47
0.021910623455230076 0.28253025922522973 -0.0023028116512676805 105 72 47
0.021878162587244093 0.28328592209004433 -0.005155318138597764 107 74 49
0.02180923844324842 0.2829990871639654 -0.008023142879871097 111 77 52
0.021759544584600686 0.2832625643361657 -0.010883751425926437 108 75 49
0.02169220617877141 0.2830230408722555 -0.013754239382001092 104 71 46
0.021705700205766853 0.2850884728073045 -0.016580531682932984 97 62 36
0.021604240693879305 0.2838777105581673 -0.01947259649661958 96 61 35
0.02156337708115909 0.28439383190565404 -0.022329806293095597 95 60 37
0.02146429135973362 0.2832548215754149 -0.025227423240029204 89 55 34
0.021343289234420568 0.2814961318411052 -0.02814591184201145 84 52 33
0.02124845026081716 0.28048369891018005 -0.03105044714804813 80 49 34
0.02110976574565246 0.2782307304179523 -0.033995360870352515 68 39 28
0.020965058558367326 0.2758118688594454 -0.03695342223064163 49 26 17
0.020839990646953122 0.273953833824962 -0.03990210812553917 30 13 6
0.02087444084181929 0.2766105503782891 -0.0427063450748177 18 8 4
0.020800640600469468 0.2762050601971618 -0.04561121086662541 11 6 4
0.020103335359970324 0.25820075585265606 -0.04916144086045107 10 6 5
0.019846693415859415 0.2526567943488755 -0.052293239938250344 10 5 5
0.018823493636403475 0.22552252701347678 -0.05629647361354084 9 5 4
0.018816241589389233 0.22703962206092526 -0.05920701785379208 10 6 3
0.018939886696561145 0.2322369996062677 -0.061957846145433725 14 8 5
0.019064671042422127 0.2374581590007906 -0.06469337641982674 18 9 7
0.019171186766247388 0.24215804009510133 -0.06743831459633276 25 14 13
0.019307913000599926 0.24769815622132185 -0.07013094901093403 36 21 19
0.01946794943673518 0.25388288257046165 -0.07277697300985897 73 55 50
0.01961202812552162 0.25961072035415206 -0.07542860325145884 102 83 76
0.019709957255136818 0.26403797464329987 -0.07813140067818142 102 83 76
0.019789613214390475 0.26794742888509415 -0.08084969171120851 76 48 36
0.01973959569491205 0.2682284406413939 -0.08375560265936856 66 32 14
0.019765743685624754 0.27063559744102195 -0.08654276277639131 53 22 6
0.019691168849626847 0.27023053071089853 -0.08948600729757869 54 22 6
0.019711514005795454 0.2724716652358742 -0.092275407568759 59 24 10
0.019752975297719536 0.2752975422264581 -0.095023943570404 95 68 56
0.01963704680361524 0.27374160035632333 -0.09803757115441311 89 67 57
0.019680072116980755 0.27660651406191084 -0.10077587463342352 89 62 52
0.0199115985008132 0.284701242578554 -0.1031660678894386 96 67 51
