ply
format ascii 1.0
element vertex 883
property float x
property float y
property float z
property float nx
property float ny
property float nz
property uchar diffuse_red
property uchar diffuse_green
property uchar diffuse_blue
property uchar class
property uchar detection
end_header
-0.0597 0.2753 -0.8770 -0.377 0.763 -0.524 115 98 87 0 0
-0.0472 0.3189 -0.9775 -0.028 0.988 -0.150 92 64 50 0 0
-0.0479 0.2137 -0.0741 -0.061 0.407 0.911 108 87 71 0 0
-0.0349 0.2508 -0.0982 0.059 0.720 0.691 90 61 43 0 0
-0.0342 0.2529 -0.1010 -0.263 0.351 0.899 95 65 49 0 0
-0.0317 0.2599 -0.1034 -0.345 0.354 0.869 102 71 55 0 0
-0.0260 0.2837 -0.1856 -0.211 0.903 -0.373 81 60 49 0 0
-0.0305 0.2736 -0.2044 0.041 0.994 0.103 81 60 49 0 0
-0.0462 0.2522 -0.3986 0.108 0.384 0.917 96 71 59 0 0
-0.0319 0.2930 -0.4254 0.280 0.733 0.620 95 58 32 0 0
-0.0363 0.2831 -0.4433 -0.451 0.673 -0.586 117 101 89 0 0
-0.0386 0.2777 -0.4478 -0.451 0.673 -0.586 132 125 119 0 0
-0.0845 0.1946 -0.8202 -0.646 0.639 0.418 93 72 61 0 0
-0.0554 0.2777 -0.8754 -0.408 0.785 -0.467 110 90 77 0 0
-0.0606 0.2709 -0.9431 0.087 0.982 -0.166 107 75 51 0 0
-0.0597 0.2735 -0.9451 0.345 0.915 0.210 100 70 48 0 0
-0.0596 0.2741 -0.9481 0.345 0.915 0.210 96 66 46 0 0
-0.0253 0.3727 -1.0179 -0.442 0.892 0.098 102 60 26 0 0
-0.0501 0.1991 -0.0720 0.140 0.297 0.945 108 92 83 0 0
-0.0347 0.2571 -0.2334 0.152 0.988 0.031 80 58 44 0 0
-0.0348 0.2572 -0.2364 0.152 0.988 0.031 81 59 45 0 0
-0.0512 0.2218 -0.3184 -0.574 0.798 0.183 88 59 39 0 0
-0.0531 0.2179 -0.3284 -0.587 0.752 -0.301 96 69 49 0 0
-0.0599 0.2017 -0.3473 0.784 -0.053 0.619 178 179 179 0 0
-0.0307 0.2878 -0.4266 0.034 0.966 0.256 92 55 29 0 0
-0.0303 0.2892 -0.4293 0.186 0.982 -0.030 89 52 25 0 0
-0.0314 0.2876 -0.4420 -0.451 0.673 -0.586 111 93 80 0 0
-0.0671 0.2311 -0.8134 -0.683 0.551 0.479 84 58 44 0 0
-0.0624 0.2436 -0.8144 0.247 0.702 0.668 83 55 40 0 0
-0.0519 0.2783 -0.8780 -0.210 0.702 -0.681 107 87 76 0 0
-0.0580 0.2686 -0.9405 -0.106 0.876 0.471 114 84 58 0 0
-0.0568 0.2723 -0.9453 0.717 0.593 0.367 100 70 46 0 0
-0.0557 0.2753 -0.9471 0.289 0.790 0.541 95 66 44 0 0
-0.0386 0.3249 -0.9831 -0.468 0.535 0.703 92 64 52 0 0
-0.0233 0.3716 -1.0379 -0.134 0.988 0.083 116 83 52 0 0
-0.0294 0.3637 -1.1198 0.413 0.760 0.502 91 55 33 0 0
-0.0285 0.3662 -1.1215 -0.037 0.880 0.474 100 64 39 0 0
-0.0545 0.1779 -0.0642 0.190 0.515 0.836 113 103 100 0 0
-0.0512 0.1869 -0.0667 0.087 0.198 0.976 109 95 87 0 0
-0.0209 0.2816 -0.1945 -0.139 0.873 -0.467 78 58 47 0 0
-0.0244 0.2736 -0.2073 -0.142 0.855 -0.498 78 58 47 0 0
-0.0307 0.2594 -0.2330 -0.314 0.949 0.035 79 57 43 0 0
-0.0347 0.2505 -0.2523 -0.491 0.849 -0.195 85 62 46 0 0
-0.0473 0.2213 -0.2968 -0.641 0.655 0.401 79 53 39 0 0
-0.0465 0.2237 -0.2994 -0.641 0.655 0.401 99 74 59 0 0
-0.0454 0.2270 -0.3019 -0.583 0.614 0.532 100 76 60 0 0
-0.0458 0.2264 -0.3051 -0.584 0.702 0.409 86 64 49 0 0
-0.0621 0.1892 -0.3687 0.761 0.527 -0.379 106 100 99 0 0
-0.0384 0.2558 -0.3975 0.020 0.377 0.926 94 68 55 0 0
-0.0303 0.2798 -0.4193 -0.275 0.541 0.795 96 66 47 0 0
-0.0269 0.2912 -0.4408 -0.440 0.688 -0.577 104 85 71 0 0
-0.0289 0.2862 -0.4452 -0.440 0.688 -0.577 117 104 99 0 0
-0.0805 0.1843 -0.7966 -0.766 0.503 0.401 118 107 102 0 0
-0.0590 0.2430 -0.8076 0.617 0.630 -0.472 83 56 41 0 0
-0.0435 0.2897 -0.8553 0.144 0.831 0.537 108 72 42 0 0
-0.0551 0.2674 -0.9407 0.443 0.869 0.221 115 85 62 0 0
-0.0554 0.2670 -0.9443 0.719 0.671 -0.180 110 76 51 0 0
-0.0543 0.2701 -0.9461 0.709 0.682 0.178 100 70 44 0 0
-0.0197 0.3729 -1.0399 0.156 0.956 0.249 114 81 50 0 0
-0.0261 0.3604 -1.0878 0.465 0.833 0.302 74 46 33 0 0
-0.0522 0.1754 -0.0643 0.427 0.492 0.759 106 92 88 0 0
-0.0461 0.1920 -0.0665 -0.100 0.188 0.977 99 83 75 0 0
-0.0437 0.1987 -0.0691 0.024 0.216 0.976 104 87 77 0 0
-0.0370 0.2172 -0.0711 -0.147 0.326 0.934 106 89 80 0 0
-0.0314 0.2327 -0.0761 -0.324 0.513 0.795 102 74 59 0 0
-0.0004 0.3227 -0.1382 0.233 0.784 0.575 77 39 16 0 0
-0.0313 0.2508 -0.2492 -0.217 0.757 -0.617 83 60 44 0 0
-0.0424 0.2276 -0.3140 -0.627 0.771 0.114 85 54 36 0 0
-0.0570 0.1925 -0.3552 0.841 0.530 -0.109 179 180 179 0 0
-0.0578 0.1911 -0.3618 0.775 0.292 -0.561 173 171 170 0 0
-0.0591 0.1880 -0.3656 0.669 0.498 -0.551 108 101 100 0 0
-0.0556 0.1984 -0.3761 -0.637 0.535 0.554 77 60 49 0 0
-0.0347 0.2564 -0.3911 -0.300 0.538 0.788 88 63 49 0 0
-0.0188 0.3038 -0.4343 -0.408 0.889 0.208 98 70 49 0 0
-0.0434 0.2814 -0.8590 0.711 0.697 -0.090 103 67 36 0 0
-0.0523 0.2660 -0.9411 0.565 0.752 0.340 113 83 60 0 0
-0.0528 0.2654 -0.9482 0.298 0.954 -0.021 100 71 44 0 0
-0.0309 0.3271 -0.9742 -0.310 0.856 0.413 90 62 46 0 0
-0.0168 0.3711 -1.0306 0.093 0.995 0.027 104 67 30 0 0
-0.0185 0.3780 -1.1426 0.002 0.981 0.196 104 73 50 0 0
-0.0186 0.3781 -1.1459 0.089 0.985 -0.148 88 62 43 0 0
-0.0427 0.1926 -0.0665 -0.020 0.147 0.989 100 80 72 0 0
-0.0419 0.1950 -0.0694 0.178 0.150 0.973 102 82 73 0 0
-0.0332 0.2187 -0.0710 -0.147 0.326 0.934 104 85 76 0 0
-0.0024 0.3114 -0.1592 0.659 0.752 -0.023 74 54 43 0 0
-0.0511 0.2006 -0.3660 -0.674 0.680 0.287 100 89 84 0 0
-0.0311 0.2573 -0.3907 -0.350 0.576 0.739 87 61 48 0 0
-0.0309 0.2582 -0.3936 -0.162 0.277 0.947 85 59 46 0 0
-0.0649 0.2074 -0.7925 -0.591 0.690 0.417 86 64 53 0 0
-0.0510 0.2477 -0.8181 -0.568 0.731 0.379 85 56 40 0 0
-0.0401 0.2813 -0.8587 0.198 0.974 0.108 101 65 33 0 0
-0.0478 0.2692 -0.9423 0.614 0.705 -0.355 103 73 46 0 0
-0.0412 0.2870 -0.9427 0.478 0.840 0.256 97 66 45 0 0
-0.0318 0.3151 -0.9674 0.491 0.571 0.658 88 62 46 0 0
-0.0128 0.3752 -1.0506 0.084 0.996 -0.038 113 79 51 0 0
-0.0139 0.3727 -1.0555 0.235 0.972 -0.012 112 78 50 0 0
-0.0137 0.3735 -1.0583 0.317 0.945 -0.074 112 78 50 0 0
-0.0139 0.3733 -1.0617 0.317 0.945 -0.074 107 76 48 0 0
-0.0200 0.3598 -1.0906 0.033 0.980 0.198 65 39 29 0 0
-0.0295 0.2202 -0.0710 -0.147 0.326 0.934 106 86 76 0 0
-0.0061 0.2875 -0.1071 0.436 0.479 0.762 106 74 59 0 0
-0.0045 0.2922 -0.1096 0.185 0.536 0.823 105 74 56 0 0
0.0054 0.3230 -0.1466 0.158 0.987 -0.042 71 47 33 0 0
-0.0080 0.2909 -0.1904 0.575 0.799 -0.174 73 53 42 0 0
-0.0082 0.2910 -0.1962 -0.360 0.916 0.174 73 53 42 0 0
-0.0089 0.2894 -0.1993 -0.367 0.905 0.216 75 55 44 0 0
-0.0156 0.2943 -0.4243 0.555 0.822 0.127 78 38 18 0 0
-0.0112 0.3072 -0.4331 -0.430 0.901 -0.059 93 66 45 0 0
-0.0652 0.1963 -0.7835 -0.556 0.752 0.353 93 75 63 0 0
-0.0611 0.2087 -0.7950 -0.232 0.680 0.695 84 57 45 0 0
-0.0513 0.2359 -0.7997 -0.438 0.715 0.545 83 54 40 0 0
-0.0440 0.2700 -0.9380 0.321 0.743 0.588 101 71 49 0 0
-0.0262 0.3219 -0.9730 0.134 0.950 0.283 88 61 48 0 0
-0.0249 0.3258 -0.9741 0.744 0.667 0.045 89 62 49 0 0
-0.0190 0.3424 -0.9810 0.210 0.845 0.492 92 69 55 0 0
-0.0016 0.2915 -0.1068 -0.379 0.859 0.345 106 74 59 0 0
0.0013 0.2998 -0.1090 -0.203 0.891 0.405 105 74 56 0 0
0.0021 0.3020 -0.1117 -0.236 0.784 0.574 106 75 56 0 0
0.0013 0.3004 -0.1147 -0.014 0.882 -0.471 115 82 63 0 0
0.0087 0.3238 -0.1465 0.456 0.890 -0.005 72 48 33 0 0
0.0020 0.3070 -0.1625 0.262 0.828 -0.496 71 51 40 0 0
-0.0018 0.2980 -0.1750 0.105 0.923 -0.370 71 51 40 0 0
-0.0056 0.2891 -0.1906 0.575 0.799 -0.174 74 54 43 0 0
-0.0051 0.2911 -0.1961 -0.222 0.910 0.350 75 55 44 0 0
-0.0053 0.2908 -0.1991 -0.295 0.931 0.216 75 55 44 0 0
-0.0020 0.3000 -0.2008 0.291 0.889 0.354 76 56 45 0 0
-0.0304 0.2410 -0.3819 -0.374 0.927 0.002 83 56 39 0 0
-0.0656 0.1827 -0.7514 0.971 0.109 -0.212 203 203 202 0 0
-0.0638 0.1901 -0.7756 -0.462 0.842 0.279 97 81 71 0 0
-0.0620 0.1949 -0.7769 -0.565 0.748 0.349 94 77 64 0 0
-0.0248 0.3174 -0.9785 -0.060 0.996 -0.063 88 62 50 0 0
-0.0218 0.3255 -0.9771 0.329 0.916 0.231 90 66 53 0 0
-0.0063 0.3826 -1.1210 0.157 0.969 0.193 101 67 39 0 0
0.0052 0.3023 -0.1117 -0.184 0.911 0.368 110 78 62 0 0
0.0112 0.3224 -0.1466 0.167 0.986 -0.020 72 48 34 0 0
-0.0013 0.2913 -0.1787 0.113 0.991 -0.065 70 51 38 0 0
-0.0015 0.2911 -0.1816 0.113 0.991 -0.065 69 49 38 0 0
-0.0028 0.2877 -0.1849 0.488 0.871 0.051 70 50 39 0 0
0.0005 0.2979 -0.1952 0.565 0.706 0.427 76 56 46 0 0
0.0002 0.2974 -0.1982 0.669 0.639 0.378 75 55 45 0 0
0.0006 0.2988 -0.2009 0.684 0.719 0.121 77 55 44 0 0
-0.0117 0.2672 -0.2227 -0.054 0.844 0.534 75 53 41 0 0
-0.0280 0.2389 -0.3822 0.081 0.955 0.285 80 53 38 0 0
-0.0599 0.1905 -0.7682 -0.460 0.832 0.310 95 76 64 0 0
-0.0302 0.2793 -0.8386 -0.482 0.876 -0.010 99 75 62 0 0
-0.0245 0.2993 -0.8815 0.612 0.770 -0.180 91 67 52 0 0
-0.0240 0.3094 -0.9659 0.332 0.350 0.876 88 64 49 0 0
-0.0005 0.3816 -1.0417 0.175 0.974 -0.145 111 77 45 0 0
-0.0012 0.3811 -1.0552 0.230 0.973 0.029 98 67 38 0 0
-0.0013 0.3813 -1.0584 0.367 0.918 0.150 101 70 42 0 0
-0.0028 0.3834 -1.1199 0.186 0.982 0.020 98 64 37 0 0
-0.0029 0.3835 -1.1232 0.186 0.982 0.020 101 67 40 0 0
-0.0029 0.3838 -1.1263 0.176 0.979 0.106 103 69 43 0 0
-0.0027 0.3845 -1.1292 0.163 0.961 0.222 106 73 47 0 0
-0.0043 0.2649 -0.0830 0.068 0.993 -0.099 95 63 47 0 0
0.0054 0.2940 -0.1067 -0.174 0.812 0.558 107 78 61 0 0
0.0071 0.2993 -0.1119 0.248 0.952 0.181 104 72 57 0 0
0.0012 0.2900 -0.1817 0.078 0.983 0.165 68 48 37 0 0
0.0037 0.2978 -0.1894 -0.403 0.893 -0.202 72 53 41 0 0
0.0035 0.2978 -0.1952 0.745 0.667 -0.034 75 55 43 0 0
0.0017 0.2933 -0.1987 0.736 0.620 -0.273 75 55 44 0 0
-0.0012 0.2867 -0.2141 -0.293 0.953 -0.080 75 53 40 0 0
-0.0132 0.2623 -0.2980 0.385 0.905 0.182 84 55 39 0 0
-0.0137 0.2634 -0.3219 0.300 0.871 0.390 94 61 36 0 0
-0.0613 0.1741 -0.7373 -0.776 0.622 0.108 197 196 197 0 0
-0.0558 0.1919 -0.7639 -0.472 0.863 0.178 92 70 54 0 0
-0.0355 0.2521 -0.8046 -0.574 0.570 0.587 87 58 44 0 0
-0.0336 0.2574 -0.8055 -0.708 0.705 0.050 89 60 46 0 0
-0.0361 0.2515 -0.8149 -0.776 0.631 0.025 88 60 44 0 0
-0.0288 0.2739 -0.8375 -0.052 0.852 -0.521 100 76 64 0 0
-0.0262 0.2811 -0.8373 -0.318 0.941 0.110 100 76 64 0 0
-0.0215 0.2992 -0.8878 0.060 0.969 -0.240 89 63 47 0 0
-0.0174 0.3193 -0.9731 -0.061 0.949 -0.309 87 61 49 0 0
-0.0008 0.3711 -1.0314 0.239 0.924 0.297 100 60 24 0 0
0.0018 0.3808 -1.0582 -0.021 0.932 0.363 101 70 42 0 0
-0.0027 0.3696 -1.0687 0.407 0.913 0.025 103 73 45 0 0
-0.0030 0.3691 -1.0724 0.301 0.917 0.260 103 73 47 0 0
-0.0044 0.3667 -1.0873 0.130 0.854 0.504 65 41 31 0 0
0.0021 0.3093 -0.4289 0.123 0.956 -0.267 88 53 31 0 0
-0.0566 0.1742 -0.7029 -0.560 0.807 0.184 201 201 203 0 0
-0.0564 0.1750 -0.7060 -0.560 0.807 0.184 202 202 204 0 0
-0.0513 0.1906 -0.7201 0.957 0.068 -0.282 187 186 185 0 0
-0.0230 0.2799 -0.8276 -0.447 0.770 -0.455 100 76 64 0 0
-0.0186 0.2982 -0.8879 0.031 0.956 -0.292 87 61 45 0 0
-0.0135 0.3202 -0.9655 0.635 0.673 -0.379 84 60 47 0 0
-0.0146 0.3178 -0.9702 0.565 0.703 0.432 85 58 47 0 0
-0.0142 0.3192 -0.9727 0.788 0.615 -0.014 89 62 51 0 0
0.0134 0.3048 -0.1598 -0.278 0.957 0.083 71 52 38 0 0
-0.0143 0.2505 -0.3854 -0.163 0.943 -0.292 75 47 33 0 0
0.0053 0.3095 -0.4287 0.141 0.969 -0.202 92 57 36 0 0
-0.0519 0.1778 -0.7046 -0.560 0.807 0.184 201 200 202 0 0
-0.0518 0.1797 -0.7208 -0.708 0.666 0.236 141 135 130 0 0
-0.0515 0.1811 -0.7236 -0.739 0.634 0.228 122 114 108 0 0
-0.0163 0.2964 -0.8951 -0.066 0.997 -0.034 82 55 36 0 0
-0.0154 0.3039 -0.9443 0.376 0.877 -0.298 91 63 41 0 0
-0.0159 0.3027 -0.9482 0.376 0.877 -0.298 98 71 50 0 0
-0.0092 0.3240 -0.9729 -0.236 0.572 0.785 90 63 52 0 0
0.0071 0.3831 -1.1085 0.315 0.944 0.099 85 50 25 0 0
0.0071 0.3839 -1.1179 0.352 0.881 0.316 89 55 27 0 0
0.0077 0.3858 -1.1200 0.292 0.869 0.400 94 60 33 0 0
0.0080 0.3869 -1.1225 0.292 0.869 0.400 99 65 38 0 0
0.0062 0.3830 -1.1319 0.397 0.918 0.019 106 72 45 0 0
0.0261 0.3286 -0.1263 0.088 0.982 -0.168 92 47 16 0 0
0.0170 0.3065 -0.1596 -0.085 0.973 0.216 72 53 38 0 0
-0.0108 0.2513 -0.3851 -0.268 0.936 -0.229 77 50 33 0 0
-0.0091 0.2567 -0.3930 0.086 0.450 0.889 70 37 24 0 0
0.0086 0.3099 -0.4285 -0.046 0.993 -0.111 90 56 32 0 0
-0.0374 0.1861 -0.4770 -0.707 0.701 -0.093 116 105 96 0 0
-0.0496 0.1729 -0.6860 -0.768 0.624 0.142 198 198 199 0 0
-0.0492 0.1744 -0.6888 -0.769 0.621 0.152 197 197 200 0 0
-0.0475 0.1806 -0.7033 -0.539 0.828 0.159 154 149 146 0 0
-0.0477 0.1807 -0.7099 -0.421 0.903 0.088 126 117 112 0 0
-0.0477 0.1810 -0.7132 -0.421 0.903 0.088 117 108 101 0 0
-0.0468 0.1838 -0.7155 -0.735 0.644 0.213 111 99 93 0 0
-0.0204 0.2679 -0.8161 0.390 0.859 -0.332 95 69 56 0 0
-0.0183 0.2738 -0.8166 -0.217 0.926 0.310 97 71 59 0 0
-0.0124 0.2978 -0.8906 -0.217 0.975 0.056 83 56 37 0 0
-0.0128 0.2969 -0.8944 -0.048 0.998 -0.046 83 54 35 0 0
-0.0096 0.3127 -0.9623 0.458 0.889 0.024 85 62 48 0 0
0.0102 0.3836 -1.1176 0.420 0.826 0.375 89 55 28 0 0
0.0108 0.3859 -1.1227 0.467 0.840 0.276 99 65 38 0 0
0.0091 0.3843 -1.1538 -0.098 0.905 0.414 133 128 117 0 0
0.0135 0.3968 -1.1549 -0.170 0.885 0.433 187 185 185 0 0
0.0288 0.3279 -0.1264 0.234 0.972 -0.003 89 44 13 0 0
0.0276 0.3247 -0.1295 0.456 0.882 -0.121 86 42 14 0 0
0.0129 0.2920 -0.2161 0.064 0.994 -0.088 70 48 35 0 0
-0.0086 0.2485 -0.3856 0.022 0.922 -0.388 78 48 30 0 0
-0.0105 0.2436 -0.3898 0.178 0.269 0.947 79 52 34 0 0
-0.0090 0.2480 -0.3919 0.210 0.422 0.882 71 43 29 0 0
-0.0025 0.2664 -0.3937 0.008 0.817 -0.577 71 37 25 0 0
0.0027 0.2812 -0.3932 0.008 0.526 0.850 70 38 24 0 0
-0.0325 0.1911 -0.4819 -0.729 0.683 -0.042 133 125 119 0 0
-0.0428 0.1714 -0.5759 -0.847 0.532 -0.004 185 186 186 0 0
-0.0429 0.1841 -0.7050 -0.511 0.851 0.121 103 89 78 0 0
-0.0274 0.2335 -0.7616 -0.306 0.823 0.478 85 56 38 0 0
-0.0179 0.2653 -0.8137 0.233 0.971 -0.048 100 75 63 0 0
-0.0029 0.3119 -0.8567 0.025 0.992 0.123 102 67 40 0 0
-0.0030 0.3120 -0.8599 0.232 0.970 -0.076 102 68 42 0 0
-0.0085 0.2996 -0.8926 -0.168 0.962 -0.218 83 55 36 0 0
-0.0121 0.2928 -0.9261 0.139 0.960 0.242 86 58 37 0 0
0.0140 0.3750 -1.0140 -0.042 0.944 0.327 85 41 12 0 0
0.0082 0.3662 -1.0889 0.350 0.911 0.217 57 36 26 0 0
0.0126 0.3809 -1.1123 0.053 0.981 0.188 86 50 26 0 0
0.0135 0.3847 -1.1230 -0.021 0.977 0.213 99 65 39 0 0
0.0020 0.2222 0.0875 -0.048 0.880 0.473 117 83 60 0 0
0.0024 0.2236 0.0846 -0.320 0.844 0.430 117 84 61 0 0
0.0070 0.2380 0.0729 -0.207 0.971 -0.119 125 90 62 0 0
0.0068 0.2382 0.0644 0.450 0.885 0.120 97 61 34 0 0
0.0049 0.2335 0.0589 0.865 0.319 0.386 89 51 27 0 0
0.0159 0.2918 -0.2161 0.064 0.994 -0.088 69 46 36 0 0
-0.0039 0.2524 -0.3815 -0.197 0.891 -0.409 73 39 23 0 0
-0.0052 0.2491 -0.3853 -0.143 0.931 -0.335 76 42 24 0 0
0.0030 0.2727 -0.3890 0.104 0.947 0.303 67 37 23 0 0
-0.0358 0.1822 -0.5821 -0.775 0.632 -0.020 153 146 140 0 0
-0.0395 0.1756 -0.6208 -0.808 0.590 -0.014 178 173 170 0 0
-0.0398 0.1751 -0.6243 -0.808 0.590 -0.014 182 176 173 0 0
-0.0388 0.1784 -0.6264 -0.807 0.591 0.017 184 180 176 0 0
-0.0402 0.1748 -0.6310 -0.835 0.548 0.054 184 180 176 0 0
-0.0390 0.1784 -0.6331 -0.799 0.598 0.055 183 178 174 0 0
-0.0390 0.1786 -0.6364 -0.798 0.599 0.061 180 175 172 0 0
-0.0177 0.2563 -0.8109 -0.492 0.868 -0.069 104 80 68 0 0
-0.0010 0.3101 -0.8769 0.069 0.996 -0.052 88 60 42 0 0
-0.0063 0.3021 -0.9473 0.390 0.920 -0.033 88 59 39 0 0
0.0171 0.3748 -1.0136 -0.015 0.946 0.323 85 42 13 0 0
0.0174 0.3759 -1.0162 0.058 0.889 0.455 87 43 14 0 0
0.0189 0.3862 -1.0752 0.380 0.886 -0.264 58 37 26 0 0
0.0243 0.2852 0.0025 0.429 0.901 -0.060 114 83 61 0 0
0.0242 0.2854 -0.0002 -0.148 0.978 -0.148 113 83 61 0 0
0.0241 0.2853 -0.0030 -0.174 0.963 -0.206 112 83 60 0 0
0.0238 0.2847 -0.0058 0.228 0.938 -0.262 111 83 61 0 0
0.0235 0.2842 -0.0086 0.147 0.944 -0.295 109 83 61 0 0
0.0232 0.2835 -0.0115 0.053 0.948 -0.312 110 84 63 0 0
0.0166 0.2836 -0.1997 -0.008 0.995 -0.104 65 45 36 0 0
0.0162 0.2827 -0.2027 0.443 0.895 -0.054 65 44 35 0 0
0.0187 0.2912 -0.2161 0.408 0.813 0.415 67 46 37 0 0
0.0120 0.2747 -0.2420 0.068 0.979 0.194 69 47 34 0 0
0.0123 0.2757 -0.2447 0.315 0.850 0.423 70 48 36 0 0
0.0119 0.2753 -0.2507 0.164 0.961 0.224 72 49 35 0 0
0.0120 0.2758 -0.2536 0.005 0.988 0.156 70 46 32 0 0
-0.0020 0.2491 -0.3852 0.400 0.797 -0.453 74 41 24 0 0
0.0060 0.2725 -0.3920 -0.544 0.817 -0.189 67 37 22 0 0
0.0183 0.3108 -0.4248 0.100 0.989 -0.113 80 39 14 0 0
-0.0327 0.1867 -0.6332 -0.798 0.599 0.061 135 119 106 0 0
-0.0330 0.1865 -0.6399 -0.771 0.636 0.026 131 114 101 0 0
-0.0323 0.1922 -0.6778 -0.762 0.629 0.152 106 82 63 0 0
-0.0324 0.1939 -0.6972 -0.616 0.780 0.111 91 66 47 0 0
-0.0205 0.2338 -0.7575 0.168 0.841 0.514 83 55 35 0 0
-0.0196 0.2365 -0.7597 0.504 0.862 0.063 82 53 35 0 0
-0.0197 0.2367 -0.7662 -0.048 0.995 -0.086 82 53 35 0 0
-0.0204 0.2352 -0.7702 -0.506 0.822 0.262 84 55 37 0 0
0.0012 0.3077 -0.8842 0.062 0.997 0.047 87 60 41 0 0
-0.0072 0.2881 -0.9244 0.334 0.932 0.138 84 55 36 0 0
-0.0063 0.2907 -0.9264 0.146 0.948 0.284 84 56 35 0 0
-0.0062 0.2913 -0.9294 0.185 0.959 0.216 87 57 34 0 0
-0.0043 0.2992 -0.9552 0.624 0.781 -0.042 88 63 46 0 0
0.0202 0.3747 -1.0132 -0.280 0.864 0.419 84 43 13 0 0
0.0226 0.3828 -1.0277 0.083 0.983 -0.162 95 58 24 0 0
0.0257 0.2823 -0.0143 0.108 0.933 -0.344 88 53 30 0 0
0.0252 0.2813 -0.0172 0.234 0.904 -0.358 85 51 29 0 0
0.0251 0.2814 -0.0200 0.176 0.883 -0.435 78 46 26 0 0
0.0246 0.2802 -0.0228 0.238 0.830 -0.504 77 47 29 0 0
0.0194 0.2731 -0.1026 0.087 0.996 0.023 93 65 52 0 0
0.0343 0.3188 -0.1329 0.037 0.969 0.243 77 33 7 0 0
0.0345 0.3195 -0.1356 0.037 0.969 0.243 78 36 12 0 0
-0.0197 0.2260 -0.7539 -0.182 0.941 0.284 81 53 32 0 0
-0.0002 0.2878 -0.8151 -0.010 0.801 -0.599 93 69 53 0 0
-0.0009 0.2862 -0.8192 0.174 0.764 -0.622 94 71 55 0 0
-0.0000 0.2910 -0.8431 0.497 -0.018 0.867 94 68 51 0 0
-0.0042 0.2871 -0.9246 0.334 0.932 0.138 84 55 36 0 0
0.0025 0.3108 -0.9682 0.773 0.624 0.113 86 64 53 0 0
0.0254 0.3848 -1.0586 0.120 0.992 0.050 105 74 45 0 0
0.0183 0.2766 -0.2563 0.205 0.976 0.079 72 46 33 0 0
0.0107 0.2669 -0.3809 -0.103 0.879 0.466 63 30 15 0 0
0.0119 0.2710 -0.3860 0.365 0.586 0.724 87 58 42 0 0
0.0135 0.2758 -0.3909 0.138 0.543 0.828 63 31 16 0 0
0.0241 0.3092 -0.4189 0.425 0.887 0.182 72 29 10 0 0
-0.0032 0.2687 -0.8040 0.719 0.693 0.060 99 72 59 0 0
-0.0023 0.2715 -0.8061 0.541 0.639 0.547 92 65 51 0 0
0.0003 0.2797 -0.8121 -0.179 0.978 0.109 92 64 50 0 0
0.0050 0.3086 -0.9690 0.386 0.918 0.092 85 63 52 0 0
0.0274 0.3766 -1.0078 0.143 0.963 0.229 82 41 13 0 0
0.0282 0.3836 -1.0556 0.019 0.980 0.199 105 74 47 0 0
0.0287 0.3853 -1.0578 0.016 1.000 -0.000 103 72 44 0 0
0.0257 0.3849 -1.1406 0.238 0.971 0.022 99 70 45 0 0
0.0258 0.3853 -1.1436 0.137 0.980 0.143 85 60 40 0 0
-0.0026 0.1702 0.1206 -0.240 0.323 0.915 183 183 183 0 0
0.0107 0.2102 0.1045 -0.076 0.732 0.678 118 90 74 0 0
0.0245 0.2555 0.0497 -0.345 0.814 0.468 97 64 50 0 0
0.0276 0.2714 -0.0232 -0.146 0.963 -0.227 63 36 26 0 0
0.0266 0.2690 -0.0261 0.032 0.946 -0.322 62 36 26 0 0
0.0262 0.2680 -0.0289 0.063 0.887 -0.457 51 30 18 0 0
0.0171 0.2453 -0.0642 0.002 0.718 0.696 31 21 19 0 0
0.0254 0.2716 -0.0885 0.020 0.962 0.271 64 28 13 0 0
0.0259 0.2742 -0.0997 0.329 0.939 0.099 88 61 49 0 0
0.0248 0.2713 -0.1028 0.543 0.813 -0.211 89 61 47 0 0
0.0378 0.3092 -0.1084 0.171 0.905 0.390 108 77 60 0 0
0.0255 0.2830 -0.2026 -0.098 0.953 0.286 63 43 34 0 0
0.0257 0.2839 -0.2054 0.191 0.981 0.042 62 42 33 0 0
0.0256 0.2838 -0.2083 0.287 0.954 -0.084 62 42 33 0 0
0.0224 0.2779 -0.2413 -0.148 0.987 0.068 65 42 34 0 0
0.0172 0.2668 -0.2816 -0.190 0.948 0.255 72 44 30 0 0
0.0273 0.3095 -0.4187 0.205 0.966 0.158 72 29 9 0 0
0.0230 0.3518 -0.9766 -0.182 0.607 0.774 92 72 63 0 0
0.0242 0.3564 -0.9869 0.214 0.898 0.384 95 75 64 0 0
0.0239 0.3558 -0.9906 0.613 0.789 -0.032 90 69 56 0 0
0.0311 0.3786 -1.0126 0.398 0.874 0.280 87 43 16 0 0
0.0322 0.3837 -1.0322 0.178 0.968 0.177 101 67 35 0 0
0.0299 0.3855 -1.1164 0.176 0.936 0.304 93 59 34 0 0
0.0288 0.3849 -1.1434 0.137 0.980 0.143 86 60 39 0 0
0.0288 0.3853 -1.1464 0.137 0.980 0.143 73 53 36 0 0
0.0281 0.2571 0.0496 -0.301 0.781 0.547 100 67 54 0 0
0.0304 0.2651 0.0356 -0.102 0.987 0.124 139 111 99 0 0
0.0331 0.2753 0.0105 0.346 0.863 0.369 82 37 13 0 0
0.0343 0.2795 0.0022 -0.078 0.987 0.141 82 37 14 0 0
0.0294 0.2680 -0.0233 0.219 0.931 -0.293 59 36 25 0 0
0.0292 0.2676 -0.0262 -0.028 0.997 -0.073 59 37 26 0 0
0.0281 0.2653 -0.0347 0.140 0.896 -0.421 39 21 11 0 0
0.0177 0.2370 -0.0531 -0.570 0.819 0.059 11 5 5 0 0
0.0229 0.2538 -0.0724 0.139 0.580 0.803 47 30 23 0 0
0.0292 0.2743 -0.0940 0.075 0.971 0.227 75 45 29 0 0
0.0288 0.2735 -0.0969 -0.011 0.980 -0.200 94 68 56 0 0
0.0287 0.2734 -0.0998 0.140 0.990 0.034 89 63 51 0 0
0.0416 0.3118 -0.1110 0.009 0.680 0.733 100 67 51 0 0
0.0425 0.3148 -0.1136 -0.173 0.984 -0.043 132 102 86 0 0
0.0417 0.3161 -0.1500 0.070 0.996 -0.048 71 48 36 0 0
0.0383 0.3068 -0.1566 -0.055 0.930 0.363 70 50 40 0 0
0.0395 0.3113 -0.1675 0.359 0.928 0.104 67 47 38 0 0
0.0396 0.3119 -0.1703 0.459 0.887 0.044 67 47 38 0 0
0.0288 0.2841 -0.2053 -0.167 0.905 0.391 62 42 33 0 0
0.0290 0.2850 -0.2081 -0.469 0.880 0.078 62 42 33 0 0
0.0259 0.2790 -0.2381 0.232 0.971 0.053 64 42 31 0 0
0.0258 0.2789 -0.2411 0.490 0.835 0.250 65 43 32 0 0
0.0249 0.2772 -0.2502 0.687 0.727 0.005 67 45 32 0 0
0.0219 0.2757 -0.3245 0.363 0.930 -0.060 81 49 28 0 0
-0.0078 0.2233 -0.6682 -0.279 0.960 -0.028 92 56 26 0 0
-0.0074 0.2247 -0.6710 -0.066 0.982 -0.179 91 54 25 0 0
-0.0064 0.2345 -0.7394 0.398 0.900 0.179 76 44 23 0 0
-0.0065 0.2344 -0.7427 0.374 0.927 0.042 77 45 24 0 0
-0.0041 0.2413 -0.7431 -0.176 0.904 0.389 80 49 28 0 0
0.0067 0.2808 -0.8272 -0.011 0.644 0.765 86 57 44 0 0
0.0145 0.3096 -0.8915 0.341 0.895 -0.288 82 55 36 0 0
0.0247 0.3474 -0.9754 0.316 0.872 0.374 90 70 61 0 0
0.0251 0.3489 -0.9779 0.424 0.881 0.210 91 71 62 0 0
0.0332 0.3749 -1.0046 -0.248 0.838 0.486 76 37 11 0 0
0.0345 0.3792 -1.0117 0.032 0.943 0.331 83 41 13 0 0
0.0344 0.3833 -1.0548 0.308 0.951 -0.024 109 78 52 0 0
0.0342 0.3833 -1.0614 0.308 0.951 -0.024 99 68 40 0 0
0.0315 0.3806 -1.1126 0.194 0.981 -0.008 87 49 26 0 0
0.0318 0.3843 -1.1432 -0.085 0.986 0.146 88 60 37 0 0
0.0320 0.3852 -1.1459 -0.032 0.983 0.180 73 50 34 0 0
0.0224 0.2270 0.0980 0.137 0.730 0.670 155 127 109 0 0
0.0231 0.2294 0.0951 0.202 0.628 0.752 168 142 127 0 0
0.0372 0.2772 0.0244 0.473 0.798 0.374 109 74 50 0 0
0.0348 0.2742 -0.0176 0.310 0.937 0.160 55 31 19 0 0
0.0214 0.2388 -0.0531 -0.223 0.974 -0.028 11 5 5 0 0
0.0200 0.2352 -0.0561 0.108 0.991 -0.084 11 5 5 0 0
0.0214 0.2393 -0.0588 -0.281 0.839 0.465 13 8 8 0 0
0.0475 0.3220 -0.1269 0.102 0.967 0.232 93 47 15 0 0
0.0449 0.3164 -0.1471 -0.207 0.978 -0.035 70 45 33 0 0
0.0422 0.3103 -0.1676 0.359 0.928 0.104 68 49 40 0 0
0.0422 0.3106 -0.1704 0.459 0.887 0.044 67 48 38 0 0
0.0284 0.2773 -0.2383 0.660 0.719 -0.217 65 43 32 0 0
0.0290 0.2791 -0.2410 -0.060 0.958 0.280 65 43 32 0 0
0.0279 0.2763 -0.2444 -0.208 0.952 0.223 65 43 32 0 0
0.0157 0.2518 -0.3565 0.127 0.984 -0.125 66 38 26 0 0
0.0240 0.2788 -0.3868 -0.428 0.702 0.570 76 46 30 0 0
0.0247 0.2813 -0.3893 -0.428 0.702 0.570 70 36 20 0 0
0.0263 0.2862 -0.3941 -0.518 0.797 0.310 67 34 20 0 0
0.0338 0.3100 -0.4123 -0.186 0.865 0.466 88 52 28 0 0
-0.0046 0.2243 -0.6807 -0.319 0.874 0.365 91 56 26 0 0
-0.0005 0.2411 -0.7297 -0.112 0.991 0.069 76 42 21 0 0
0.0054 0.2630 -0.7793 0.237 0.937 -0.256 78 48 29 0 0
0.0068 0.2672 -0.7807 0.147 0.973 -0.179 75 46 26 0 0
0.0074 0.2691 -0.7831 0.128 0.990 -0.055 72 44 24 0 0
0.0090 0.2742 -0.7873 0.017 1.000 -0.008 78 50 31 0 0
0.0113 0.2813 -0.7906 0.796 0.587 0.152 77 48 32 0 0
0.0113 0.2816 -0.7937 0.746 0.664 0.037 79 51 36 0 0
0.0074 0.2734 -0.8271 0.645 0.569 0.510 78 48 34 0 0
0.0173 0.3086 -0.8917 0.223 0.950 -0.220 82 55 36 0 0
0.0365 0.3815 -1.0686 0.363 0.861 0.356 88 58 37 0 0
0.0352 0.3855 -1.1485 0.261 0.942 0.212 78 64 47 0 0
0.0265 0.2303 0.0949 -0.113 0.766 0.633 159 135 120 0 0
0.0206 0.2134 0.0927 0.025 0.858 0.514 148 124 110 0 0
0.0299 0.2426 0.0721 0.169 0.962 0.213 82 40 17 0 0
0.0299 0.2428 0.0693 0.286 0.943 0.169 77 36 15 0 0
0.0321 0.2499 0.0636 0.248 0.916 0.315 68 31 10 0 0
0.0281 0.2390 0.0553 0.362 0.817 0.449 87 54 38 0 0
0.0258 0.2435 -0.0615 0.124 0.705 0.698 13 8 8 0 0
0.0345 0.2711 -0.0857 0.165 0.957 0.238 61 27 15 0 0
0.0350 0.2736 -0.0941 0.177 0.935 0.307 87 58 38 0 0
0.0351 0.2742 -0.0969 0.152 0.970 0.189 86 61 45 0 0
0.0481 0.3169 -0.1471 -0.005 0.998 -0.062 67 42 30 0 0
0.0473 0.3150 -0.1501 0.128 0.967 0.220 69 46 34 0 0
0.0439 0.3064 -0.1652 0.390 0.913 0.118 69 49 40 0 0
0.0439 0.3067 -0.1680 0.368 0.930 0.009 68 49 40 0 0
0.0444 0.3085 -0.1706 0.377 0.917 -0.133 67 49 39 0 0
0.0300 0.2738 -0.2476 0.073 0.859 0.506 64 42 30 0 0
0.0272 0.2676 -0.2693 0.382 0.898 -0.217 74 48 33 0 0
0.0271 0.2685 -0.2810 0.043 0.998 0.052 68 40 26 0 0
0.0266 0.2683 -0.2930 -0.082 0.945 0.317 67 40 22 0 0
0.0298 0.2782 -0.3001 0.687 0.726 -0.027 66 41 27 0 0
0.0293 0.2771 -0.3032 0.575 0.818 -0.006 85 68 60 0 0
0.0270 0.2719 -0.3191 0.490 0.871 -0.049 76 40 15 0 0
0.0187 0.2514 -0.3565 0.127 0.984 -0.125 61 36 22 0 0
0.0185 0.2514 -0.3626 0.099 0.993 0.068 48 26 16 0 0
0.0206 0.2583 -0.3702 0.070 0.940 0.334 50 28 20 0 0
0.0209 0.2592 -0.3730 0.336 0.875 0.349 67 44 34 0 0
0.0214 0.2611 -0.3756 0.273 0.818 0.506 63 35 22 0 0
0.0028 0.2423 -0.7420 -0.065 0.990 0.127 76 40 20 0 0
0.0078 0.2586 -0.7613 0.099 0.991 0.095 82 49 30 0 0
0.0102 0.2682 -0.7865 0.230 0.971 0.064 75 46 25 0 0
0.0146 0.2820 -0.7965 0.667 0.566 -0.485 83 54 37 0 0
0.0239 0.3151 -0.8585 0.254 0.946 0.203 93 58 29 0 0
0.0189 0.3042 -0.8968 0.005 0.977 0.214 78 50 31 0 0
0.0312 0.3481 -0.9774 -0.016 0.993 0.115 93 73 64 0 0
0.0128 0.1787 0.1197 -0.124 0.246 0.961 160 155 151 0 0
0.0304 0.2366 0.0581 0.172 0.983 0.069 70 32 13 0 0
0.0461 0.2861 0.0215 0.164 0.897 0.410 97 59 33 0 0
0.0261 0.2348 -0.0562 0.623 0.467 0.628 9 5 4 0 0
0.0287 0.2427 -0.0587 -0.211 0.683 0.699 10 6 5 0 0
0.0366 0.2677 -0.0774 0.113 0.993 0.014 77 60 50 0 0
0.0368 0.2687 -0.0802 0.097 0.954 0.284 60 38 25 0 0
0.0366 0.2682 -0.0831 0.149 0.988 0.044 62 32 18 0 0
0.0374 0.2708 -0.0858 0.251 0.935 0.251 64 31 17 0 0
0.0380 0.2737 -0.0970 0.152 0.970 0.189 85 58 43 0 0
0.0471 0.3076 -0.1707 0.257 0.962 -0.090 65 48 38 0 0
0.0324 0.2726 -0.2566 0.387 0.882 -0.267 65 42 29 0 0
0.0308 0.2682 -0.2603 0.394 0.910 -0.131 67 44 30 0 0
0.0304 0.2674 -0.2634 0.385 0.910 -0.152 71 45 31 0 0
0.0302 0.2672 -0.2664 0.195 0.978 -0.068 75 49 34 0 0
0.0296 0.2705 -0.3193 0.490 0.871 -0.049 77 41 17 0 0
0.0245 0.2598 -0.3637 -0.061 0.998 -0.001 41 21 16 0 0
0.0240 0.2588 -0.3699 0.179 0.981 0.076 51 29 21 0 0
0.0330 0.2877 -0.3935 -0.115 0.906 0.408 55 23 12 0 0
0.0388 0.3055 -0.4012 -0.055 0.904 0.424 80 44 28 0 0
0.0060 0.2377 -0.6978 -0.152 0.987 0.051 87 52 25 0 0
0.0122 0.2645 -0.7878 0.267 0.900 0.345 73 40 20 0 0
0.0143 0.2711 -0.7913 0.336 0.883 0.330 74 41 21 0 0
0.0156 0.2751 -0.7928 -0.117 0.991 0.069 76 42 23 0 0
0.0160 0.2777 -0.8079 0.299 0.830 -0.471 76 43 25 0 0
0.0160 0.2779 -0.8111 0.229 0.841 -0.490 76 43 25 0 0
0.0266 0.3140 -0.8619 -0.053 0.999 -0.005 94 58 32 0 0
0.0262 0.3137 -0.8719 -0.152 0.986 -0.067 87 56 33 0 0
0.0198 0.2994 -0.9155 0.445 0.892 -0.074 75 47 29 0 0
0.0422 0.3727 -0.9948 0.019 0.837 0.548 76 40 18 0 0
0.0432 0.3809 -1.0483 0.141 0.987 0.073 105 71 44 0 0
0.0397 0.3816 -1.1634 0.034 0.934 0.354 179 178 176 0 0
0.0343 0.2371 0.0777 0.307 0.950 -0.052 83 45 20 0 0
0.0344 0.2381 0.0720 0.502 0.865 0.002 63 25 4 0 0
0.0346 0.2389 0.0692 0.149 0.978 0.143 63 25 7 0 0
0.0333 0.2362 0.0580 0.453 0.891 -0.024 69 31 11 0 0
0.0351 0.2424 0.0466 0.350 0.919 -0.180 111 72 58 0 0
0.0426 0.2649 0.0436 0.308 0.873 0.379 132 102 93 0 0
0.0419 0.2703 -0.0348 -0.026 0.976 0.215 40 21 17 0 0
0.0421 0.2713 -0.0375 0.292 0.944 0.153 30 15 10 0 0
0.0393 0.2670 -0.0803 -0.036 0.990 0.138 58 37 24 0 0
0.0500 0.3012 -0.1063 -0.062 0.788 0.613 94 63 42 0 0
0.0539 0.3139 -0.1193 0.508 0.839 0.196 143 120 104 0 0
0.0538 0.3139 -0.1221 0.334 0.936 -0.111 131 98 78 0 0
0.0502 0.3076 -0.1679 -0.023 0.993 0.114 65 47 37 0 0
0.0498 0.3068 -0.1708 0.257 0.962 -0.090 65 47 37 0 0
0.0456 0.2973 -0.2006 -0.589 0.808 -0.032 62 42 35 0 0
0.0371 0.2764 -0.2442 0.260 0.965 0.017 60 39 28 0 0
0.0336 0.2672 -0.2574 0.615 0.728 0.303 63 40 28 0 0
0.0337 0.2679 -0.2603 0.459 0.853 0.250 66 42 29 0 0
0.0341 0.2694 -0.2630 0.171 0.851 0.496 70 44 31 0 0
0.0332 0.2704 -0.3014 0.629 0.778 0.010 65 41 26 0 0
0.0322 0.2690 -0.3195 0.490 0.871 -0.049 73 37 13 0 0
0.0274 0.2602 -0.3756 -0.028 0.997 0.074 62 30 19 0 0
0.0328 0.2769 -0.3839 0.020 0.993 0.116 62 34 17 0 0
0.0332 0.2784 -0.3865 0.199 0.876 0.439 77 49 31 0 0
0.0336 0.2799 -0.3892 0.189 0.955 0.227 61 31 18 0 0
0.0331 0.2786 -0.3925 0.216 0.876 0.432 60 29 16 0 0
0.0367 0.2894 -0.3930 0.456 0.822 -0.342 54 25 14 0 0
0.0418 0.3052 -0.4011 -0.216 0.714 0.666 72 38 21 0 0
0.0170 0.2693 -0.7885 -0.077 0.771 0.632 69 34 14 0 0
0.0169 0.2692 -0.7919 0.733 0.426 0.530 70 35 15 0 0
0.0173 0.2709 -0.7976 0.438 0.830 0.347 71 39 19 0 0
0.0300 0.3142 -0.8582 0.262 0.904 0.337 91 53 24 0 0
0.0302 0.3152 -0.8609 0.293 0.823 0.487 87 52 26 0 0
0.0301 0.3153 -0.8642 0.044 0.913 0.405 86 53 30 0 0
0.0303 0.3159 -0.8671 -0.027 0.964 0.266 86 56 32 0 0
0.0215 0.2961 -0.9301 0.327 0.909 0.259 100 69 41 0 0
0.0387 0.3509 -0.9716 0.254 0.928 0.271 93 75 65 0 0
0.0389 0.3518 -0.9743 0.175 0.935 0.309 92 74 64 0 0
0.0441 0.3778 -1.0859 0.200 0.979 0.044 35 17 8 0 0
0.0464 0.3880 -1.1219 0.143 0.942 0.302 101 71 42 0 0
0.0367 0.2350 0.0804 0.387 0.802 0.456 92 58 33 0 0
0.0370 0.2362 0.0776 0.307 0.950 -0.052 84 46 22 0 0
0.0369 0.2361 0.0748 0.307 0.950 -0.052 71 30 9 0 0
0.0372 0.2373 0.0719 0.319 0.948 0.015 69 30 10 0 0
0.0378 0.2397 0.0635 0.303 0.848 0.434 57 20 4 0 0
0.0356 0.2339 0.0579 0.350 0.935 -0.054 77 40 19 0 0
0.0526 0.2888 0.0103 0.320 0.947 0.040 68 28 6 0 0
0.0450 0.2710 -0.0376 0.446 0.887 -0.120 30 15 10 0 0
0.0404 0.2602 -0.0693 0.368 0.871 0.326 16 9 9 0 0
0.0439 0.2727 -0.0914 0.279 0.916 0.288 56 24 9 0 0
0.0576 0.3182 -0.1413 0.107 0.994 0.037 67 30 10 0 0
0.0540 0.3099 -0.1676 0.066 0.998 0.018 64 46 36 0 0
0.0505 0.3024 -0.1970 0.485 0.860 0.157 61 42 35 0 0
0.0504 0.3023 -0.1999 0.366 0.907 -0.208 61 41 34 0 0
0.0484 0.2968 -0.2035 0.582 0.744 -0.330 60 40 33 0 0
0.0361 0.2687 -0.2897 0.277 0.936 0.218 62 34 20 0 0
0.0361 0.2688 -0.2926 0.338 0.789 0.513 65 37 23 0 0
0.0356 0.2677 -0.2958 0.758 0.550 0.351 61 33 18 0 0
0.0365 0.2711 -0.3041 0.643 0.694 0.324 97 78 66 0 0
0.0353 0.2753 -0.3841 -0.323 0.876 0.358 54 27 10 0 0
0.0357 0.2767 -0.3868 -0.072 0.901 0.428 77 50 32 0 0
0.0360 0.2778 -0.3896 0.090 0.953 0.288 60 32 18 0 0
0.0361 0.2783 -0.3925 0.281 0.940 0.193 62 33 19 0 0
0.0453 0.3063 -0.4007 -0.072 0.629 0.774 69 35 18 0 0
0.0275 0.2592 -0.4583 0.014 0.394 -0.919 80 53 34 0 0
0.0164 0.2293 -0.4884 0.059 0.998 0.020 69 42 23 0 0
0.0144 0.2292 -0.5518 -0.132 0.991 -0.011 89 55 28 0 0
0.0129 0.2316 -0.6216 0.009 0.931 0.366 101 65 31 0 0
0.0207 0.2704 -0.7877 -0.098 0.747 0.657 68 33 13 0 0
0.0207 0.2708 -0.7908 0.393 0.826 0.404 66 31 11 0 0
0.0212 0.2725 -0.7933 0.577 0.702 0.418 68 33 13 0 0
0.0213 0.2732 -0.7962 0.746 0.598 0.294 65 32 12 0 0
0.0331 0.3142 -0.8611 0.182 0.956 0.230 91 57 31 0 0
0.0332 0.3149 -0.8640 0.182 0.956 0.230 90 59 36 0 0
0.0389 0.3416 -0.9668 0.005 0.777 0.630 90 72 62 0 0
0.0419 0.3507 -0.9680 0.479 0.839 0.258 92 74 64 0 0
0.0420 0.3514 -0.9709 0.473 0.872 0.127 95 78 69 0 0
0.0417 0.3516 -0.9837 0.238 0.907 0.346 95 78 70 0 0
0.0498 0.3772 -1.0009 0.371 0.927 0.060 70 32 9 0 0
0.0493 0.3875 -1.1250 0.184 0.977 0.111 102 71 43 0 0
0.0464 0.3825 -1.1617 0.091 0.937 0.336 177 176 173 0 0
0.0392 0.2356 0.0578 0.195 0.969 -0.152 77 40 18 0 0
0.0542 0.2841 0.0185 0.147 0.931 0.333 82 40 13 0 0
0.0545 0.2858 0.0102 0.174 0.958 0.226 67 29 7 0 0
0.0476 0.2696 -0.0377 0.553 0.810 0.196 28 13 8 0 0
0.0432 0.2596 -0.0694 0.252 0.946 0.205 14 7 7 0 0
0.0438 0.2627 -0.0835 0.158 0.885 0.438 48 20 9 0 0
0.0535 0.2937 -0.1040 -0.568 0.698 0.436 74 41 26 0 0
0.0556 0.3004 -0.1092 -0.118 0.692 0.712 88 54 35 0 0
0.0601 0.3150 -0.1220 0.084 0.965 0.249 129 96 76 0 0
0.0603 0.3161 -0.1275 0.267 0.963 0.038 97 52 18 0 0
0.0443 0.2799 -0.2494 0.471 0.840 0.269 59 37 26 0 0
0.0387 0.2668 -0.2870 0.109 0.966 0.235 65 37 23 0 0
0.0388 0.2675 -0.2898 0.109 0.966 0.235 57 29 15 0 0
0.0385 0.2676 -0.3017 0.306 0.951 0.036 60 36 21 0 0
0.0389 0.2768 -0.3866 -0.072 0.901 0.428 76 50 32 0 0
0.0390 0.2775 -0.3895 0.090 0.953 0.288 61 34 20 0 0
0.0482 0.3061 -0.4006 -0.118 0.671 0.732 67 34 18 0 0
0.0188 0.2297 -0.5197 -0.007 0.997 -0.072 69 40 22 0 0
0.0187 0.2297 -0.5229 -0.001 1.000 -0.029 70 41 24 0 0
0.0180 0.2298 -0.5451 0.251 0.968 -0.021 86 55 27 0 0
0.0179 0.2298 -0.5483 0.251 0.968 -0.021 87 54 27 0 0
0.0178 0.2297 -0.5515 0.251 0.968 -0.021 85 51 24 0 0
0.0199 0.2384 -0.5773 -0.038 0.939 0.341 91 56 28 0 0
0.0176 0.2322 -0.5826 0.102 0.995 0.005 89 52 25 0 0
0.0155 0.2290 -0.6158 0.077 0.915 0.395 96 58 27 0 0
0.0158 0.2302 -0.6186 0.077 0.915 0.395 99 63 30 0 0
0.0160 0.2309 -0.6216 0.261 0.910 0.322 98 62 30 0 0
0.0161 0.2317 -0.6245 0.281 0.960 0.022 98 62 30 0 0
0.0162 0.2324 -0.6275 0.247 0.969 0.002 100 61 27 0 0
0.0163 0.2329 -0.6306 0.293 0.951 -0.095 100 61 27 0 0
0.0163 0.2331 -0.6337 0.236 0.971 0.023 98 59 25 0 0
0.0162 0.2361 -0.6682 0.372 0.874 0.313 87 48 17 0 0
0.0246 0.2736 -0.7990 -0.466 0.829 0.309 66 34 13 0 0
0.0229 0.2697 -0.8106 0.436 0.817 -0.377 62 29 12 0 0
0.0233 0.2712 -0.8132 0.396 0.774 -0.495 62 29 12 0 0
0.0293 0.2989 -0.9178 0.649 0.759 0.054 81 53 32 0 0
0.0285 0.2971 -0.9221 0.560 0.791 0.244 90 60 35 0 0
0.0315 0.3066 -0.9301 0.289 0.911 0.294 97 66 38 0 0
0.0416 0.3399 -0.9640 -0.197 0.696 0.690 89 71 61 0 0
0.0420 0.3413 -0.9665 0.005 0.777 0.630 94 76 66 0 0
0.0433 0.3455 -0.9705 0.429 0.814 0.391 94 76 67 0 0
0.0432 0.3458 -0.9769 0.393 0.917 -0.076 98 81 73 0 0
0.0441 0.3488 -0.9785 0.403 0.887 0.227 94 77 69 0 0
0.0441 0.3491 -0.9815 0.256 0.866 0.429 93 76 68 0 0
0.0528 0.3767 -1.0007 -0.022 0.990 -0.138 68 30 9 0 0
0.0533 0.3824 -1.0426 0.024 0.996 0.083 103 72 44 0 0
0.0529 0.3822 -1.0525 0.142 0.990 0.026 104 71 44 0 0
0.0531 0.3829 -1.0554 0.456 0.878 0.146 103 71 41 0 0
0.0527 0.3820 -1.0592 0.373 0.914 0.159 95 63 37 0 0
0.0481 0.3764 -1.1421 0.104 0.992 0.065 91 63 33 0 0
0.0500 0.3835 -1.1571 0.148 0.885 -0.441 157 151 145 0 0
0.0409 0.2284 0.0916 0.429 0.897 0.110 157 133 120 0 0
0.0409 0.2286 0.0888 -0.069 0.964 -0.256 147 122 108 0 0
0.0421 0.2334 0.0775 0.381 0.903 0.199 81 43 17 0 0
0.0511 0.2652 0.0267 0.178 0.845 0.504 117 88 69 0 0
0.0564 0.2812 0.0240 0.249 0.921 0.300 97 62 38 0 0
0.0571 0.2837 0.0184 0.147 0.931 0.333 80 38 14 0 0
0.0575 0.2859 0.0102 0.065 0.971 0.228 65 29 8 0 0
0.0457 0.2576 -0.0667 0.389 0.908 0.156 11 6 5 0 0
0.0462 0.2595 -0.0694 0.400 0.899 0.179 14 7 6 0 0
0.0541 0.2866 -0.1046 0.223 0.406 0.887 74 38 23 0 0
0.0586 0.3005 -0.1092 0.309 0.636 0.707 95 60 39 0 0
0.0644 0.3196 -0.1272 0.245 0.969 -0.037 95 50 16 0 0
0.0641 0.3202 -0.1439 0.391 0.917 0.077 67 37 23 0 0
0.0454 0.2758 -0.2676 0.209 0.848 0.487 65 38 27 0 0
0.0418 0.2672 -0.2898 0.109 0.966 0.235 61 34 18 0 0
0.0447 0.2791 -0.3232 0.291 0.957 -0.020 73 42 21 0 0
0.0446 0.2790 -0.3262 0.148 0.988 0.040 79 48 28 0 0
0.0441 0.2778 -0.3294 0.017 0.951 -0.309 74 45 30 0 0
0.0417 0.2760 -0.3867 0.094 0.930 0.354 72 44 30 0 0
0.0427 0.2794 -0.3889 0.268 0.948 0.173 60 33 21 0 0
0.0431 0.2807 -0.3916 0.408 0.822 0.396 57 29 16 0 0
0.0212 0.2297 -0.5449 0.169 0.986 0.003 84 53 27 0 0
0.0195 0.2330 -0.6335 0.034 0.998 0.046 94 55 22 0 0
0.0196 0.2336 -0.6365 0.040 0.988 0.148 93 54 21 0 0
0.0197 0.2341 -0.6396 0.040 0.988 0.148 95 56 23 0 0
0.0200 0.2394 -0.6862 -0.170 0.981 -0.099 80 40 15 0 0
0.0294 0.2779 -0.7966 -0.685 0.728 -0.031 66 33 14 0 0
0.0338 0.2922 -0.8062 -0.446 0.895 0.012 63 30 13 0 0
0.0393 0.3113 -0.8358 -0.112 0.895 0.432 69 31 11 0 0
0.0395 0.3164 -0.8819 0.503 0.853 -0.137 81 53 32 0 0
0.0437 0.3370 -0.9652 0.472 0.577 0.666 90 73 65 0 0
0.0465 0.3466 -0.9793 0.550 0.770 0.323 96 79 72 0 0
0.0561 0.3798 -1.0275 0.225 0.942 0.248 86 47 19 0 0
0.0563 0.3810 -1.0332 0.137 0.960 0.242 93 56 30 0 0
0.0564 0.3817 -1.0361 0.255 0.967 0.019 96 60 34 0 0
0.0526 0.3732 -1.0677 0.126 0.975 0.184 96 65 38 0 0
0.0438 0.2280 0.0916 0.850 0.526 0.038 167 144 131 0 0
0.0536 0.2621 0.0433 0.275 0.866 0.417 138 110 98 0 0
0.0597 0.2826 0.0211 0.128 0.862 0.490 81 39 15 0 0
0.0601 0.2840 0.0184 0.230 0.886 0.402 73 31 8 0 0
0.0485 0.2572 -0.0696 0.257 0.934 0.247 13 6 6 0 0
0.0608 0.2973 -0.1010 -0.425 0.632 0.648 72 37 25 0 0
0.0593 0.2933 -0.1069 0.191 0.484 0.854 80 45 26 0 0
0.0612 0.2993 -0.1093 0.309 0.636 0.707 93 58 38 0 0
0.0679 0.3217 -0.1326 0.287 0.930 0.231 70 30 7 0 0
0.0667 0.3191 -0.1440 0.391 0.917 0.077 66 36 22 0 0
0.0611 0.3056 -0.1794 0.245 0.922 -0.299 61 41 34 0 0
0.0615 0.3070 -0.1820 -0.111 0.893 -0.437 61 41 34 0 0
0.0510 0.2826 -0.2576 0.301 0.952 0.058 61 37 24 0 0
0.0511 0.2830 -0.2605 0.362 0.922 0.135 63 37 24 0 0
0.0495 0.2785 -0.2642 0.061 0.920 0.387 64 38 25 0 0
0.0491 0.2778 -0.2672 0.661 0.726 0.190 65 39 26 0 0
0.0498 0.2800 -0.2698 0.520 0.685 0.510 64 38 25 0 0
0.0444 0.2657 -0.2900 0.265 0.912 0.314 58 31 14 0 0
0.0445 0.2669 -0.2987 0.087 0.985 0.147 60 31 14 0 0
0.0469 0.2763 -0.3237 0.384 0.883 0.272 73 42 21 0 0
0.0372 0.2506 -0.3590 0.213 0.967 0.142 38 19 10 0 0
0.0373 0.2510 -0.3620 0.213 0.967 0.142 36 19 10 0 0
0.0393 0.2582 -0.3725 -0.101 0.994 -0.038 52 27 18 0 0
0.0448 0.2758 -0.3836 0.255 0.935 0.246 52 25 11 0 0
0.0447 0.2758 -0.3866 0.310 0.934 -0.176 71 44 31 0 0
0.0453 0.2777 -0.3892 0.390 0.919 0.062 61 34 24 0 0
0.0457 0.2793 -0.3918 0.489 0.799 0.350 53 25 13 0 0
0.0546 0.3070 -0.4031 0.497 0.867 -0.032 97 70 58 0 0
0.0271 0.2351 -0.5177 -0.005 0.997 0.072 63 35 16 0 0
0.0234 0.2303 -0.5828 0.406 0.905 -0.127 83 49 22 0 0
0.0227 0.2329 -0.6333 0.034 0.998 0.046 94 55 22 0 0
0.0226 0.2330 -0.6397 0.175 0.979 0.106 93 54 21 0 0
0.0226 0.2334 -0.6428 0.175 0.979 0.106 96 57 24 0 0
0.0226 0.2337 -0.6459 0.175 0.979 0.106 96 57 24 0 0
0.0255 0.2479 -0.7052 -0.060 0.946 0.320 71 35 10 0 0
0.0439 0.3168 -0.8489 0.088 0.956 0.280 90 47 12 0 0
0.0438 0.3176 -0.8582 0.126 0.987 0.103 93 58 32 0 0
0.0368 0.3028 -0.9247 0.239 0.950 0.199 98 66 42 0 0
0.0467 0.3363 -0.9652 0.474 0.538 0.697 95 78 70 0 0
0.0469 0.3373 -0.9679 0.444 0.600 0.665 98 81 73 0 0
0.0479 0.3403 -0.9694 0.251 0.826 0.505 99 82 74 0 0
0.0482 0.3415 -0.9720 0.300 0.917 0.262 94 77 69 0 0
0.0484 0.3423 -0.9748 0.242 0.967 0.081 104 87 79 0 0
0.0484 0.3426 -0.9779 0.242 0.967 0.081 99 82 74 0 0
0.0493 0.3456 -0.9794 0.372 0.808 0.458 99 82 74 0 0
0.0499 0.3478 -0.9846 0.145 0.737 0.660 98 81 73 0 0
0.0592 0.3774 -1.0026 -0.237 0.915 0.326 70 29 7 0 0
0.0590 0.3794 -1.0273 0.233 0.907 0.351 87 48 20 0 0
0.0590 0.3813 -1.0488 0.315 0.948 0.049 102 71 42 0 0
0.0583 0.3853 -1.1150 0.184 0.971 0.152 90 56 29 0 0
0.0582 0.3859 -1.1244 0.275 0.961 -0.015 100 69 40 0 0
0.0581 0.3861 -1.1276 0.214 0.974 0.080 100 69 40 0 0
0.0456 0.2241 0.0944 0.741 0.639 0.208 151 128 115 0 0
0.0458 0.2249 0.0915 0.765 0.638 0.095 160 139 125 0 0
0.0488 0.2365 0.0659 0.130 0.984 -0.125 61 24 6 0 0
0.0589 0.2701 0.0321 0.419 0.814 0.402 150 130 124 0 0
0.0625 0.2819 0.0210 0.230 0.869 0.439 80 37 15 0 0
0.0629 0.2833 0.0183 0.230 0.886 0.402 74 32 9 0 0
0.0619 0.2814 0.0100 0.281 0.954 0.104 61 25 6 0 0
0.0553 0.2665 -0.0464 -0.168 0.982 0.089 9 5 4 0 0
0.0505 0.2540 -0.0669 0.238 0.655 0.717 10 4 4 0 0
0.0518 0.2581 -0.0696 0.304 0.851 0.428 13 6 5 0 0
0.0631 0.2958 -0.1067 0.297 0.622 0.725 85 50 31 0 0
0.0639 0.2985 -0.1093 0.297 0.622 0.725 88 53 33 0 0
0.0647 0.3011 -0.1119 0.235 0.626 0.744 81 47 31 0 0
0.0700 0.3189 -0.1300 0.269 0.916 0.296 74 34 8 0 0
0.0681 0.3156 -0.1556 0.216 0.974 -0.065 65 45 35 0 0
0.0641 0.3050 -0.1737 0.077 0.907 -0.415 62 44 34 0 0
0.0638 0.3048 -0.1794 0.418 0.896 -0.153 61 41 34 0 0
0.0646 0.3073 -0.1820 -0.101 0.902 -0.420 60 40 33 0 0
0.0574 0.2872 -0.1988 0.440 0.847 0.299 59 39 30 0 0
0.0575 0.2877 -0.2016 0.300 0.913 0.278 58 38 29 0 0
0.0578 0.2888 -0.2044 0.298 0.857 0.421 57 37 28 0 0
0.0522 0.2783 -0.2700 0.520 0.685 0.510 65 39 25 0 0
0.0472 0.2649 -0.2901 0.265 0.912 0.314 60 33 16 0 0
0.0475 0.2664 -0.2957 0.169 0.885 0.433 66 39 22 0 0
0.0476 0.2668 -0.2986 0.307 0.948 -0.087 66 36 19 0 0
0.0410 0.2516 -0.3496 0.589 0.783 -0.199 57 33 23 0 0
0.0470 0.2732 -0.3841 0.487 0.866 -0.116 49 23 10 0 0
0.0469 0.2731 -0.3871 0.483 0.857 -0.180 66 40 28 0 0
0.0475 0.2751 -0.3897 0.577 0.804 0.145 55 30 21 0 0
0.0483 0.2778 -0.3921 0.337 0.768 0.545 51 23 12 0 0
0.0570 0.3061 -0.4121 0.457 0.888 -0.046 75 35 16 0 0
0.0297 0.2315 -0.4997 0.362 0.931 -0.043 66 39 20 0 0
0.0304 0.2348 -0.5113 0.067 0.989 0.131 62 35 19 0 0
0.0302 0.2346 -0.5145 0.188 0.963 0.192 57 30 14 0 0
0.0302 0.2349 -0.5176 0.104 0.991 0.088 59 32 16 0 0
0.0301 0.2349 -0.5207 0.032 0.999 -0.033 64 36 21 0 0
0.0289 0.2355 -0.5681 0.219 0.956 0.193 75 40 20 0 0
0.0285 0.2346 -0.5715 0.355 0.932 0.080 78 43 23 0 0
0.0268 0.2299 -0.5763 0.041 0.980 0.195 81 46 26 0 0
0.0287 0.2478 -0.7050 0.145 0.943 0.298 70 34 11 0 0
0.0317 0.2603 -0.7420 0.386 0.922 -0.010 67 31 11 0 0
0.0319 0.2611 -0.7449 0.249 0.968 -0.040 71 36 16 0 0
0.0322 0.2630 -0.7538 0.003 0.992 -0.129 71 36 17 0 0
0.0403 0.2926 -0.8086 -0.023 0.983 0.180 60 29 11 0 0
0.0414 0.3035 -0.8878 0.100 0.892 0.441 83 56 34 0 0
0.0400 0.3022 -0.9214 0.125 0.980 0.153 103 73 48 0 0
0.0398 0.3021 -0.9247 0.033 0.984 0.173 102 72 47 0 0
0.0510 0.3405 -0.9722 0.334 0.895 0.297 89 72 64 0 0
0.0515 0.3421 -0.9744 0.435 0.898 0.065 97 80 71 0 0
0.0513 0.3419 -0.9779 0.242 0.967 0.081 100 83 74 0 0
0.0520 0.3442 -0.9798 0.410 0.775 0.481 104 87 79 0 0
0.0619 0.3763 -1.0028 0.248 0.969 0.020 71 30 8 0 0
0.0634 0.3808 -1.0033 -0.108 0.920 0.378 72 31 9 0 0
0.0637 0.3821 -1.0057 0.204 0.743 0.638 72 31 9 0 0
0.0620 0.3786 -1.0241 0.219 0.966 0.135 83 44 14 0 0
0.0625 0.3817 -1.0416 0.380 0.833 0.403 101 70 42 0 0
0.0621 0.3807 -1.0455 0.512 0.840 0.180 102 71 42 0 0
0.0618 0.3804 -1.0489 0.315 0.948 0.049 103 72 43 0 0
0.0614 0.3853 -1.1145 0.303 0.952 0.053 89 55 28 0 0
0.0428 0.2045 0.1120 0.260 0.513 0.818 121 95 79 0 0
0.0440 0.2086 0.1090 0.260 0.513 0.818 128 99 80 0 0
0.0477 0.2210 0.0972 0.685 0.584 0.435 168 147 131 0 0
0.0476 0.2209 0.0944 0.609 0.726 0.320 158 136 122 0 0
0.0481 0.2226 0.0915 0.556 0.820 0.134 159 139 124 0 0
0.0513 0.2345 0.0687 0.367 0.930 -0.013 61 24 5 0 0
0.0607 0.2666 0.0320 0.504 0.704 0.501 152 131 124 0 0
0.0647 0.2809 0.0071 0.281 0.954 0.104 56 22 4 0 0
0.0585 0.2672 -0.0464 -0.511 0.857 -0.067 9 5 4 0 0
0.0658 0.2951 -0.1068 0.160 0.725 0.670 77 41 22 0 0
0.0666 0.2977 -0.1094 0.284 0.740 0.610 85 49 30 0 0
0.0727 0.3182 -0.1301 0.269 0.916 0.296 71 32 5 0 0
0.0731 0.3197 -0.1327 0.336 0.942 -0.017 68 31 8 0 0
0.0670 0.3058 -0.1821 -0.116 0.959 -0.259 59 39 32 0 0
0.0599 0.2858 -0.2018 0.403 0.641 0.653 58 38 29 0 0
0.0603 0.2874 -0.2045 0.429 0.740 0.518 55 35 26 0 0
0.0606 0.2885 -0.2073 0.493 0.834 0.248 57 37 28 0 0
0.0534 0.2726 -0.2709 0.252 0.801 0.543 64 38 23 0 0
0.0509 0.2698 -0.3218 0.345 0.847 0.405 69 36 14 0 0
0.0512 0.2773 -0.3920 -0.152 0.896 0.417 51 22 13 0 0
0.0600 0.3077 -0.4324 0.036 0.997 -0.070 84 55 34 0 0
0.0346 0.2342 -0.4736 0.119 0.985 0.121 62 35 20 0 0
0.0327 0.2304 -0.4935 0.215 0.975 -0.057 58 31 15 0 0
0.0325 0.2302 -0.4967 0.215 0.975 -0.057 57 30 14 0 0
0.0332 0.2334 -0.5084 0.178 0.983 0.053 56 30 15 0 0
0.0332 0.2337 -0.5115 0.143 0.989 0.049 55 29 14 0 0
0.0331 0.2336 -0.5146 0.293 0.913 0.285 51 25 11 0 0
0.0331 0.2339 -0.5177 0.191 0.976 0.103 53 27 13 0 0
0.0331 0.2342 -0.5207 0.191 0.976 0.103 58 32 17 0 0
0.0319 0.2348 -0.5681 0.219 0.956 0.193 77 42 21 0 0
0.0323 0.2364 -0.5707 0.388 0.902 0.187 79 44 23 0 0
0.0319 0.2356 -0.5742 0.332 0.936 0.119 78 43 22 0 0
0.0319 0.2359 -0.5772 0.332 0.936 0.119 79 44 22 0 0
0.0297 0.2358 -0.6478 -0.066 0.996 -0.061 96 56 23 0 0
0.0296 0.2356 -0.6511 -0.066 0.996 -0.061 95 55 21 0 0
0.0343 0.2551 -0.7049 0.320 0.908 0.271 68 32 10 0 0
0.0347 0.2595 -0.7388 0.235 0.945 -0.227 65 28 9 0 0
0.0350 0.2614 -0.7509 -0.008 0.972 0.233 66 32 13 0 0
0.0350 0.2617 -0.7541 -0.029 0.997 0.073 65 32 13 0 0
0.0402 0.2812 -0.7941 0.204 0.892 0.405 60 28 9 0 0
0.0414 0.2849 -0.7956 0.605 0.544 0.581 59 26 9 0 0
0.0414 0.2853 -0.7987 0.243 0.663 0.708 58 25 10 0 0
0.0447 0.2963 -0.8097 0.521 0.830 0.197 55 24 8 0 0
0.0498 0.3158 -0.8518 0.046 0.942 0.333 89 46 13 0 0
0.0503 0.3182 -0.8604 0.236 0.971 0.022 96 65 40 0 0
0.0502 0.3182 -0.8636 0.236 0.971 0.022 94 63 38 0 0
0.0470 0.3100 -0.8808 0.105 0.956 0.273 82 53 32 0 0
0.0437 0.3048 -0.9327 0.353 0.933 0.076 95 65 39 0 0
0.0536 0.3382 -0.9665 0.550 0.659 0.514 96 80 72 0 0
0.0545 0.3419 -0.9774 0.423 0.902 -0.089 92 75 66 0 0
0.0622 0.3691 -1.0165 0.226 0.927 0.300 72 33 8 0 0
0.0639 0.3775 -1.0503 0.380 0.899 0.219 104 73 44 0 0
0.0641 0.3781 -1.0532 0.380 0.899 0.219 104 71 43 0 0
0.0637 0.3819 -1.1064 0.077 0.966 0.247 81 42 18 0 0
0.0641 0.3839 -1.1149 0.220 0.959 0.181 89 55 28 0 0
0.0533 0.2299 0.0828 0.062 0.977 0.203 101 69 49 0 0
0.0537 0.2320 0.0743 0.009 0.911 0.411 65 27 6 0 0
0.0540 0.2333 0.0714 0.009 0.911 0.411 64 26 6 0 0
0.0534 0.2318 0.0687 0.336 0.940 -0.061 61 24 6 0 0
0.0536 0.2325 0.0658 0.034 0.997 0.069 56 19 4 0 0
0.0666 0.2756 0.0292 0.392 0.868 0.304 124 101 90 0 0
0.0667 0.2763 0.0264 0.389 0.906 0.165 98 67 52 0 0
0.0664 0.2757 0.0236 0.213 0.965 0.152 92 52 32 0 0
0.0632 0.2692 -0.0127 0.785 0.598 0.161 50 24 11 0 0
0.0635 0.2723 -0.0378 -0.177 0.974 -0.138 22 11 5 0 0
0.0566 0.2537 -0.0642 0.485 0.780 -0.395 6 5 3 0 0
0.0605 0.2679 -0.0861 0.277 0.902 0.331 45 15 4 0 0
0.0656 0.2849 -0.1019 0.627 0.445 0.639 70 37 23 0 0
0.0687 0.2948 -0.1068 0.344 0.722 0.599 75 39 20 0 0
0.0694 0.2970 -0.1095 0.455 0.698 0.553 78 44 24 0 0
0.0757 0.3183 -0.1301 0.394 0.878 0.273 68 28 4 0 0
0.0632 0.2868 -0.2017 -0.012 0.742 0.671 59 39 30 0 0
0.0634 0.2875 -0.2045 0.290 0.791 0.539 57 37 28 0 0
0.0565 0.2714 -0.2563 0.272 0.950 0.153 58 35 25 0 0
0.0556 0.2700 -0.2713 0.117 0.920 0.375 62 36 21 0 0
0.0539 0.2696 -0.3217 0.160 0.979 0.130 66 34 13 0 0
0.0616 0.3008 -0.4042 0.452 0.830 0.327 95 69 60 0 0
0.0629 0.3078 -0.4382 -0.145 0.736 -0.661 87 58 40 0 0
0.0371 0.2324 -0.4740 0.427 0.897 0.111 62 35 19 0 0
0.0363 0.2329 -0.5052 0.143 0.989 0.049 55 29 14 0 0
0.0362 0.2328 -0.5084 0.178 0.983 0.053 55 29 14 0 0
0.0362 0.2334 -0.5145 0.151 0.984 0.100 52 26 13 0 0
0.0362 0.2336 -0.5176 0.173 0.984 0.042 57 29 17 0 0
0.0348 0.2341 -0.5681 0.219 0.956 0.193 77 42 20 0 0
0.0350 0.2348 -0.5710 0.239 0.947 0.215 77 42 19 0 0
0.0350 0.2353 -0.5741 0.158 0.963 0.217 76 42 18 0 0
0.0340 0.2371 -0.6278 0.191 0.972 0.141 99 63 29 0 0
0.0339 0.2372 -0.6310 0.299 0.953 0.052 98 62 28 0 0
0.0339 0.2374 -0.6341 0.299 0.953 0.052 98 62 29 0 0
0.0339 0.2376 -0.6373 0.299 0.953 0.052 97 61 29 0 0
0.0338 0.2375 -0.6405 0.143 0.987 0.074 96 60 28 0 0
0.0328 0.2356 -0.6509 0.109 0.993 0.055 97 59 24 0 0
0.0378 0.2590 -0.7387 0.065 0.970 -0.232 64 29 10 0 0
0.0466 0.2923 -0.8080 0.529 0.825 0.199 53 21 6 0 0
0.0472 0.2945 -0.8102 0.198 0.952 0.234 53 21 8 0 0
0.0506 0.3070 -0.8332 -0.052 0.979 0.199 58 24 12 0 0
0.0517 0.3117 -0.8503 0.346 0.937 -0.053 85 39 7 0 0
0.0518 0.3123 -0.8532 0.048 0.996 0.069 89 45 12 0 0
0.0462 0.3018 -0.9241 0.162 0.981 0.108 103 73 45 0 0
0.0468 0.3039 -0.9262 0.462 0.859 0.218 101 70 42 0 0
0.0469 0.3045 -0.9291 0.294 0.907 0.300 99 68 40 0 0
0.0465 0.3037 -0.9329 0.353 0.933 0.076 90 58 33 0 0
0.0561 0.3363 -0.9672 0.279 0.780 0.561 98 84 75 0 0
0.0572 0.3403 -0.9746 0.383 0.901 0.202 97 80 72 0 0
0.0604 0.3510 -0.9847 -0.071 0.981 0.178 96 79 71 0 0
0.0685 0.3903 -1.1428 0.305 0.950 0.072 74 56 40 0 0
0.0450 0.1931 0.1065 0.511 0.550 0.660 129 96 78 0 0
0.0465 0.1981 0.1035 0.391 0.918 0.065 152 123 104 0 0
0.0542 0.2223 0.0969 0.252 0.670 0.698 154 130 113 0 0
0.0656 0.2632 0.0319 0.171 0.850 0.498 144 124 114 0 0
0.0691 0.2758 0.0125 0.158 0.925 0.344 61 24 6 0 0
0.0683 0.2766 -0.0237 0.226 0.944 0.240 48 26 16 0 0
0.0684 0.2773 -0.0265 0.318 0.946 -0.062 44 23 15 0 0
0.0672 0.2742 -0.0322 0.169 0.975 -0.143 29 14 7 0 0
0.0635 0.2636 -0.0410 0.641 0.768 -0.004 17 9 3 0 0
0.0658 0.2708 -0.0435 0.492 0.870 0.035 13 6 6 0 0
0.0591 0.2521 -0.0643 0.485 0.780 -0.395 7 4 3 0 0
