ply
format ascii 1.0
element vertex 843
property float x
property float y
property float z
property float nx
property float ny
property float nz
property uchar diffuse_red
property uchar diffuse_green
property uchar diffuse_blue
property uchar class
property uchar detection
end_header
-0.0190 0.0023 -0.9804 -0.030 -0.952 0.306 100 83 75 0 0
-0.0193 -0.0325 -1.0159 -0.548 -0.834 0.069 55 26 12 0 0
-0.0195 -0.0474 -1.0234 0.025 -1.000 -0.002 58 29 10 0 0
-0.0185 -0.0481 -1.0992 0.327 -0.810 0.486 42 23 14 0 0
-0.0185 -0.0502 -1.1075 -0.322 -0.937 0.135 56 28 13 0 0
-0.0185 -0.0514 -1.1099 -0.423 -0.817 0.391 61 32 14 0 0
-0.0183 -0.0519 -1.1224 0.103 -0.953 0.285 85 58 39 0 0
-0.0183 -0.0534 -1.1247 0.160 -0.955 0.250 87 62 42 0 0
-0.0183 -0.0541 -1.1274 -0.097 -0.974 0.207 86 61 41 0 0
-0.0183 -0.0547 -1.1302 -0.097 -0.974 0.207 84 59 39 0 0
-0.0184 -0.0637 -1.1342 -0.043 -0.991 -0.127 81 59 41 0 0
-0.0331 0.1321 0.0845 -0.290 -0.818 0.497 93 67 47 0 0
-0.0330 0.1304 0.0757 -0.346 -0.932 0.109 89 64 49 0 0
-0.0335 0.0891 0.0454 0.076 -0.656 0.751 92 69 61 0 0
-0.0335 0.0861 0.0424 0.217 -0.856 0.470 98 73 63 0 0
-0.0335 0.0782 0.0308 0.053 -0.956 0.289 110 87 74 0 0
-0.0327 0.0820 -0.0292 -0.559 -0.817 0.143 49 34 27 0 0
-0.0317 0.1058 -0.0674 -0.573 -0.641 0.510 20 15 14 0 0
-0.0318 0.0876 -0.0873 -0.439 -0.885 0.157 51 31 22 0 0
-0.0320 0.0784 -0.0898 -0.514 -0.850 0.115 42 22 13 0 0
-0.0326 0.0306 -0.1163 0.188 -0.876 0.445 102 77 67 0 0
-0.0309 0.0500 -0.2128 -0.157 -0.731 0.664 57 40 32 0 0
-0.0304 0.0663 -0.2322 -0.586 -0.803 0.108 56 39 31 0 0
-0.0304 0.0631 -0.2347 -0.603 -0.756 0.255 57 40 32 0 0
-0.0285 0.1034 -0.3180 -0.748 -0.467 0.471 71 44 27 0 0
-0.0283 0.1073 -0.3247 0.075 -0.895 0.440 64 35 17 0 0
-0.0283 0.0985 -0.3385 -0.555 -0.662 0.505 61 41 30 0 0
-0.0283 0.0976 -0.3414 -0.669 -0.715 0.204 30 13 7 0 0
-0.0282 0.0645 -0.3990 -0.021 -0.856 0.517 56 28 16 0 0
-0.0286 0.0350 -0.4139 -0.047 -0.920 -0.388 92 61 39 0 0
-0.0285 0.0307 -0.4339 0.096 -0.995 -0.016 73 42 23 0 0
-0.0249 0.1382 -0.5436 0.152 -0.908 0.391 70 47 34 0 0
-0.0248 0.1392 -0.5503 -0.331 -0.646 0.688 70 48 35 0 0
-0.0248 0.1359 -0.5526 -0.203 -0.775 0.598 70 49 35 0 0
-0.0249 0.1279 -0.5536 -0.005 -0.934 0.357 69 46 33 0 0
-0.0249 0.1256 -0.5594 0.073 -0.985 0.159 73 49 34 0 0
-0.0248 0.1287 -0.5634 0.213 -0.921 -0.326 74 50 35 0 0
-0.0243 0.1307 -0.5960 -0.347 -0.884 -0.313 70 48 30 0 0
-0.0245 0.1239 -0.5972 -0.606 -0.764 -0.221 72 49 31 0 0
-0.0240 0.1187 -0.6406 -0.734 -0.679 -0.025 86 56 31 0 0
-0.0236 0.1146 -0.6779 -0.395 -0.753 -0.526 74 42 21 0 0
-0.0234 0.0970 -0.7233 -0.156 -0.959 -0.238 67 39 18 0 0
-0.0232 0.0874 -0.7519 -0.183 -0.983 -0.030 62 31 13 0 0
-0.0234 0.0195 -0.8421 0.464 -0.821 -0.333 81 44 20 0 0
-0.0231 0.0201 -0.8678 -0.150 -0.981 -0.125 86 54 33 0 0
-0.0230 0.0201 -0.8709 -0.020 -0.996 0.089 85 55 34 0 0
-0.0230 0.0204 -0.8743 0.041 -0.984 0.173 82 54 35 0 0
-0.0230 0.0196 -0.8771 0.152 -0.865 0.478 75 48 32 0 0
-0.0222 0.0316 -0.9179 -0.215 -0.800 0.561 70 45 28 0 0
-0.0223 -0.0324 -1.0128 -0.506 -0.745 -0.435 54 25 11 0 0
-0.0226 -0.0520 -1.0178 0.218 -0.975 0.051 56 27 11 0 0
-0.0224 -0.0474 -1.0235 0.259 -0.962 0.086 57 28 10 0 0
-0.0215 -0.0422 -1.0899 -0.016 -0.994 0.106 31 18 14 0 0
-0.0215 -0.0463 -1.0939 -0.373 -0.914 -0.158 32 17 10 0 0
-0.0215 -0.0496 -1.0982 -0.376 -0.925 0.058 44 24 16 0 0
-0.0214 -0.0488 -1.1051 -0.454 -0.859 0.238 56 30 17 0 0
-0.0213 -0.0523 -1.1222 -0.073 -0.976 0.204 83 56 37 0 0
-0.0209 -0.0520 -1.1543 0.055 -0.928 -0.369 67 53 40 0 0
-0.0360 0.1315 0.0816 -0.314 -0.871 0.379 93 65 51 0 0
-0.0360 0.1327 0.0787 -0.050 -0.967 0.250 85 61 47 0 0
-0.0360 0.1319 0.0758 -0.082 -0.991 0.103 85 59 44 0 0
-0.0364 0.0774 0.0308 0.069 -0.912 0.405 106 82 70 0 0
-0.0347 0.0917 -0.0816 -0.344 -0.860 0.378 59 43 35 0 0
-0.0347 0.0904 -0.0845 -0.344 -0.860 0.378 56 38 28 0 0
-0.0347 0.0891 -0.0874 -0.293 -0.895 0.336 50 31 21 0 0
-0.0354 0.0133 -0.1464 -0.238 -0.963 0.129 64 39 26 0 0
-0.0354 0.0125 -0.1492 -0.022 -0.976 0.216 63 43 31 0 0
-0.0353 0.0123 -0.1520 -0.060 -0.998 0.012 64 46 36 0 0
-0.0353 0.0142 -0.1550 0.081 -0.942 -0.325 65 48 39 0 0
-0.0335 0.0641 -0.2202 -0.709 -0.695 -0.120 58 41 33 0 0
-0.0334 0.0628 -0.2259 -0.556 -0.815 -0.163 57 40 32 0 0
-0.0334 0.0648 -0.2291 -0.571 -0.808 0.148 56 39 31 0 0
-0.0333 0.0639 -0.2319 -0.509 -0.814 0.280 57 40 32 0 0
-0.0323 0.0803 -0.2874 -0.492 -0.799 -0.344 55 36 29 0 0
-0.0323 0.0812 -0.2905 -0.697 -0.710 -0.099 51 32 25 0 0
-0.0311 0.0970 -0.3596 -0.509 -0.830 0.229 32 17 12 0 0
-0.0312 0.0832 -0.3753 -0.176 -0.946 -0.272 63 39 27 0 0
-0.0310 0.0765 -0.3984 -0.688 -0.708 0.158 55 29 16 0 0
-0.0312 0.0653 -0.3991 -0.164 -0.780 0.604 54 28 15 0 0
-0.0290 0.1256 -0.4834 -0.774 -0.631 -0.048 67 47 36 0 0
-0.0290 0.1246 -0.4863 -0.741 -0.670 -0.049 66 46 35 0 0
-0.0285 0.1384 -0.5055 -0.766 -0.643 -0.012 70 50 36 0 0
-0.0278 0.1444 -0.5485 0.304 -0.952 0.040 74 53 41 0 0
-0.0278 0.1432 -0.5514 -0.156 -0.964 0.213 74 54 43 0 0
-0.0278 0.1418 -0.5542 -0.399 -0.913 0.081 75 56 45 0 0
-0.0278 0.1379 -0.5564 -0.435 -0.897 0.072 76 56 44 0 0
-0.0280 0.1266 -0.5565 0.262 -0.964 0.046 78 55 43 0 0
-0.0280 0.1243 -0.5591 0.062 -0.975 -0.215 77 55 42 0 0
-0.0277 0.1297 -0.5765 0.101 -0.856 -0.508 77 55 41 0 0
-0.0274 0.1277 -0.6080 -0.648 -0.714 0.264 77 53 38 0 0
-0.0269 0.1256 -0.6493 0.033 -0.997 -0.066 85 57 35 0 0
-0.0262 0.0473 -0.8160 -0.886 -0.229 0.402 68 33 14 0 0
-0.0261 0.0206 -0.8680 -0.150 -0.981 -0.125 85 54 33 0 0
-0.0260 0.0209 -0.8713 -0.209 -0.977 -0.029 82 54 33 0 0
-0.0260 0.0210 -0.8746 -0.209 -0.977 -0.029 81 53 35 0 0
-0.0252 0.0353 -0.9133 0.007 -0.992 -0.124 52 29 15 0 0
-0.0252 0.0358 -0.9167 0.007 -0.992 -0.124 65 42 26 0 0
-0.0253 0.0274 -0.9191 0.240 -0.954 0.177 73 46 29 0 0
-0.0251 0.0066 -0.9697 -0.271 -0.918 0.290 93 76 68 0 0
-0.0250 0.0057 -0.9725 -0.271 -0.918 0.290 92 75 67 0 0
-0.0254 -0.0285 -0.9927 0.337 -0.941 0.023 88 70 65 0 0
-0.0247 -0.0454 -1.0753 -0.196 -0.966 0.169 77 56 40 0 0
-0.0245 -0.0487 -1.0924 -0.218 -0.859 0.463 36 19 13 0 0
-0.0245 -0.0498 -1.0950 -0.063 -0.906 0.419 42 22 18 0 0
-0.0245 -0.0516 -1.0971 -0.360 -0.898 0.254 46 25 16 0 0
-0.0245 -0.0506 -1.1009 -0.262 -0.932 -0.250 52 27 15 0 0
-0.0244 -0.0496 -1.1046 -0.240 -0.951 -0.198 57 30 17 0 0
-0.0242 -0.0521 -1.1223 -0.073 -0.976 0.204 82 55 37 0 0
-0.0242 -0.0526 -1.1252 -0.069 -0.985 0.160 80 55 35 0 0
-0.0376 0.0948 -0.0818 -0.503 -0.854 0.135 58 43 34 0 0
-0.0363 0.0672 -0.2264 0.302 -0.914 -0.271 57 40 32 0 0
-0.0362 0.0697 -0.2296 0.199 -0.960 0.199 57 40 32 0 0
-0.0343 0.1129 -0.3195 -0.313 -0.685 0.658 65 38 22 0 0
-0.0343 0.1119 -0.3224 -0.104 -0.700 0.707 70 41 23 0 0
-0.0338 0.0849 -0.3970 0.086 -0.729 0.679 55 29 17 0 0
-0.0339 0.0809 -0.3993 -0.450 -0.890 0.075 55 29 16 0 0
-0.0340 0.0714 -0.4004 -0.423 -0.884 0.196 53 27 15 0 0
-0.0304 0.1264 -0.6109 0.130 -0.913 0.386 79 57 41 0 0
-0.0297 0.1347 -0.6554 -0.358 -0.928 0.100 88 61 39 0 0
-0.0297 0.1344 -0.6586 -0.358 -0.928 0.100 88 60 38 0 0
-0.0296 0.1364 -0.6625 -0.379 -0.888 0.261 86 58 35 0 0
-0.0296 0.1351 -0.6653 -0.193 -0.957 -0.217 85 55 33 0 0
-0.0297 0.1267 -0.6723 -0.603 -0.707 0.370 79 49 28 0 0
-0.0296 0.1300 -0.6766 -0.376 -0.876 -0.303 77 49 28 0 0
-0.0295 0.1316 -0.6804 -0.172 -0.982 -0.083 77 49 28 0 0
-0.0295 0.1277 -0.6824 -0.500 -0.865 -0.041 78 50 29 0 0
-0.0295 0.0856 -0.7416 -0.190 -0.755 -0.628 67 36 18 0 0
-0.0297 0.0219 -0.8148 0.092 -0.861 0.499 70 35 15 0 0
-0.0297 0.0212 -0.8176 -0.221 -0.934 0.280 71 36 16 0 0
-0.0297 0.0204 -0.8204 -0.419 -0.903 -0.099 73 38 18 0 0
-0.0291 0.0218 -0.8654 -0.146 -0.974 -0.175 88 57 33 0 0
-0.0291 0.0211 -0.8682 -0.150 -0.981 -0.125 84 55 33 0 0
-0.0290 0.0217 -0.8717 -0.338 -0.939 -0.062 81 53 32 0 0
-0.0290 0.0216 -0.8749 -0.209 -0.977 -0.029 80 52 36 0 0
-0.0283 0.0267 -0.9188 0.240 -0.954 0.177 73 47 30 0 0
-0.0281 0.0253 -0.9407 -0.166 -0.948 0.271 65 34 14 0 0
-0.0280 0.0064 -0.9729 -0.271 -0.918 0.290 93 76 68 0 0
-0.0283 -0.0349 -1.0083 -0.119 -0.979 -0.165 53 24 10 0 0
-0.0282 -0.0324 -1.0160 0.227 -0.955 -0.192 52 23 9 0 0
-0.0281 -0.0311 -1.0199 0.078 -0.997 -0.008 52 23 9 0 0
-0.0281 -0.0311 -1.0231 0.078 -0.997 -0.008 51 22 8 0 0
-0.0282 -0.0482 -1.0356 -0.350 -0.928 0.128 77 49 29 0 0
-0.0274 -0.0467 -1.0936 -0.142 -0.954 0.265 37 20 13 0 0
-0.0275 -0.0512 -1.0973 -0.267 -0.964 0.009 46 24 17 0 0
-0.0273 -0.0497 -1.1078 -0.183 -0.969 -0.167 59 30 15 0 0
-0.0273 -0.0496 -1.1110 -0.155 -0.983 0.099 60 30 11 0 0
-0.0273 -0.0506 -1.1136 -0.096 -0.924 0.371 74 41 22 0 0
-0.0272 -0.0520 -1.1223 -0.078 -0.966 0.245 82 55 38 0 0
-0.0271 -0.0524 -1.1253 -0.069 -0.985 0.160 79 54 35 0 0
-0.0418 0.1373 0.0788 -0.839 -0.336 0.428 158 154 149 0 0
-0.0419 0.0653 -0.0093 -0.550 -0.761 -0.345 46 26 13 0 0
-0.0400 0.1474 -0.0567 -0.567 -0.811 0.142 59 55 52 0 0
-0.0405 0.0969 -0.0819 -0.537 -0.813 0.227 63 47 37 0 0
-0.0405 0.0924 -0.0846 -0.407 -0.732 0.546 55 39 27 0 0
-0.0405 0.0899 -0.0875 -0.085 -0.882 0.463 53 36 25 0 0
-0.0393 0.0642 -0.2202 -0.224 -0.774 -0.592 59 41 34 0 0
-0.0392 0.0690 -0.2266 -0.543 -0.828 -0.137 58 41 33 0 0
-0.0374 0.1118 -0.3194 -0.457 -0.534 0.711 70 42 27 0 0
-0.0371 0.1072 -0.3461 -0.644 -0.709 0.288 47 33 26 0 0
-0.0368 0.0868 -0.3974 -0.159 -0.629 0.761 56 29 18 0 0
-0.0368 0.0847 -0.4001 0.059 -0.916 0.397 55 28 17 0 0
-0.0368 0.0807 -0.4023 -0.036 -0.841 0.540 55 28 17 0 0
-0.0372 0.0382 -0.4296 0.079 -0.997 0.018 67 29 10 0 0
-0.0337 0.1496 -0.5661 -0.731 -0.682 0.019 84 68 56 0 0
-0.0326 0.1358 -0.6786 0.592 -0.799 -0.106 78 50 30 0 0
-0.0326 0.1328 -0.6808 0.618 -0.784 0.060 79 51 31 0 0
-0.0326 0.1318 -0.6837 0.184 -0.980 -0.070 80 52 32 0 0
-0.0325 0.1273 -0.6952 -0.450 -0.719 -0.529 75 49 29 0 0
-0.0323 0.0395 -0.8255 -0.247 -0.951 0.184 76 40 20 0 0
-0.0323 0.0389 -0.8284 -0.247 -0.951 0.184 76 41 21 0 0
-0.0322 0.0394 -0.8382 -0.557 -0.776 0.296 69 32 14 0 0
-0.0325 0.0132 -0.8457 -0.032 -0.967 -0.254 81 44 16 0 0
-0.0325 0.0096 -0.8473 0.015 -0.988 -0.156 85 49 20 0 0
-0.0325 0.0090 -0.8501 0.150 -0.982 0.119 88 53 25 0 0
-0.0321 0.0236 -0.8630 -0.404 -0.905 -0.132 91 59 34 0 0
-0.0320 0.0234 -0.8693 -0.272 -0.941 -0.200 84 54 33 0 0
-0.0320 0.0234 -0.8725 -0.532 -0.846 -0.033 81 53 33 0 0
-0.0319 0.0241 -0.8792 -0.669 -0.737 0.096 74 46 34 0 0
-0.0315 0.0313 -0.9017 -0.296 -0.947 -0.126 59 36 22 0 0
-0.0314 0.0244 -0.9177 0.323 -0.928 -0.185 76 51 30 0 0
-0.0311 0.0305 -0.9400 -0.216 -0.927 -0.307 67 36 15 0 0
-0.0311 -0.0185 -1.0013 0.213 -0.746 -0.632 72 51 46 0 0
-0.0310 -0.0237 -1.0144 0.601 -0.768 -0.222 53 24 10 0 0
-0.0311 -0.0317 -1.0196 0.448 -0.891 -0.070 52 23 9 0 0
-0.0310 -0.0312 -1.0230 0.463 -0.886 0.011 51 22 8 0 0
-0.0311 -0.0405 -1.0273 -0.260 -0.963 0.076 57 28 12 0 0
-0.0310 -0.0469 -1.0491 -0.271 -0.941 0.201 81 60 41 0 0
-0.0305 -0.0513 -1.0941 -0.152 -0.983 0.104 40 21 14 0 0
-0.0304 -0.0501 -1.0980 -0.188 -0.975 -0.118 43 23 16 0 0
-0.0304 -0.0549 -1.1015 0.163 -0.960 -0.226 57 29 15 0 0
-0.0304 -0.0543 -1.1050 -0.078 -0.967 -0.241 60 31 12 0 0
-0.0301 -0.0551 -1.1268 0.003 -0.997 0.080 80 57 39 0 0
-0.0300 -0.0533 -1.1343 -0.046 -0.983 -0.176 78 55 37 0 0
-0.0298 -0.0495 -1.1431 -0.470 -0.862 -0.191 79 58 39 0 0
-0.0298 -0.0501 -1.1459 -0.583 -0.737 0.341 79 57 41 0 0
-0.0447 0.1308 0.0640 -0.793 -0.562 0.236 176 173 173 0 0
-0.0447 0.1295 0.0610 -0.793 -0.562 0.236 169 166 166 0 0
-0.0446 0.0948 0.0138 -0.523 -0.773 0.360 75 48 32 0 0
-0.0448 0.0639 -0.0065 -0.527 -0.791 0.312 49 27 14 0 0
-0.0448 0.0668 -0.0093 -0.411 -0.867 -0.281 47 27 14 0 0
-0.0441 0.0958 -0.0295 -0.783 -0.596 0.177 52 37 31 0 0
-0.0438 0.0074 -0.1574 -0.334 -0.878 -0.342 64 47 39 0 0
-0.0435 0.0247 -0.1616 -0.101 -0.761 -0.641 63 46 38 0 0
-0.0421 0.0682 -0.2266 -0.557 -0.753 -0.351 59 42 35 0 0
-0.0404 0.1128 -0.3196 -0.133 -0.525 0.841 73 45 30 0 0
-0.0403 0.1132 -0.3227 -0.597 -0.624 0.504 71 43 26 0 0
-0.0401 0.1088 -0.3464 -0.762 -0.543 0.352 51 38 29 0 0
-0.0400 0.1109 -0.3499 -0.377 -0.686 0.622 49 34 26 0 0
-0.0396 0.1096 -0.3865 0.099 -0.690 0.717 55 30 19 0 0
-0.0398 0.0885 -0.3978 -0.171 -0.545 0.821 54 30 18 0 0
-0.0401 0.0383 -0.4297 -0.335 -0.902 -0.271 71 34 14 0 0
-0.0356 0.1289 -0.6958 -0.428 -0.755 -0.497 74 50 32 0 0
-0.0355 0.1217 -0.7128 -0.385 -0.840 0.384 77 51 31 0 0
-0.0353 0.1179 -0.7310 -0.216 -0.910 0.353 73 46 29 0 0
-0.0356 0.0750 -0.7569 -0.275 -0.764 0.583 71 43 26 0 0
-0.0350 0.0705 -0.8162 -0.451 0.018 0.892 68 36 16 0 0
-0.0353 0.0408 -0.8261 -0.078 -0.986 0.150 82 47 28 0 0
-0.0353 0.0397 -0.8288 -0.247 -0.951 0.184 84 49 30 0 0
-0.0352 0.0409 -0.8389 0.497 -0.835 -0.235 77 42 22 0 0
-0.0355 0.0133 -0.8458 -0.032 -0.967 -0.254 84 47 20 0 0
-0.0350 0.0264 -0.8707 -0.445 -0.838 -0.316 83 54 33 0 0
-0.0349 0.0264 -0.8803 -0.651 -0.736 0.184 72 45 32 0 0
-0.0343 0.0296 -0.9267 -0.217 -0.938 -0.269 77 55 33 0 0
-0.0341 0.0309 -0.9402 -0.378 -0.923 -0.073 62 31 12 0 0
-0.0341 -0.0331 -1.0188 0.433 -0.875 -0.214 52 23 9 0 0
-0.0340 -0.0327 -1.0222 0.463 -0.886 0.011 53 24 10 0 0
-0.0341 -0.0413 -1.0237 -0.144 -0.953 0.267 55 26 10 0 0
-0.0340 -0.0404 -1.0337 -0.408 -0.813 0.416 65 37 15 0 0
-0.0340 -0.0417 -1.0362 -0.390 -0.844 0.369 73 46 25 0 0
-0.0339 -0.0460 -1.0495 0.008 -0.995 0.102 82 61 42 0 0
-0.0336 -0.0417 -1.0679 -0.262 -0.965 -0.033 81 59 45 0 0
-0.0333 -0.0364 -1.0870 -0.018 -0.994 -0.104 47 29 18 0 0
-0.0331 -0.0331 -1.0985 -0.166 -0.968 -0.187 33 18 13 0 0
-0.0331 -0.0339 -1.1013 -0.478 -0.818 0.319 36 20 13 0 0
-0.0334 -0.0514 -1.0940 -0.085 -0.987 0.140 41 23 16 0 0
-0.0332 -0.0495 -1.1079 -0.524 -0.851 0.045 64 34 14 0 0
-0.0332 -0.0491 -1.1113 -0.230 -0.926 0.299 73 41 20 0 0
-0.0479 0.0834 0.0279 -0.110 -0.963 0.247 89 65 53 0 0
-0.0477 0.0670 -0.0065 -0.213 -0.852 0.479 49 27 14 0 0
-0.0475 0.0755 -0.0150 0.094 -0.857 -0.506 46 29 18 0 0
-0.0464 0.0696 -0.1070 -0.222 -0.969 0.113 78 60 53 0 0
-0.0464 0.0250 -0.1616 -0.296 -0.764 -0.574 64 47 39 0 0
-0.0459 0.0470 -0.1807 -0.803 -0.561 -0.199 59 42 35 0 0
-0.0450 0.0707 -0.2298 -0.683 -0.689 -0.241 58 40 35 0 0
-0.0445 0.0777 -0.2603 -0.768 -0.532 -0.358 57 40 32 0 0
-0.0431 0.1087 -0.3465 -0.571 -0.652 -0.499 54 41 30 0 0
-0.0430 0.1146 -0.3536 -0.742 -0.660 0.117 50 33 23 0 0
-0.0428 0.0838 -0.3999 -0.272 -0.735 0.622 54 31 18 0 0
-0.0428 0.0798 -0.4022 -0.316 -0.875 0.366 60 37 25 0 0
-0.0403 0.1559 -0.5324 0.864 -0.499 0.070 126 120 118 0 0
-0.0403 0.1555 -0.5355 0.861 -0.505 0.067 127 120 118 0 0
-0.0403 0.1551 -0.5386 0.864 -0.499 0.070 127 120 117 0 0
-0.0402 0.1547 -0.5417 0.936 -0.346 0.068 124 118 114 0 0
-0.0402 0.1544 -0.5449 0.933 -0.357 0.047 125 118 113 0 0
-0.0401 0.1544 -0.5481 0.943 -0.331 0.034 124 117 113 0 0
-0.0387 0.1186 -0.7117 -0.635 -0.692 0.344 79 54 34 0 0
-0.0386 0.1218 -0.7161 -0.042 -0.968 -0.249 76 51 31 0 0
-0.0385 0.1200 -0.7220 -0.277 -0.922 -0.270 76 49 32 0 0
-0.0385 0.1201 -0.7253 0.118 -0.914 -0.387 74 47 30 0 0
-0.0384 0.1169 -0.7339 0.262 -0.934 0.243 73 45 30 0 0
-0.0384 0.1158 -0.7367 -0.388 -0.900 0.199 73 45 30 0 0
-0.0385 0.0138 -0.8460 0.184 -0.974 -0.130 85 48 21 0 0
-0.0380 0.0259 -0.8737 -0.205 -0.966 -0.159 81 53 36 0 0
-0.0379 0.0263 -0.8770 -0.135 -0.979 -0.151 76 48 34 0 0
-0.0374 0.0287 -0.9198 -0.245 -0.946 -0.213 77 51 35 0 0
-0.0371 -0.0399 -1.0213 -0.147 -0.913 0.381 54 25 10 0 0
-0.0371 -0.0410 -1.0239 -0.147 -0.913 0.381 55 26 10 0 0
-0.0368 -0.0454 -1.0499 0.399 -0.900 -0.176 81 60 41 0 0
-0.0366 -0.0416 -1.0680 0.078 -0.886 0.457 82 60 46 0 0
-0.0363 -0.0369 -1.0867 0.021 -0.993 -0.113 45 27 16 0 0
-0.0362 -0.0369 -1.0899 0.262 -0.944 0.202 38 21 15 0 0
-0.0361 -0.0328 -1.0988 -0.060 -0.998 0.020 34 19 14 0 0
-0.0361 -0.0334 -1.1016 -0.108 -0.980 0.164 37 21 14 0 0
-0.0364 -0.0549 -1.0919 -0.272 -0.912 -0.306 41 23 16 0 0
-0.0363 -0.0521 -1.1000 -0.139 -0.880 -0.455 50 25 13 0 0
-0.0362 -0.0486 -1.1084 -0.263 -0.958 0.118 64 33 12 0 0
-0.0361 -0.0492 -1.1176 -0.259 -0.888 0.381 83 60 39 0 0
-0.0506 0.0692 -0.0037 -0.223 -0.925 0.306 53 31 18 0 0
-0.0504 0.0770 -0.0122 -0.089 -0.738 0.669 47 27 16 0 0
-0.0503 0.0775 -0.0151 -0.308 -0.837 0.453 47 29 18 0 0
-0.0503 0.0753 -0.0179 -0.180 -0.781 0.599 47 30 20 0 0
-0.0496 0.1146 -0.0414 0.748 -0.555 -0.363 25 16 14 0 0
-0.0489 0.1452 -0.0687 -0.692 -0.577 0.433 79 71 69 0 0
-0.0493 0.0754 -0.1044 -0.215 -0.831 0.513 75 58 51 0 0
-0.0493 0.0716 -0.1071 0.140 -0.792 0.594 79 63 56 0 0
-0.0463 0.1168 -0.3202 -0.403 -0.725 0.559 72 45 29 0 0
-0.0462 0.1128 -0.3380 -0.871 -0.345 -0.350 69 49 39 0 0
-0.0461 0.1119 -0.3470 -0.322 -0.777 -0.542 60 46 36 0 0
-0.0460 0.1176 -0.3511 -0.352 -0.909 -0.224 57 42 33 0 0
-0.0457 0.0906 -0.4013 -0.858 -0.429 0.283 53 29 17 0 0
-0.0435 0.1498 -0.5372 0.864 -0.499 0.070 184 184 185 0 0
-0.0416 0.1234 -0.7265 -0.621 -0.780 -0.076 76 50 31 0 0
-0.0416 0.1179 -0.7278 -0.187 -0.982 -0.006 75 49 30 0 0
-0.0415 0.1190 -0.7347 0.780 -0.620 -0.078 72 44 29 0 0
-0.0415 0.1190 -0.7379 0.588 -0.510 0.628 72 44 31 0 0
-0.0416 0.0887 -0.7557 -0.772 -0.448 -0.450 73 45 31 0 0
-0.0415 0.0285 -0.8271 -0.344 -0.929 -0.136 82 48 31 0 0
-0.0413 0.0349 -0.8363 0.469 -0.862 -0.194 83 49 28 0 0
-0.0412 0.0197 -0.8581 -0.504 -0.695 0.512 90 59 37 0 0
-0.0409 0.0264 -0.8771 -0.055 -0.978 0.201 75 50 34 0 0
-0.0401 -0.0292 -1.0082 0.269 -0.946 -0.183 53 24 11 0 0
-0.0400 -0.0285 -1.0118 0.269 -0.946 -0.183 53 24 11 0 0
-0.0400 -0.0284 -1.0150 -0.327 -0.875 0.356 54 25 11 0 0
-0.0402 -0.0473 -1.0141 -0.638 -0.697 -0.328 55 26 10 0 0
-0.0400 -0.0430 -1.0259 -0.242 -0.965 -0.105 62 31 13 0 0
-0.0398 -0.0456 -1.0467 -0.099 -0.962 0.255 81 60 41 0 0
-0.0393 -0.0367 -1.0836 -0.458 -0.888 0.032 51 34 22 0 0
-0.0393 -0.0399 -1.0881 -0.267 -0.863 0.430 38 21 14 0 0
-0.0391 -0.0326 -1.0989 -0.177 -0.983 0.040 36 19 13 0 0
-0.0529 0.0889 -0.0353 -0.251 -0.614 -0.749 35 25 21 0 0
-0.0522 0.0727 -0.1072 -0.042 -0.587 0.809 81 66 59 0 0
-0.0516 0.0531 -0.1813 -0.544 -0.704 0.457 57 42 35 0 0
-0.0517 0.0417 -0.1832 -0.611 -0.769 0.190 59 44 37 0 0
-0.0514 0.0546 -0.1960 -0.608 -0.751 -0.258 60 45 40 0 0
-0.0509 0.0787 -0.2190 -0.868 -0.333 0.368 61 46 39 0 0
-0.0505 0.0868 -0.2496 -0.766 -0.640 -0.067 56 39 31 0 0
-0.0493 0.1207 -0.3209 -0.549 -0.805 0.226 70 43 27 0 0
-0.0492 0.1080 -0.3403 -0.467 -0.540 -0.701 29 13 8 0 0
-0.0491 0.1129 -0.3442 -0.486 -0.538 -0.688 65 51 43 0 0
-0.0491 0.1138 -0.3474 -0.558 -0.602 -0.571 58 44 35 0 0
-0.0490 0.1164 -0.3509 -0.661 -0.691 -0.293 58 44 35 0 0
-0.0486 0.1303 -0.3781 -0.448 -0.547 0.707 72 55 47 0 0
-0.0486 0.1271 -0.3806 -0.448 -0.547 0.707 69 52 42 0 0
-0.0486 0.1193 -0.3854 -0.464 -0.882 0.081 63 43 31 0 0
-0.0448 0.1180 -0.7246 -0.563 -0.791 -0.241 78 53 35 0 0
-0.0449 0.1095 -0.7247 -0.418 -0.900 -0.127 78 52 35 0 0
-0.0448 0.1103 -0.7282 0.015 -0.972 -0.234 78 52 36 0 0
-0.0447 0.1136 -0.7327 0.508 -0.791 -0.341 76 49 35 0 0
-0.0447 0.1006 -0.7441 -0.832 -0.185 0.523 71 43 29 0 0
-0.0445 0.0301 -0.8279 0.022 -0.984 -0.178 80 48 30 0 0
-0.0441 0.0236 -0.8694 0.024 -0.997 -0.075 85 57 36 0 0
-0.0437 0.0363 -0.8881 -0.667 -0.702 -0.249 72 49 35 0 0
-0.0430 -0.0294 -1.0113 0.269 -0.946 -0.183 53 24 11 0 0
-0.0429 -0.0271 -1.0190 0.621 -0.697 -0.358 56 27 11 0 0
-0.0428 -0.0462 -1.0463 -0.402 -0.901 0.165 81 60 42 0 0
-0.0418 -0.0479 -1.1313 -0.259 -0.949 0.182 78 55 37 0 0
-0.0558 0.0897 -0.0354 -0.155 -0.626 -0.764 45 36 33 0 0
-0.0547 0.0460 -0.1692 0.436 -0.889 0.142 61 45 38 0 0
-0.0535 0.0869 -0.2467 -0.499 -0.843 -0.201 57 40 33 0 0
-0.0533 0.0923 -0.2563 -0.609 -0.787 0.092 58 41 32 0 0
-0.0531 0.1031 -0.2637 0.529 -0.847 -0.060 61 44 36 0 0
-0.0531 0.1039 -0.2698 0.187 -0.882 -0.433 61 44 37 0 0
-0.0531 0.1023 -0.2726 -0.139 -0.831 -0.538 60 43 36 0 0
-0.0516 0.1333 -0.3818 -0.800 -0.500 0.332 67 50 40 0 0
-0.0517 0.0935 -0.3989 -0.139 -0.563 0.815 50 29 20 0 0
-0.0517 0.0948 -0.4022 -0.202 -0.840 0.504 65 43 34 0 0
-0.0479 0.1112 -0.7286 -0.111 -0.991 0.074 77 54 37 0 0
-0.0479 0.1117 -0.7320 0.070 -0.989 -0.126 77 53 37 0 0
-0.0478 0.1141 -0.7362 -0.182 -0.958 0.220 74 49 36 0 0
-0.0478 0.1151 -0.7398 0.580 -0.813 -0.053 74 46 32 0 0
-0.0472 0.0219 -0.8623 -0.091 -0.995 -0.029 88 57 37 0 0
-0.0458 -0.0089 -1.0065 -0.335 -0.830 -0.446 70 46 39 0 0
-0.0458 -0.0269 -1.0191 -0.673 -0.720 0.169 57 28 12 0 0
-0.0457 -0.0450 -1.0470 -0.335 -0.899 0.281 81 60 42 0 0
-0.0457 -0.0457 -1.0497 -0.302 -0.928 0.220 81 60 43 0 0
-0.0456 -0.0471 -1.0553 -0.262 -0.929 0.260 82 61 44 0 0
-0.0455 -0.0465 -1.0651 0.043 -0.968 -0.246 79 58 41 0 0
-0.0449 -0.0489 -1.1243 -0.331 -0.903 0.275 78 56 36 0 0
-0.0448 -0.0476 -1.1315 -0.115 -0.965 0.238 78 55 37 0 0
-0.0592 0.0768 0.0048 0.318 -0.729 0.606 71 47 32 0 0
-0.0588 0.0864 -0.0267 0.224 -0.797 -0.561 61 46 43 0 0
-0.0586 0.0911 -0.0441 0.891 -0.454 -0.018 179 181 183 0 0
-0.0580 0.0751 -0.1074 -0.225 -0.640 0.735 78 65 60 0 0
-0.0580 0.0711 -0.1101 -0.264 -0.518 0.814 80 66 59 0 0
-0.0576 0.0461 -0.1692 -0.313 -0.934 0.170 60 45 40 0 0
-0.0575 0.0433 -0.1719 -0.406 -0.723 0.559 59 44 39 0 0
-0.0565 0.0838 -0.2404 -0.701 -0.713 -0.015 57 42 35 0 0
-0.0565 0.0879 -0.2438 -0.614 -0.783 -0.101 57 42 35 0 0
-0.0564 0.0887 -0.2469 -0.495 -0.822 -0.281 58 41 35 0 0
-0.0563 0.0938 -0.2505 -0.604 -0.766 -0.218 58 41 33 0 0
-0.0563 0.0944 -0.2536 -0.693 -0.720 0.023 58 41 32 0 0
-0.0563 0.0943 -0.2566 -0.693 -0.720 0.023 60 43 35 0 0
-0.0562 0.1018 -0.2605 0.279 -0.960 -0.011 62 45 37 0 0
-0.0562 0.1012 -0.2635 0.277 -0.949 -0.148 62 45 37 0 0
-0.0561 0.1008 -0.2694 -0.203 -0.875 -0.440 62 45 38 0 0
-0.0560 0.1025 -0.2727 -0.381 -0.797 -0.468 61 45 38 0 0
-0.0560 0.1020 -0.2756 -0.561 -0.760 -0.328 62 45 38 0 0
-0.0560 0.1034 -0.2788 -0.561 -0.760 -0.328 62 45 39 0 0
-0.0558 0.1106 -0.2889 -0.002 -0.986 -0.166 59 42 37 0 0
-0.0554 0.1228 -0.3182 0.150 -0.909 0.390 65 42 27 0 0
-0.0554 0.1239 -0.3214 -0.393 -0.840 0.374 67 40 25 0 0
-0.0546 0.1390 -0.3797 -0.677 -0.598 0.429 68 50 40 0 0
-0.0547 0.0956 -0.4024 -0.077 -0.977 0.199 67 47 40 0 0
-0.0508 0.1075 -0.7467 -0.925 -0.375 0.061 73 45 31 0 0
-0.0508 0.1061 -0.7495 -0.650 -0.686 -0.327 73 45 32 0 0
-0.0508 0.1089 -0.7538 -0.174 -0.785 -0.595 75 47 33 0 0
-0.0507 0.1121 -0.7582 -0.279 -0.795 -0.539 74 46 33 0 0
-0.0506 0.1088 -0.7700 0.638 -0.711 0.296 76 50 35 0 0
-0.0502 0.0280 -0.8524 -0.294 -0.882 0.369 87 51 27 0 0
-0.0502 0.0236 -0.8599 -0.229 -0.820 0.525 86 58 37 0 0
-0.0498 0.0394 -0.8895 -0.113 -0.911 -0.397 73 50 36 0 0
-0.0493 0.0359 -0.9330 -0.441 -0.743 0.503 72 45 26 0 0
-0.0488 -0.0370 -1.0230 -0.282 -0.937 0.204 57 28 10 0 0
-0.0486 -0.0347 -1.0433 -0.119 -0.993 -0.007 86 61 41 0 0
-0.0478 -0.0444 -1.1270 -0.284 -0.956 -0.079 79 57 37 0 0
-0.0623 0.0746 0.0218 0.952 -0.293 -0.093 181 180 181 0 0
-0.0609 0.1200 -0.0918 -0.586 -0.659 0.471 59 41 31 0 0
-0.0609 0.0856 -0.1079 -0.696 -0.708 0.121 83 67 60 0 0
-0.0607 0.0379 -0.1513 -0.375 -0.895 -0.242 58 42 35 0 0
-0.0595 0.0827 -0.2343 -0.294 -0.814 0.502 58 43 36 0 0
-0.0595 0.0841 -0.2375 0.264 -0.856 0.445 58 43 36 0 0
-0.0595 0.0844 -0.2405 0.372 -0.913 0.170 58 43 36 0 0
-0.0595 0.0829 -0.2433 0.353 -0.898 -0.264 58 42 36 0 0
-0.0594 0.0903 -0.2471 0.008 -0.953 -0.303 59 42 37 0 0
-0.0593 0.0911 -0.2502 -0.391 -0.845 -0.365 59 43 37 0 0
-0.0593 0.0933 -0.2565 -0.740 -0.627 -0.245 62 47 40 0 0
-0.0592 0.0945 -0.2596 -0.740 -0.627 -0.245 62 47 40 0 0
-0.0591 0.0978 -0.2661 -0.667 -0.646 -0.371 61 46 39 0 0
-0.0577 0.0962 -0.4025 -0.600 -0.688 0.408 68 50 41 0 0
-0.0577 0.0741 -0.4133 -0.557 -0.713 0.425 85 61 47 0 0
-0.0575 0.0626 -0.4412 -0.332 -0.782 -0.527 74 52 35 0 0
-0.0539 0.1088 -0.7505 -0.856 -0.505 0.108 72 46 33 0 0
-0.0539 0.1084 -0.7536 -0.330 -0.892 -0.308 75 47 35 0 0
-0.0538 0.1134 -0.7587 -0.263 -0.828 -0.495 75 47 35 0 0
-0.0536 0.1144 -0.7722 -0.886 -0.449 0.117 75 49 36 0 0
-0.0533 0.0189 -0.8547 -0.628 -0.636 -0.448 87 59 39 0 0
-0.0524 0.0475 -0.9257 -0.526 -0.790 0.315 78 55 41 0 0
-0.0524 0.0247 -0.9308 0.704 -0.587 -0.399 65 37 16 0 0
-0.0516 -0.0313 -1.0421 -0.006 -0.950 0.312 83 59 39 0 0
-0.0515 -0.0328 -1.0444 -0.035 -0.851 0.524 83 61 40 0 0
-0.0516 -0.0537 -1.0515 0.256 -0.962 0.099 82 61 44 0 0
-0.0507 -0.0438 -1.1274 -0.249 -0.965 -0.079 79 57 37 0 0
-0.0507 -0.0436 -1.1307 -0.251 -0.967 0.042 78 54 37 0 0
-0.0647 0.0731 -0.0267 0.954 -0.298 0.023 181 181 183 0 0
-0.0638 0.0855 -0.1050 0.055 -0.973 -0.223 85 69 62 0 0
-0.0638 0.0869 -0.1080 -0.577 -0.695 -0.428 83 68 61 0 0
-0.0633 0.0554 -0.1729 -0.076 -0.838 -0.540 61 46 39 0 0
-0.0631 0.0579 -0.1848 -0.001 -0.993 -0.119 61 46 41 0 0
-0.0631 0.0572 -0.1876 0.168 -0.969 0.181 61 46 41 0 0
-0.0626 0.0911 -0.2234 -0.811 -0.584 -0.034 61 47 41 0 0
-0.0625 0.0917 -0.2294 -0.840 -0.543 -0.009 60 45 38 0 0
-0.0625 0.0895 -0.2322 -0.782 -0.573 0.246 59 44 38 0 0
-0.0624 0.0877 -0.2379 -0.809 -0.586 0.041 59 45 38 0 0
-0.0624 0.0884 -0.2410 -0.699 -0.706 -0.113 60 45 38 0 0
-0.0624 0.0920 -0.2444 -0.756 -0.627 -0.189 59 45 38 0 0
-0.0607 0.0982 -0.4030 -0.545 -0.838 -0.019 58 39 33 0 0
-0.0561 0.0341 -0.8647 -0.480 -0.697 -0.532 89 62 44 0 0
-0.0554 0.0492 -0.9265 -0.526 -0.790 0.315 77 54 40 0 0
-0.0554 0.0497 -0.9300 -0.647 -0.678 0.348 77 54 40 0 0
-0.0550 0.0362 -0.9688 -0.348 -0.528 0.775 82 62 51 0 0
-0.0550 0.0057 -0.9822 0.015 -0.316 0.949 84 64 53 0 0
-0.0545 -0.0292 -1.0433 -0.575 -0.798 0.182 83 59 40 0 0
-0.0545 -0.0543 -1.0511 0.381 -0.921 0.081 82 61 44 0 0
-0.0545 -0.0511 -1.0561 0.426 -0.887 0.178 83 62 45 0 0
-0.0668 0.1258 -0.0951 -0.307 -0.605 0.735 63 49 39 0 0
-0.0662 0.0539 -0.1728 -0.228 -0.885 -0.407 63 48 41 0 0
-0.0660 0.0553 -0.1846 -0.031 -0.917 -0.398 61 46 41 0 0
-0.0655 0.0915 -0.2235 -0.403 -0.915 -0.027 62 48 43 0 0
-0.0655 0.0966 -0.2270 -0.594 -0.774 0.219 62 47 42 0 0
-0.0655 0.0959 -0.2299 -0.560 -0.806 0.193 62 47 42 0 0
-0.0651 0.1084 -0.2614 0.450 -0.580 -0.679 68 56 50 0 0
-0.0650 0.1198 -0.2659 -0.180 -0.598 -0.781 68 57 51 0 0
-0.0642 0.1450 -0.3404 -0.040 -0.887 -0.461 85 78 73 0 0
-0.0637 0.1013 -0.4036 -0.795 -0.594 0.124 77 58 51 0 0
-0.0635 0.0746 -0.4257 -0.590 -0.779 -0.210 76 44 26 0 0
-0.0601 0.1451 -0.7476 -0.935 -0.333 0.119 87 69 58 0 0
-0.0600 0.1427 -0.7533 -0.913 -0.374 0.161 80 61 49 0 0
-0.0580 0.0017 -0.9865 -0.946 -0.117 0.301 83 63 52 0 0
-0.0579 0.0070 -0.9926 -0.913 -0.184 0.364 82 62 51 0 0
-0.0576 -0.0143 -1.0260 -0.667 -0.745 0.007 56 27 11 0 0
-0.0575 -0.0316 -1.0419 -0.106 -0.740 0.665 81 57 39 0 0
-0.0572 -0.0325 -1.0765 -0.071 -0.981 -0.178 75 56 41 0 0
-0.0569 -0.0326 -1.0989 -0.648 -0.761 0.029 44 26 18 0 0
-0.0569 -0.0402 -1.1040 -0.347 -0.895 0.280 48 29 16 0 0
-0.0569 -0.0443 -1.1047 -0.393 -0.908 0.145 56 33 19 0 0
-0.0569 -0.0445 -1.1078 -0.369 -0.924 0.100 66 40 20 0 0
-0.0568 -0.0448 -1.1108 -0.369 -0.924 0.100 78 50 28 0 0
-0.0698 0.1351 -0.0925 -0.765 -0.586 0.266 63 47 38 0 0
-0.0698 0.1317 -0.0954 -0.143 -0.618 0.773 63 48 39 0 0
-0.0694 0.0557 -0.1383 -0.300 -0.948 -0.106 61 34 18 0 0
-0.0692 0.0470 -0.1607 -0.835 -0.537 -0.120 62 49 42 0 0
-0.0690 0.0554 -0.1730 0.141 -0.899 -0.414 63 49 43 0 0
-0.0690 0.0559 -0.1759 0.041 -0.865 -0.500 62 48 42 0 0
-0.0690 0.0560 -0.1788 0.072 -0.778 -0.624 61 47 41 0 0
-0.0690 0.0585 -0.1820 -0.021 -0.742 -0.670 63 49 43 0 0
-0.0689 0.0592 -0.1850 -0.457 -0.770 -0.444 62 48 41 0 0
-0.0685 0.1002 -0.2274 -0.707 -0.664 0.245 63 49 44 0 0
-0.0684 0.1022 -0.2306 -0.804 -0.557 0.207 63 49 43 0 0
-0.0684 0.1012 -0.2335 -0.883 -0.457 0.106 64 51 45 0 0
-0.0666 0.0827 -0.4182 0.139 -0.903 -0.407 96 74 58 0 0
-0.0631 0.1520 -0.7568 -0.860 -0.495 0.121 85 70 60 0 0
-0.0631 0.1512 -0.7598 -0.844 -0.508 0.171 84 67 56 0 0
-0.0631 0.1380 -0.7615 -0.921 -0.203 0.334 79 57 45 0 0
-0.0631 0.1309 -0.7621 -0.935 -0.146 0.323 78 54 41 0 0
-0.0623 0.0348 -0.8554 -0.538 -0.835 -0.116 88 61 42 0 0
-0.0619 0.0442 -0.8886 -0.187 -0.837 -0.514 71 50 37 0 0
-0.0619 0.0474 -0.8933 -0.031 -0.812 -0.583 70 46 34 0 0
-0.0618 0.0503 -0.9011 -0.179 -0.984 -0.005 63 40 26 0 0
-0.0607 -0.0047 -1.0120 0.006 -0.965 0.263 58 33 19 0 0
-0.0606 -0.0286 -1.0277 -0.087 -0.955 0.285 57 28 10 0 0
-0.0605 -0.0313 -1.0421 -0.044 -0.977 0.207 82 58 42 0 0
-0.0604 -0.0539 -1.0514 0.461 -0.883 -0.089 82 61 45 0 0
-0.0601 -0.0293 -1.0752 -0.532 -0.791 -0.302 79 58 45 0 0
-0.0600 -0.0300 -1.0876 -0.134 -0.969 0.209 42 26 19 0 0
-0.0599 -0.0321 -1.0992 -0.601 -0.797 -0.061 43 26 18 0 0
-0.0724 0.0592 -0.1241 -0.308 -0.815 0.492 89 69 60 0 0
-0.0723 0.0582 -0.1385 -0.381 -0.862 -0.334 62 34 18 0 0
-0.0719 0.0573 -0.1761 -0.373 -0.814 -0.446 63 50 44 0 0
-0.0719 0.0607 -0.1793 -0.317 -0.705 -0.634 62 50 43 0 0
-0.0719 0.0604 -0.1822 -0.565 -0.536 -0.627 64 51 44 0 0
-0.0717 0.0895 -0.2025 0.039 -0.598 0.800 66 52 47 0 0
-0.0714 0.1100 -0.2285 -0.734 -0.650 0.197 65 52 46 0 0
-0.0696 0.0829 -0.4183 -0.102 -0.991 0.089 99 77 61 0 0
-0.0649 0.0507 -0.8948 -0.195 -0.879 -0.435 68 45 32 0 0
-0.0646 0.0603 -0.9286 -0.310 -0.947 -0.080 83 64 49 0 0
-0.0646 0.0595 -0.9315 -0.428 -0.904 -0.017 84 63 50 0 0
-0.0637 -0.0050 -1.0119 -0.506 -0.849 -0.151 59 33 19 0 0
-0.0637 -0.0290 -1.0116 -0.067 -0.796 0.601 58 29 13 0 0
-0.0637 -0.0223 -1.0184 -0.006 -0.335 0.942 57 28 12 0 0
-0.0636 -0.0241 -1.0238 0.082 -0.990 -0.116 56 29 12 0 0
-0.0635 -0.0283 -1.0374 0.129 -0.990 -0.059 77 49 27 0 0
-0.0634 -0.0283 -1.0406 -0.014 -0.997 -0.080 81 55 36 0 0
-0.0634 -0.0313 -1.0421 0.032 -0.892 0.452 85 61 45 0 0
-0.0634 -0.0319 -1.0449 0.116 -0.983 0.140 83 60 45 0 0
-0.0631 -0.0320 -1.0736 -0.323 -0.882 -0.344 77 58 44 0 0
-0.0631 -0.0310 -1.0774 -0.323 -0.946 -0.031 69 51 39 0 0
-0.0631 -0.0309 -1.0807 -0.323 -0.945 -0.045 58 40 31 0 0
-0.0630 -0.0297 -1.0846 -0.221 -0.973 0.068 45 28 21 0 0
-0.0630 -0.0296 -1.0878 -0.134 -0.969 0.209 38 23 16 0 0
-0.0629 -0.0254 -1.0935 -0.046 -0.997 0.066 40 25 18 0 0
-0.0624 -0.0238 -1.1495 0.102 -0.969 -0.227 73 54 37 0 0
-0.0756 0.1039 -0.1061 0.141 -0.607 0.783 86 74 70 0 0
-0.0753 0.0631 -0.1243 0.308 -0.847 0.434 93 73 62 0 0
-0.0750 0.0559 -0.1615 -0.697 -0.642 -0.321 63 50 44 0 0
-0.0748 0.0552 -0.1759 -0.694 -0.512 -0.506 63 52 46 0 0
-0.0745 0.1053 -0.2190 0.189 -0.611 -0.769 65 54 48 0 0
-0.0745 0.1097 -0.2225 0.045 -0.685 -0.727 65 54 48 0 0
-0.0742 0.1266 -0.2608 -0.961 -0.166 -0.220 79 72 67 0 0
-0.0726 0.0829 -0.4183 -0.614 -0.790 0.015 100 78 61 0 0
-0.0725 0.0818 -0.4212 -0.448 -0.846 0.289 93 68 49 0 0
-0.0725 0.0774 -0.4233 -0.106 -0.808 0.580 81 53 33 0 0
-0.0724 0.0838 -0.4338 0.357 -0.916 0.184 68 39 21 0 0
-0.0693 0.1266 -0.7704 -0.886 -0.127 0.446 77 59 47 0 0
-0.0691 0.1218 -0.7883 0.017 -0.906 0.423 75 52 37 0 0
-0.0681 0.0497 -0.8847 -0.741 -0.670 0.045 80 56 44 0 0
-0.0677 0.0636 -0.9269 -0.534 -0.816 0.221 87 68 53 0 0
-0.0676 0.0610 -0.9322 -0.428 -0.904 -0.017 89 68 55 0 0
-0.0676 0.0604 -0.9352 -0.353 -0.921 0.162 84 61 46 0 0
-0.0674 0.0243 -0.9499 -0.660 -0.516 0.546 89 71 60 0 0
-0.0672 0.0434 -0.9692 -0.942 -0.311 -0.128 83 63 52 0 0
-0.0672 0.0421 -0.9718 -0.644 -0.528 0.554 82 62 51 0 0
-0.0664 -0.0282 -1.0375 -0.083 -0.995 -0.052 79 52 32 0 0
-0.0661 -0.0305 -1.0777 -0.266 -0.962 0.053 69 50 38 0 0
-0.0660 -0.0301 -1.0843 -0.203 -0.944 0.260 46 29 22 0 0
-0.0660 -0.0309 -1.0871 -0.203 -0.944 0.260 38 23 16 0 0
-0.0658 -0.0184 -1.1073 0.591 -0.797 0.125 44 27 19 0 0
-0.0656 -0.0388 -1.1241 -0.144 -0.956 0.256 89 66 50 0 0
-0.0655 -0.0418 -1.1351 -0.477 -0.860 0.184 75 56 39 0 0
-0.0653 -0.0179 -1.1629 -0.494 -0.869 0.020 69 53 41 0 0
-0.0779 0.0589 -0.1618 -0.591 -0.705 -0.393 64 51 45 0 0
-0.0776 0.0780 -0.1926 -0.639 -0.578 -0.507 65 54 48 0 0
-0.0758 0.0911 -0.3986 0.103 -0.628 0.771 79 63 53 0 0
-0.0757 0.0886 -0.4012 0.054 -0.622 0.781 80 63 53 0 0
-0.0755 0.0777 -0.4234 -0.351 -0.709 0.612 80 52 33 0 0
-0.0755 0.0833 -0.4307 0.005 -0.791 0.612 75 46 28 0 0
-0.0754 0.0814 -0.4333 0.034 -0.979 -0.202 72 43 25 0 0
-0.0722 0.1139 -0.7950 -0.097 -0.799 -0.593 74 51 35 0 0
-0.0710 0.0571 -0.8978 -0.799 -0.591 0.111 70 48 35 0 0
-0.0710 0.0587 -0.9018 -0.729 -0.595 0.337 66 42 30 0 0
-0.0706 0.0553 -0.9425 -0.516 -0.560 -0.648 74 51 36 0 0
-0.0696 -0.0308 -1.0170 0.112 -0.646 -0.755 57 28 12 0 0
-0.0690 -0.0297 -1.0782 -0.266 -0.962 0.053 66 47 35 0 0
-0.0690 -0.0295 -1.0847 -0.203 -0.944 0.260 42 25 17 0 0
-0.0682 -0.0316 -1.1641 -0.567 -0.732 0.377 138 134 129 0 0
-0.0807 0.0547 -0.1644 -0.620 -0.609 -0.495 62 51 47 0 0
-0.0807 0.0530 -0.1671 -0.702 -0.435 -0.565 62 51 47 0 0
-0.0787 0.0869 -0.4009 -0.017 -0.808 0.589 78 65 56 0 0
-0.0787 0.0861 -0.4038 0.036 -0.829 0.559 81 64 55 0 0
-0.0785 0.0774 -0.4264 0.377 -0.925 0.036 73 44 26 0 0
-0.0785 0.0855 -0.4312 0.507 -0.769 0.390 73 44 26 0 0
-0.0784 0.0820 -0.4335 0.189 -0.847 0.497 70 43 24 0 0
-0.0741 0.0619 -0.9033 -0.817 -0.529 0.231 65 44 35 0 0
-0.0726 -0.0301 -1.0173 -0.088 -0.685 -0.723 59 30 12 0 0
-0.0725 -0.0238 -1.0240 -0.402 -0.907 0.122 58 30 11 0 0
-0.0720 -0.0268 -1.0799 -0.278 -0.923 -0.266 61 42 32 0 0
-0.0720 -0.0263 -1.0833 -0.273 -0.953 -0.135 45 27 20 0 0
-0.0720 -0.0255 -1.0871 -0.267 -0.917 0.297 43 25 21 0 0
-0.0839 0.0593 -0.1329 -0.085 -0.830 0.551 73 45 29 0 0
-0.0836 0.0930 -0.1941 -0.742 -0.431 -0.514 70 59 55 0 0
-0.0785 0.1334 -0.7995 -0.937 -0.215 0.274 76 56 42 0 0
-0.0773 0.0674 -0.8928 -0.795 -0.592 -0.133 81 62 51 0 0
-0.0756 -0.0280 -1.0153 -0.549 -0.819 0.167 60 31 13 0 0
-0.0755 -0.0280 -1.0185 -0.789 -0.609 0.082 60 31 13 0 0
-0.0755 -0.0221 -1.0250 -0.702 -0.692 0.168 61 33 14 0 0
-0.0754 -0.0301 -1.0364 -0.157 -0.976 0.149 85 60 43 0 0
-0.0751 -0.0243 -1.0749 -0.389 -0.901 -0.191 78 57 44 0 0
-0.0750 -0.0235 -1.0786 -0.389 -0.901 -0.191 70 50 39 0 0
-0.0750 -0.0242 -1.0814 -0.402 -0.904 -0.144 58 41 29 0 0
-0.0749 -0.0255 -1.0902 -0.372 -0.789 0.489 49 32 25 0 0
-0.0745 -0.0259 -1.1384 0.041 -0.976 -0.213 79 58 39 0 0
-0.0869 0.0710 -0.1395 -0.044 -0.706 -0.707 71 43 28 0 0
-0.0867 0.0739 -0.1601 -0.128 -0.990 0.053 68 54 50 0 0
-0.0805 0.0632 -0.8747 -0.435 -0.742 -0.511 85 66 53 0 0
-0.0780 -0.0225 -1.0760 -0.448 -0.893 -0.031 74 55 41 0 0
-0.0780 -0.0217 -1.0796 -0.440 -0.893 -0.089 65 47 35 0 0
-0.0779 -0.0223 -1.0889 -0.564 -0.814 -0.137 42 25 18 0 0
-0.0772 -0.0283 -1.1662 -0.580 -0.732 0.357 158 156 151 0 0
-0.0899 0.0701 -0.1278 -0.066 -0.663 0.746 86 61 47 0 0
-0.0897 0.0612 -0.1331 -0.160 -0.696 0.700 74 46 31 0 0
-0.0896 0.0753 -0.1602 0.273 -0.961 -0.029 68 56 53 0 0
-0.0851 0.1682 -0.8133 -0.904 -0.285 0.321 77 60 52 0 0
-0.0848 0.1406 -0.8123 -0.823 -0.239 0.516 77 54 42 0 0
-0.0836 0.0725 -0.8821 -0.703 -0.547 -0.454 89 73 64 0 0
-0.0815 -0.0250 -1.0201 -0.416 -0.868 -0.271 58 30 12 0 0
-0.0814 -0.0292 -1.0274 -0.576 -0.815 -0.064 75 46 25 0 0
-0.0813 -0.0290 -1.0307 -0.576 -0.815 -0.064 82 55 35 0 0
-0.0802 -0.0264 -1.1674 -0.514 -0.790 0.335 164 161 157 0 0
-0.0928 0.0703 -0.1279 -0.019 -0.662 0.749 82 57 43 0 0
-0.0927 0.0740 -0.1397 -0.492 -0.697 -0.521 66 42 28 0 0
-0.0926 0.0748 -0.1602 0.127 -0.987 0.102 70 60 56 0 0
-0.0866 0.0674 -0.8766 -0.723 -0.580 -0.375 90 76 67 0 0
-0.0867 0.0789 -0.8850 -0.703 -0.547 -0.454 92 77 70 0 0
-0.0851 0.0205 -0.9965 0.627 -0.517 -0.583 84 66 53 0 0
-0.0957 0.0705 -0.1279 0.008 -0.640 0.768 80 56 42 0 0
-0.0955 0.0768 -0.1604 -0.585 -0.810 0.034 72 61 59 0 0
-0.0912 0.1497 -0.8193 -0.232 -0.845 0.482 79 60 49 0 0
-0.0909 0.1283 -0.8207 -0.801 -0.034 0.598 79 57 44 0 0
-0.0899 0.0643 -0.8493 -0.601 -0.777 -0.187 83 56 34 0 0
-0.0898 0.0820 -0.8930 -0.717 -0.622 -0.314 94 80 72 0 0
-0.0895 0.0820 -0.9259 -0.852 -0.503 -0.144 96 79 69 0 0
-0.0875 -0.0173 -1.0180 0.175 -0.934 0.311 57 30 13 0 0
-0.0875 -0.0163 -1.0282 -0.340 -0.914 0.223 59 30 12 0 0
-0.0874 -0.0246 -1.0267 -0.500 -0.807 0.314 67 39 18 0 0
-0.0865 -0.0297 -1.1329 -0.432 -0.884 -0.177 80 57 41 0 0
-0.0864 -0.0158 -1.1609 -0.409 -0.883 0.231 84 70 58 0 0
-0.0965 0.0945 -0.4487 0.002 -0.295 0.956 177 176 178 0 0
-0.0943 0.1526 -0.8306 0.214 -0.716 0.664 80 59 45 0 0
-0.0927 0.0878 -0.9286 -0.878 -0.471 -0.089 99 82 73 0 0
-0.0926 0.0900 -0.9363 -0.627 -0.775 -0.081 91 75 62 0 0
-0.0926 0.0927 -0.9442 -0.716 -0.684 -0.138 85 67 51 0 0
-0.0912 0.0324 -1.0190 -0.174 -0.916 -0.362 79 61 50 0 0
-0.0905 -0.0177 -1.0178 0.191 -0.928 0.321 61 34 17 0 0
-0.0904 -0.0232 -1.0244 -0.456 -0.736 0.500 63 33 16 0 0
-0.0903 -0.0232 -1.0275 -0.520 -0.844 0.130 73 45 25 0 0
-0.0900 -0.0177 -1.0788 -0.004 -0.777 0.629 54 37 28 0 0
-0.0896 -0.0321 -1.1056 -0.589 -0.788 0.182 60 36 24 0 0
-0.0896 -0.0310 -1.1095 -0.519 -0.854 0.034 72 44 29 0 0
-0.0896 -0.0311 -1.1127 -0.376 -0.923 -0.080 80 53 36 0 0
-0.0895 -0.0283 -1.1241 -0.508 -0.855 -0.106 86 65 46 0 0
-0.0894 -0.0356 -1.1228 -0.611 -0.740 0.282 83 60 44 0 0
-0.0894 -0.0410 -1.1228 -0.380 -0.894 -0.238 81 58 42 0 0
-0.0997 0.1090 -0.4488 -0.359 -0.517 0.777 153 147 148 0 0
-0.0974 0.1456 -0.8278 -0.060 -0.873 0.483 81 63 50 0 0
-0.0964 0.0841 -0.8449 -0.876 -0.460 0.143 84 55 37 0 0
-0.0963 0.1072 -0.9078 -0.912 -0.401 0.082 96 84 77 0 0
-0.0957 0.0890 -0.9424 -0.574 -0.785 -0.235 83 62 49 0 0
-0.0958 0.0969 -0.9528 -0.603 -0.790 0.108 82 60 46 0 0
-0.0958 0.1020 -0.9587 -0.060 -0.626 -0.777 80 58 44 0 0
-0.0935 -0.0168 -1.0183 -0.459 -0.827 0.324 73 44 26 0 0
-0.0930 -0.0174 -1.0854 -0.055 -0.995 -0.085 46 29 21 0 0
-0.0926 -0.0301 -1.1068 -0.589 -0.788 0.182 65 39 25 0 0
-0.0926 -0.0292 -1.1106 -0.519 -0.854 0.034 75 49 33 0 0
-0.1036 0.1468 -0.4130 0.015 -0.604 0.797 83 68 60 0 0
-0.1008 0.1602 -0.8404 -0.753 -0.348 0.558 79 61 50 0 0
-0.1006 0.1516 -0.8403 -0.834 -0.242 0.496 80 59 47 0 0
-0.0990 0.0995 -0.9441 -0.633 -0.774 0.013 85 66 52 0 0
-0.0989 0.0995 -0.9541 -0.817 -0.546 0.186 81 59 45 0 0
-0.0989 0.1007 -0.9580 -0.450 -0.831 -0.328 80 58 44 0 0
-0.0989 0.1001 -0.9611 -0.068 -0.886 -0.458 79 57 43 0 0
-0.0964 -0.0158 -1.0285 -0.291 -0.915 0.279 76 48 28 0 0
-0.0964 -0.0167 -1.0312 -0.200 -0.973 0.117 80 54 32 0 0
-0.0962 -0.0195 -1.0456 -0.348 -0.878 0.328 82 60 46 0 0
-0.0962 -0.0172 -1.0597 -0.063 -0.905 -0.422 80 61 47 0 0
-0.0960 -0.0034 -1.1196 0.352 -0.861 0.368 64 38 26 0 0
-0.0956 -0.0271 -1.1151 -0.457 -0.871 -0.177 81 56 36 0 0
-0.0952 -0.0252 -1.1681 0.055 -0.696 0.716 178 177 173 0 0
-0.0951 -0.0360 -1.1645 -0.570 -0.755 -0.323 182 181 180 0 0
-0.1061 0.1201 -0.4357 -0.399 -0.904 0.153 87 72 60 0 0
-0.1060 0.1176 -0.4446 -0.105 -0.773 0.626 119 113 109 0 0
-0.1059 0.1155 -0.4472 -0.105 -0.773 0.626 168 166 167 0 0
-0.1040 0.1629 -0.8483 -0.735 -0.238 0.635 84 62 50 0 0
-0.1020 0.1000 -0.9610 -0.230 -0.896 -0.379 78 56 42 0 0
-0.1020 0.1030 -0.9658 0.089 -0.915 -0.395 77 55 41 0 0
-0.1016 0.0840 -0.9732 0.931 -0.138 0.339 74 51 37 0 0
-0.0995 -0.0122 -1.0240 -0.535 -0.844 0.033 78 49 31 0 0
-0.0994 -0.0108 -1.0376 0.335 -0.940 -0.058 86 63 46 0 0
-0.0994 -0.0111 -1.0407 -0.182 -0.944 0.274 84 63 47 0 0
-0.0993 -0.0140 -1.0455 -0.023 -0.990 0.138 84 62 48 0 0
-0.0992 -0.0100 -1.0736 -0.565 -0.792 0.229 77 59 45 0 0
-0.0989 -0.0179 -1.0883 -0.433 -0.901 -0.015 47 30 22 0 0
-0.0990 -0.0036 -1.1228 -0.217 -0.931 0.294 78 52 36 0 0
-0.0987 -0.0203 -1.1224 -0.405 -0.860 -0.312 85 59 42 0 0
-0.0982 -0.0290 -1.1657 -0.196 -0.822 0.534 179 178 176 0 0
-0.1093 0.1314 -0.4382 -0.084 -0.370 0.925 92 80 69 0 0
-0.1091 0.1209 -0.4391 -0.399 -0.904 0.153 90 82 74 0 0
-0.1091 0.1204 -0.4421 -0.399 -0.904 0.153 117 112 108 0 0
-0.1091 0.1199 -0.4451 -0.399 -0.904 0.153 161 159 158 0 0
-0.1049 0.0896 -0.9693 0.922 -0.158 0.352 76 53 39 0 0
-0.1047 0.0815 -0.9719 0.945 -0.242 0.218 75 52 38 0 0
-0.1025 -0.0107 -1.0249 -0.532 -0.841 0.097 80 51 31 0 0
-0.1025 -0.0110 -1.0279 -0.532 -0.841 0.097 84 56 36 0 0
-0.1025 -0.0075 -1.0395 -0.296 -0.955 0.009 89 67 50 0 0
-0.1024 -0.0111 -1.0407 -0.559 -0.829 0.035 87 66 50 0 0
-0.1023 -0.0129 -1.0429 -0.071 -0.996 -0.050 86 65 50 0 0
-0.1023 -0.0128 -1.0462 -0.071 -0.996 -0.050 84 63 48 0 0
-0.1025 0.0090 -1.0780 -0.514 -0.808 -0.289 81 61 49 0 0
-0.1022 -0.0078 -1.0748 -0.510 -0.830 0.225 76 58 45 0 0
-0.1021 -0.0132 -1.0846 -0.476 -0.690 0.546 48 31 23 0 0
-0.1020 -0.0084 -1.1004 -0.295 -0.941 0.166 51 34 26 0 0
-0.1020 -0.0114 -1.1018 -0.605 -0.726 0.327 51 32 23 0 0
-0.1012 -0.0299 -1.1652 -0.466 -0.837 0.287 181 178 179 0 0
-0.1122 0.1222 -0.4394 -0.399 -0.904 0.153 114 108 103 0 0
-0.1122 0.1217 -0.4424 -0.399 -0.904 0.153 156 154 154 0 0
-0.1077 0.0717 -0.9671 0.915 -0.089 0.393 75 52 38 0 0
-0.1065 0.0253 -0.9893 -0.832 -0.472 -0.292 82 64 52 0 0
-0.1055 -0.0084 -1.0294 -0.463 -0.807 0.367 87 60 37 0 0
-0.1054 -0.0103 -1.0444 0.252 -0.966 -0.054 88 69 54 0 0
-0.1053 -0.0056 -1.0761 -0.500 -0.741 0.448 74 56 44 0 0
-0.1051 -0.0097 -1.0899 0.065 -0.959 -0.276 49 32 24 0 0
-0.1051 -0.0064 -1.1016 -0.048 -0.998 -0.029 51 34 26 0 0
-0.1046 -0.0184 -1.1301 -0.599 -0.790 -0.133 83 60 44 0 0
-0.1042 -0.0298 -1.1620 -0.734 -0.651 0.192 179 177 178 0 0
-0.1042 -0.0297 -1.1653 -0.548 -0.795 0.260 183 180 181 0 0
-0.1171 0.1164 -0.1279 -0.621 -0.351 0.701 79 59 48 0 0
-0.1110 0.0796 -0.9578 0.963 -0.118 0.243 76 53 39 0 0
-0.1107 0.0681 -0.9653 0.931 -0.154 0.331 76 53 39 0 0
-0.1108 0.0743 -0.9717 0.414 -0.027 0.910 76 53 39 0 0
-0.1085 -0.0068 -1.0334 -0.552 -0.809 0.201 88 64 45 0 0
-0.1085 -0.0078 -1.0361 -0.655 -0.701 0.283 91 68 52 0 0
-0.1087 0.0148 -1.0845 -0.667 -0.744 0.049 79 59 48 0 0
-0.1086 0.0107 -1.0855 -0.625 -0.625 0.467 70 52 40 0 0
-0.1082 -0.0075 -1.0782 -0.370 -0.656 0.658 56 38 28 0 0
-0.1072 -0.0267 -1.1639 -0.729 -0.662 0.174 179 178 179 0 0
-0.1202 0.1211 -0.1282 -0.599 -0.421 0.682 82 64 52 0 0
-0.1202 0.1216 -0.1342 -0.711 -0.282 0.644 82 62 52 0 0
-0.1203 0.1259 -0.1374 -0.903 -0.218 0.370 83 63 54 0 0
-0.1164 0.1476 -0.8554 -0.935 -0.180 0.306 101 84 75 0 0
-0.1116 -0.0044 -1.0348 -0.655 -0.701 0.283 90 65 46 0 0
-0.1115 -0.0055 -1.0374 -0.655 -0.701 0.283 91 68 52 0 0
-0.1111 -0.0081 -1.0908 -0.392 -0.907 -0.152 54 35 27 0 0
-0.1111 -0.0059 -1.1018 -0.156 -0.885 0.439 58 38 27 0 0
-0.1103 -0.0217 -1.1671 -0.746 -0.631 0.213 180 179 179 0 0
-0.1165 0.0557 -0.9756 0.304 -0.130 0.944 77 54 40 0 0
-0.1164 0.0527 -0.9773 0.735 -0.350 0.580 76 53 39 0 0
-0.1161 0.0455 -0.9966 0.104 0.031 0.994 83 60 46 0 0
-0.1138 -0.0118 -1.1276 -0.529 -0.774 -0.348 86 61 45 0 0
-0.1135 -0.0167 -1.1637 -0.762 -0.634 0.130 175 173 171 0 0
-0.1201 0.0743 -0.9750 -0.036 -0.025 0.999 77 55 41 0 0
-0.1196 0.0561 -0.9758 0.217 -0.288 0.933 77 54 40 0 0
-0.1168 -0.0072 -1.1664 -0.583 -0.662 0.470 172 168 167 0 0
-0.1241 0.1047 -0.9668 0.926 -0.354 0.132 81 59 45 0 0
-0.1226 0.0547 -0.9751 0.491 -0.387 0.781 77 54 40 0 0
-0.1222 0.0475 -1.0108 -0.273 -0.872 -0.407 81 59 46 0 0
-0.1222 0.0493 -1.0249 0.780 -0.402 -0.480 79 53 36 0 0
-0.1205 0.0095 -1.1240 -0.282 -0.959 0.022 90 66 49 0 0
-0.1204 0.0069 -1.1258 -0.417 -0.901 -0.122 88 65 49 0 0
-0.1198 -0.0053 -1.1675 -0.583 -0.662 0.470 175 172 170 0 0
-0.1197 -0.0102 -1.1678 -0.715 -0.691 0.108 178 177 175 0 0
-0.1266 0.0833 -0.9729 -0.862 -0.162 0.481 78 56 42 0 0
-0.1255 0.0539 -1.0108 -0.991 -0.118 0.068 83 61 47 0 0
-0.1251 0.0419 -1.0111 -0.796 -0.481 -0.368 79 57 43 0 0
-0.1237 0.0135 -1.1199 0.134 -0.944 0.303 86 62 42 0 0
-0.1236 0.0123 -1.1225 -0.019 -0.998 0.058 90 67 50 0 0
-0.1236 0.0130 -1.1295 0.211 -0.904 -0.373 87 64 48 0 0
-0.1302 0.0968 -0.9663 -0.909 -0.123 0.398 80 60 49 0 0
-0.1292 0.0694 -0.9825 0.472 -0.851 -0.231 76 52 39 0 0
-0.1278 0.0321 -1.0223 -0.585 -0.782 0.216 77 50 31 0 0
-0.1273 0.0196 -1.0448 -0.325 -0.922 -0.208 96 74 61 0 0
-0.1273 0.0213 -1.0490 -0.018 -0.951 0.309 95 75 61 0 0
-0.1272 0.0179 -1.0504 -0.436 -0.894 -0.106 93 74 59 0 0
-0.1275 0.0286 -1.0629 -0.712 -0.685 -0.157 88 69 54 0 0
-0.1276 0.0350 -1.0796 -0.665 -0.711 -0.229 87 69 55 0 0
-0.1273 0.0247 -1.0869 -0.446 -0.887 -0.115 66 47 40 0 0
-0.1272 0.0226 -1.0956 -0.437 -0.841 0.320 60 41 34 0 0
-0.1267 0.0124 -1.1225 -0.019 -0.998 0.058 90 65 48 0 0
-0.1267 0.0141 -1.1301 -0.164 -0.978 -0.128 90 67 51 0 0
-0.1267 0.0141 -1.1334 0.091 -0.934 -0.345 88 65 49 0 0
-0.1267 0.0151 -1.1373 -0.343 -0.939 0.035 88 65 49 0 0
-0.1322 0.0647 -0.9769 0.800 -0.567 -0.194 75 52 39 0 0
-0.1316 0.0533 -1.0237 -0.899 -0.405 0.168 79 53 36 0 0
-0.1305 0.0227 -1.0433 0.100 -0.971 -0.219 94 72 58 0 0
-0.1308 0.0385 -1.0816 -0.581 -0.757 -0.300 89 69 58 0 0
-0.1304 0.0249 -1.0772 -0.720 -0.694 0.030 86 68 57 0 0
-0.1304 0.0266 -1.0914 -0.256 -0.951 0.172 62 43 36 0 0
-0.1303 0.0255 -1.0940 -0.270 -0.908 0.320 62 43 36 0 0
-0.1303 0.0246 -1.0968 -0.219 -0.888 0.403 62 43 36 0 0
-0.1299 0.0152 -1.1044 -0.382 -0.584 0.716 67 46 33 0 0
-0.1297 0.0108 -1.1117 -0.563 -0.638 0.525 84 56 36 0 0
-0.1298 0.0127 -1.1194 -0.072 -0.996 0.058 95 71 51 0 0
-0.1297 0.0118 -1.1221 0.299 -0.947 -0.119 93 70 52 0 0
-0.1292 0.0022 -1.1690 -0.500 -0.515 0.696 177 174 173 0 0
-0.1388 0.1650 -0.9824 -0.373 -0.260 0.891 84 70 60 0 0
-0.1362 0.0904 -0.9764 -0.666 -0.652 0.363 80 58 44 0 0
-0.1355 0.0725 -0.9808 0.748 -0.615 -0.250 76 52 40 0 0
-0.1355 0.0724 -0.9840 0.795 -0.531 -0.294 74 50 38 0 0
-0.1356 0.0754 -0.9888 0.786 -0.531 -0.317 74 50 38 0 0
-0.1352 0.0649 -0.9868 0.706 -0.379 0.598 72 48 36 0 0
-0.1351 0.0619 -0.9886 0.805 -0.235 0.544 72 49 35 0 0
-0.1339 0.0327 -1.0291 -0.030 -0.976 -0.216 80 53 32 0 0
-0.1335 0.0280 -1.0757 -0.690 -0.720 0.067 88 69 59 0 0
-0.1335 0.0276 -1.0787 -0.681 -0.726 0.100 86 67 58 0 0
-0.1335 0.0282 -1.0890 -0.330 -0.925 0.190 62 43 37 0 0
-0.1335 0.0274 -1.0918 0.070 -0.942 0.329 65 46 39 0 0
-0.1333 0.0248 -1.0936 -0.500 -0.859 0.111 63 44 37 0 0
-0.1329 0.0133 -1.1033 -0.509 -0.848 0.146 68 47 33 0 0
-0.1329 0.0130 -1.1065 -0.479 -0.833 0.276 74 47 33 0 0
-0.1329 0.0130 -1.1098 -0.444 -0.788 0.426 83 54 39 0 0
-0.1329 0.0134 -1.1132 -0.542 -0.657 0.524 90 64 44 0 0
-0.1328 0.0127 -1.1194 0.034 -0.998 -0.057 96 73 56 0 0
-0.1327 0.0110 -1.1217 0.108 -0.917 -0.384 94 72 53 0 0
-0.1328 0.0155 -1.1343 0.323 -0.925 -0.202 90 67 51 0 0
-0.1393 0.0914 -0.9770 -0.658 -0.631 0.410 81 59 45 0 0
-0.1394 0.0944 -0.9818 -0.677 -0.292 0.676 80 58 44 0 0
-0.1385 0.0691 -0.9890 -0.358 -0.047 0.933 73 49 37 0 0
-0.1383 0.0632 -0.9893 -0.398 -0.051 0.916 73 50 36 0 0
-0.1365 0.0273 -1.0885 -0.199 -0.913 0.357 60 42 35 0 0
-0.1365 0.0259 -1.0910 -0.176 -0.958 0.226 63 44 37 0 0
-0.1364 0.0259 -1.0975 -0.575 -0.815 -0.074 64 45 38 0 0
-0.1360 0.0156 -1.1014 -0.644 -0.738 -0.202 66 45 33 0 0
-0.1361 0.0175 -1.1091 -0.698 -0.687 -0.203 76 50 34 0 0
-0.1360 0.0154 -1.1111 -0.570 -0.749 0.337 86 59 42 0 0
-0.1358 0.0112 -1.1185 0.459 -0.877 0.144 91 68 52 0 0
-0.1358 0.0123 -1.1290 0.542 -0.831 -0.123 90 67 50 0 0
-0.1397 0.0259 -1.0516 -0.390 -0.919 0.057 94 74 60 0 0
-0.1402 0.0453 -1.1021 -0.449 -0.883 0.138 64 45 38 0 0
-0.1389 0.0120 -1.1190 0.106 -0.805 0.584 91 68 52 0 0
-0.1388 0.0100 -1.1211 0.420 -0.768 0.483 91 68 52 0 0
-0.1387 0.0083 -1.1234 0.308 -0.919 -0.245 90 68 51 0 0
-0.1390 0.0180 -1.1324 0.168 -0.954 -0.247 90 68 51 0 0
-0.1462 0.1080 -0.9819 -0.819 -0.392 0.420 82 62 49 0 0
-0.1442 0.0577 -1.0029 -0.850 -0.147 0.507 76 51 38 0 0
-0.1436 0.0457 -1.0197 0.710 -0.624 0.325 83 54 37 0 0
-0.1434 0.0464 -1.0994 -0.069 -0.953 0.294 65 48 40 0 0
-0.1433 0.0456 -1.1022 -0.123 -0.939 0.320 64 45 39 0 0
-0.1499 0.1212 -0.9850 -0.740 -0.345 0.577 82 62 51 0 0
-0.1498 0.1186 -0.9871 -0.764 -0.360 0.535 82 61 48 0 0
-0.1495 0.1106 -0.9865 -0.673 -0.658 -0.337 80 59 45 0 0
-0.1496 0.1134 -0.9913 -0.660 -0.603 -0.448 79 57 43 0 0
-0.1463 0.0372 -1.0414 -0.773 -0.632 0.061 102 81 65 0 0
-0.1460 0.0308 -1.0412 -0.409 -0.912 0.041 100 78 65 0 0
-0.1465 0.0472 -1.0998 -0.267 -0.897 0.352 68 49 42 0 0
-0.1456 0.0272 -1.1115 -0.782 -0.599 -0.169 92 65 46 0 0
-0.1533 0.1266 -0.9876 -0.831 -0.386 0.401 81 63 53 0 0
-0.1532 0.1238 -0.9897 -0.803 -0.372 0.465 81 61 50 0 0
-0.1527 0.1112 -0.9868 -0.870 -0.493 -0.020 79 58 47 0 0
-0.1502 0.0570 -1.0224 -0.659 -0.406 0.633 83 57 37 0 0
-0.1495 0.0402 -1.0397 -0.781 -0.624 0.015 103 80 66 0 0
-0.1563 0.1215 -0.9885 -0.869 -0.283 0.407 80 62 52 0 0
-0.1562 0.1199 -0.9911 -0.881 -0.367 0.297 81 61 51 0 0
-0.1561 0.1174 -0.9933 -0.823 -0.327 0.464 80 58 46 0 0
-0.1526 0.0427 -1.0411 0.303 -0.751 0.586 100 78 65 0 0
-0.1530 0.0543 -1.0872 -0.580 -0.800 -0.152 70 53 46 0 0
-0.1533 0.0631 -1.1056 0.457 -0.746 0.483 69 50 43 0 0
