ply
format ascii 1.0
element vertex 688
property float x
property float y
property float z
property uchar diffuse_red
property uchar diffuse_green
property uchar diffuse_blue
end_header
0.18329571882778284 0.203779851182805 -0.9705704682423064 86 63 55
0.1905283804434631 0.19778495156854917 -0.9691995813709978 85 64 54
0.19756480613835248 0.19195524734429495 -0.9679243173800566 87 67 56
0.20406486230177392 0.18657948043727526 -0.9669658178546623 89 69 58
0.20981607974696367 0.18183815924315902 -0.9664654794189889 90 70 59
0.21461879857819383 0.1779010011381339 -0.9665582754107267 88 68 57
0.21531149705384559 0.1774525252633838 -0.9693153328127689 88 69 57
0.21824866616311703 0.1750981326331194 -0.9706000438190666 91 71 60
0.22034997951142682 0.17345307087349637 -0.9724228351854105 93 74 64
0.22237726186069992 0.1718705458318757 -0.9742866630262329 95 75 66
0.22394559946765508 0.17067753494735766 -0.9764468698198471 96 74 64
0.2265751136440608 0.16858279260299813 -0.9778966672427114 98 74 64
0.22748550160096315 0.16794821458128673 -0.9804822239236493 100 78 67
0.22882348125482257 0.1669501958531979 -0.9827793210629884 102 80 69
0.2274113880009978 0.1682890504483838 -0.9869176390973355 103 80 69
0.22359832280444347 0.17166888208888376 -0.9926807344344162 102 80 67
0.2225140686171295 0.17273000312606634 -0.996619037287522 101 82 68
0.22693387364839268 0.16911233110429483 -0.9968327258416144 102 82 70
0.22730948097614534 0.1689322887373576 -0.9997787642286439 99 80 67
0.22959387010094828 0.1671291861280664 -1.0014221646197927 96 74 66
0.23157575476265563 0.1655829580235776 -1.003263993716316 91 68 56
0.2279586984094805 0.16879835611041494 -1.0089446922795335 89 62 45
0.23068576703653296 0.16661818381651494 -1.0102709591378616 84 53 30
0.2367175327649212 0.16162622143224825 -1.0093013621185605 82 48 23
0.24044899908821996 0.15859024440712366 -1.0099018900696406 76 39 14
0.23977948897208812 0.15929840606109924 -1.013550316175236 77 40 13
0.2348704872990603 0.16361458695815229 -1.0201638563208861 77 38 12
0.2466367948994715 0.15373944218228497 -1.0151191383442755 81 41 16
0.2495940733276239 0.15136028405610039 -1.0162139371672392 85 46 21
0.24922976425409096 0.15180827505373348 -1.019639038123192 83 43 17
0.24923545067568081 0.15194139631198153 -1.0228057059957214 85 45 19
0.24946488581501217 0.15188406661361922 -1.0258152027259684 84 47 21
0.24901187968833005 0.15240792722295315 -1.0293111635335301 90 54 27
0.24964760289258286 0.1520046837621795 -1.0320332304997872 94 59 31
0.24934057650938915 0.15240441465249607 -1.0354295365376471 97 63 35
0.2504914655560084 0.1515622891651154 -1.0377809495839594 102 69 40
0.25173193932739585 0.15064368118355956 -1.0400641585258374 102 71 43
0.25176145252574983 0.15075674879400003 -1.04321931288922 102 72 45
0.24872359577493489 0.1534838703732046 -1.0486018148322798 102 72 48
0.24621397139363677 0.15576146041295097 -1.0536153430849733 104 74 50
0.2406689443651402 0.16062697228335027 -1.0608585353899027 108 78 54
0.2481626644617995 0.1543782507982074 -1.0585777203649631 103 73 48
0.2469058068361804 0.15558876614751566 -1.0626942018342054 99 69 45
0.2449108199688511 0.15742899985006562 -1.0673621758429785 97 69 45
0.24477928614277075 0.1576805701820113 -1.0706631453893405 96 68 46
0.24319029547934096 0.15917528913079848 -1.0750473553545026 95 68 46
0.24266016798890402 0.15976719885360308 -1.0786527566775936 93 66 46
0.23790166554575354 0.16396646929181935 -1.085417792620966 83 57 40
0.2362249366867349 0.16553742737493793 -1.0898994385905323 73 47 34
0.24043800464845683 0.16208309246932562 -1.0899679949807741 65 38 27
0.2406626154631816 0.16203169510782195 -1.093022845105683 68 41 30
0.24143879842695515 0.1615095647099115 -1.0956616433054858 72 46 34
0.24245722042773124 0.16078057912523772 -1.098114985026407 70 46 34
0.24551185564637068 0.15831316744833993 -1.099017632821299 75 49 37
0.24534527401357964 0.1585954602039231 -1.1023636837440256 73 44 33
0.24726970695884407 0.15709236146235275 -1.104113204014325 68 37 22
0.24786615886713725 0.15672303344521543 -1.1068740816582865 79 44 22
0.24866940370798746 0.15617703856689147 -1.1094747976853832 87 50 21
0.2512938450878492 0.1540753036727282 -1.1106682196284254 92 56 24
0.2532517035657895 0.15254257095513532 -1.1123670779969461 100 66 34
0.25432901156785737 0.15176185369115844 -1.1147420781635087 105 71 43
0.253656403955627 0.15247628473415892 -1.1184761712189957 107 74 47
0.2540778020881079 0.15225599282941926 -1.1213607827951475 111 80 54
0.2553533938884808 0.15130561370498702 -1.1235761328143423 112 81 56
0.2547986394801029 0.1519196234413646 -1.1272249873412312 111 79 54
0.25408678569880305 0.152668121981408 -1.1310018594853863 110 78 53
0.2541465449719459 0.1527571097920089 -1.1341740359382466 110 80 54
0.2563292693559916 0.15103081358502507 -1.1356652599606063 110 81 56
0.2562023214278192 0.15127938138445587 -1.1389837129262457 109 81 57
0.25627969102584036 0.15135329512899628 -1.1421415778200597 101 76 55
0.25480027081815504 0.15275894796773637 -1.1465453075089542 84 66 50
0.2547630604732161 0.1529311581933571 -1.1498013101731523 90 75 62
0.2506019329252429 0.15663189205381556 -1.1563751294096112 111 100 89
0.24534649772764394 0.16126994799385508 -1.163852470170553 138 132 124
0.24372385163208024 0.16280017578642736 -1.1684180238124122 163 160 155
0.24082281170195619 0.16542499518501041 -1.1740297072946115 174 173 169
0.24172709265108933 0.16479308447287264 -1.1765613888178477 182 181 179
0.24050435865824457 0.16598202691232328 -1.1808256356125668 187 186 184
0.23855807978843163 0.16779080092532128 -1.185689210341394 190 189 187
0.2795680408422198 0.13281598253626783 -1.155322309474442 193 193 191
0.2787860659203659 0.13362420122464166 -1.1591492255021778 194 194 192
0.16699106627385407 0.2295173222603699 -1.254575404395537 195 195 193
0.15606667600650362 0.23902549768663178 -1.267064594032517 196 196 194
0.1413719642040412 0.2517660931617668 -1.2827351606734851 197 197 195
0.13230888337787983 0.2596844478243606 -1.2937903188689415 199 199 197
0.31002265871187823 0.10755086943230169 -1.1490362955287217 200 200 199
0.3116262727072258 0.10631238192006247 -1.1508166473218449 202 202 202
0.30799209606903016 0.10956310386556511 -1.1569862849114256 202 202 202
0.3037003234082348 0.11337835140397853 -1.1637279662272286 202 202 202
0.29821226879361795 0.11822016035533811 -1.1715008909942342 202 202 202
0.12044068050200561 0.20518109578704544 0.09595512525975992 183 183 183
0.1227188351948319 0.20344947358411686 0.09289593801938768 183 183 183
0.12326918959998788 0.20312480747961437 0.08998899373991501 182 182 183
0.12537640392599286 0.2015319433346332 0.0869550420349433 182 182 183
0.09873145124606557 0.2233617010276946 0.08623248376191373 182 182 182
0.09793237084026704 0.22413845401170218 0.08338500539387682 183 182 182
0.09524969681018022 0.22645016995493233 0.08067702647577425 182 183 184
0.09218365993598557 0.22907478233578293 0.07798610957185456 182 182 185
0.09130916859888019 0.22991390077566512 0.0751231015963433 181 181 184
0.0908694741239254 0.23039883777019987 0.07222465844269982 182 182 183
0.07563420585741046 0.24294433640751056 0.07034161917612386 184 183 184
0.07683282652404072 0.24209515884895907 0.06729943458009609 184 183 184
0.09304582091452857 0.22900461003898312 0.06328367008085577 183 182 184
0.09118760859695321 0.23064642302268887 0.060469245560240026 183 183 183
0.09463955948386664 0.22795834925295172 0.05732106696847927 179 172 171
0.10549720575353691 0.21923008121907378 0.05374489192178719 124 103 91
0.11297410067458453 0.21325753182290655 0.05040280168440711 101 61 37
0.1192194061197253 0.20828843714946538 0.04715614216057111 87 45 17
0.11748183637010957 0.20983074599535118 0.04436035268375575 79 36 12
0.11619910096016559 0.21100231116335103 0.0415330478209139 76 35 10
0.11281094210629557 0.2138920794722643 0.03880453441064383 72 34 11
0.1105642573953573 0.2158509764316095 0.03600700160858795 71 34 12
0.11273270840037108 0.2142070189591351 0.032996078977263685 69 33 12
0.11143001111292271 0.21539592517380718 0.030145395322140674 67 30 10
0.1140120577832354 0.21341404738303477 0.02712412480650866 65 28 9
0.10987260035215057 0.21691901916083928 0.024382707488327535 66 29 10
0.1098859288185225 0.21703419222510842 0.021464372965457647 65 28 9
0.11068881903939125 0.21650472064793985 0.01851583365177959 65 28 9
0.11058237367029575 0.21671775276722485 0.015600491963594504 67 30 11
0.10962250040399345 0.21762785366846796 0.012711315522665552 68 31 12
0.0997762149011714 0.22579640578861138 0.010091218789015921 68 32 12
0.11261683534424068 0.2154345869434997 0.006775608467606409 70 34 10
0.11399535758676184 0.21443459938496207 0.003817458702712234 71 35 10
0.11418172248449342 0.2144084680377331 0.0008931364425554724 70 35 9
0.11433636298473895 0.21440828804861264 -0.0020311224884127896 70 33 11
0.11164824424186334 0.21673122112143758 -0.004895640050618879 69 32 11
0.10827400721470011 0.2196154052656867 -0.00775853315951368 66 29 10
0.10922331117995482 0.21896633163175666 -0.010711255392903647 64 27 8
0.11037356494004114 0.21815289683620334 -0.01366486124957354 62 24 5
0.1109454151202714 0.2178121897381811 -0.01660756672092578 62 24 5
0.11090638997482134 0.21797090301700933 -0.019542315459429034 62 23 5
0.11169496261523866 0.21745296620684018 -0.02248672045116786 63 25 6
0.1066568220945198 0.2216998757478599 -0.025383566638553477 64 27 8
0.10765324591565165 0.2210122893812531 -0.028337135196916524 66 28 9
0.11181691953252018 0.21773398787163098 -0.03130108066934007 65 28 9
0.10689865743840773 0.2218842595658391 -0.03423116787848546 63 27 8
0.10566445184508833 0.22302147125418686 -0.03718229452110851 61 24 7
0.08207728218568461 0.2424478314460889 -0.040178137010902205 53 23 10
0.0916045327341114 0.23478166556795682 -0.043145312384268455 49 31 21
0.09892753242010191 0.22891783046989203 -0.04608952172200821 145 138 136
0.10036422106002829 0.22787040421540927 -0.04905109500361487 180 180 183
0.10103487201996417 0.22744981615989024 -0.0520157693732078 179 180 182
0.1010623424216558 0.22755568649218794 -0.05498657738131868 179 179 180
0.10024825739385912 0.22835058257747626 -0.057969875341185945 180 180 182
0.09782600283658487 0.23046239462641543 -0.06098219980388758 181 178 180
0.09411843628995867 0.2336271525882297 -0.0640273332962413 105 97 97
0.1000053267301649 0.22893534804682117 -0.0669051815725708 88 72 66
0.09767145208677913 0.23097558598071902 -0.06993441524372421 94 76 68
0.1001199985696134 0.2290989814112349 -0.07286437433429115 100 79 69
0.12308294882735477 0.21041691222096184 -0.07527594693243642 96 72 60
0.12517790774524 0.20882758050802355 -0.07815958402852978 91 67 53
0.12659859244366967 0.20779042789525773 -0.08105589687620196 88 62 48
0.13041769663820432 0.20478774401977895 -0.0838745110847327 85 56 43
0.13064644764381184 0.20472685067840607 -0.0867968558255795 84 55 43
0.13378670481496857 0.2022796954591868 -0.08961908348854812 85 55 41
0.1374516187563928 0.19940201929260942 -0.09241137682230235 90 59 47
0.1425769420364092 0.1953265858097243 -0.09513469940853553 86 57 44
0.11462379247456 0.2183699442776446 -0.09917540541840143 91 60 46
0.11670572423876534 0.21679108618960635 -0.10205478252335397 94 62 45
0.12059243729389463 0.21373197562880716 -0.10484758529889168 102 69 50
0.17255657070050243 0.17124359038166462 -0.10540472144371156 101 68 53
0.18426690099028542 0.16176238540600185 -0.10769978368488985 102 69 52
0.18837010243688937 0.15851921734459187 -0.1103318092648176 110 77 58
0.19081064771824052 0.15663939485412173 -0.11303576385657416 115 84 66
0.19329568924767995 0.15472271340470622 -0.11572916177135414 121 91 73
0.19229967945027937 0.1556619747315767 -0.11860900328109242 126 95 75
0.19419934977841963 0.1542252295358428 -0.1213264129166064 119 86 64
0.19656367480458795 0.15240688178120282 -0.12400995328824664 115 81 53
0.19623334790420155 0.1527999146246935 -0.1268521653781951 108 74 45
0.19478159304406728 0.15411360378651917 -0.12976852305777217 91 55 27
0.19529005825521506 0.15381835304797892 -0.1325630954561092 84 46 19
0.19538557639173662 0.15386211900721652 -0.1353849804344355 80 43 18
0.18859350473595765 0.15956146094658222 -0.138687392978951 82 46 23
0.19873299200503344 0.15135774739800942 -0.14080576585560392 79 46 25
0.19905977646467043 0.15121143764632994 -0.1436074184454501 75 46 27
0.20046354836920727 0.15018052270238524 -0.14632783847616188 74 47 33
0.19017997704762812 0.1587500875798026 -0.1499493802618544 73 49 37
0.19345172609709013 0.1561851818237 -0.15253607315154855 72 50 37
0.19346160220335773 0.15629982422526498 -0.15537674702152304 71 50 38
0.19823939096710264 0.15261914190485784 -0.16065619556275018 70 51 41
0.19845754969244428 0.152562369031722 -0.16347333171481393 69 52 42
0.1974244685586839 0.1535340953865261 -0.1664026281763231 69 52 43
0.19282667127618014 0.15743643648713235 -0.1696624553065352 70 53 45
0.18306762110350597 0.1655828724220179 -0.17342259868967994 70 53 45
0.1673466126494126 0.17863307747690296 -0.17778972075471808 70 53 45
0.15599900646007267 0.18808973945730062 -0.18179545863354524 70 53 45
0.14526304291717418 0.19704538353561368 -0.18578670575848724 70 53 45
0.17811764192200663 0.17015068941030473 -0.18541706270198602 70 53 46
0.14901956840197558 0.1942103739840899 -0.191301458230562 71 54 47
0.14920706226082037 0.19418338749768568 -0.1942273655385318 73 56 49
0.15045781195752672 0.19328165525115076 -0.1970402232314934 73 56 49
0.1477915039626143 0.1956027958656906 -0.2002762802650383 72 55 48
0.14861582098432893 0.19505200661892969 -0.2031371343497113 72 55 48
0.14465366897997028 0.19844034740944957 -0.20653650190917652 72 55 48
0.17703959548007786 0.17191226839921633 -0.20577772565834432 72 55 48
0.1725556913929445 0.17572846514100665 -0.20920034638936194 72 55 47
0.16174402801813453 0.18475478539898493 -0.21339402216959835 73 56 48
0.16981895350337897 0.17823311080044096 -0.2153503007030509 74 57 49
0.15941469711452003 0.18692617177124196 -0.21954501922822758 73 55 45
0.15199411089993747 0.1931640179689655 -0.22341012338489152 73 55 45
0.1496425486549791 0.19522841252189754 -0.22666356517382139 75 57 46
0.14569157486548343 0.19861066439134 -0.23013367299375487 76 57 46
0.1473163649496002 0.19740057037619732 -0.23289201833144402 77 58 45
0.14644063080554848 0.19825030340844707 -0.23597718934076237 78 59 46
0.14337090386626725 0.20090794669466785 -0.23936280037952565 79 60 47
0.14482754753880753 0.199836375329977 -0.2421433702530288 80 61 47
0.14386122314954336 0.20076138982017658 -0.2452555896319053 81 62 47
0.13958623935505557 0.20441359149956417 -0.2488385053718411 82 63 48
0.13001438034276203 0.21243266976148428 -0.253195512309022 83 64 49
0.1338605052003256 0.2093922024032604 -0.2556512347760468 82 63 48
0.12622796198083963 0.21581468445077737 -0.2597763140998915 83 64 49
0.12443188719906359 0.2174261851623408 -0.26306579222765236 86 66 52
0.14527237110771388 0.20037152458164595 -0.2629541932574907 90 68 55
0.1419733270115207 0.20322132601010082 -0.2664451504666407 91 70 56
0.13870974247112558 0.2060425124788965 -0.2699452487422161 90 70 54
0.13743241687857938 0.20722590435705307 -0.27314875442933917 90 70 53
0.134655751674764 0.20964648105588984 -0.27659664497128167 91 69 54
0.13501744593956588 0.20947829571964866 -0.27955302564508666 89 69 55
0.1325186806237892 0.21167038174087097 -0.282974584246267 91 71 58
0.13001051808323436 0.2138707179815718 -0.28640915717175225 91 71 57
0.11998521486297964 0.22227552194126093 -0.29110776538434163 91 72 58
0.11790922490004614 0.22412079031415777 -0.2945075592508151 95 76 65
0.1164183659359428 0.22548346656924206 -0.29781731687711765 101 81 73
0.1185220026178795 0.22387895876865935 -0.3005140008004255 92 74 64
0.11567474274629327 0.22636188968837634 -0.304068366412178 91 71 63
0.11515362222197575 0.22692458524534279 -0.30722473821859686 85 62 51
0.11975983070517372 0.223253134317338 -0.3094686540344863 84 61 45
0.11638986657736676 0.2261686019043681 -0.3131365869744355 85 61 45
0.11549101312832936 0.22704357310092194 -0.3163681407441552 88 61 44
0.12804129806921094 0.2168085608445095 -0.3171208883748198 94 66 45
0.11646869501251964 0.2265012144710326 -0.32232840841072824 100 69 48
0.11712795661241593 0.22608919201435934 -0.32527567221278764 102 73 52
0.12532708422876046 0.21944654102454916 -0.326783700638816 101 76 59
0.11866089927660384 0.22508779227557218 -0.33112539151348863 101 83 69
0.12080152263897143 0.22345121742445498 -0.3337802294177617 105 93 86
0.11033855872018195 0.232232619074955 -0.3389080432530376 128 122 118
0.09986630863221531 0.24102358683365357 -0.3440814336056118 181 180 181
0.1008581489900972 0.2403380847651077 -0.3469964508353966 179 179 182
0.09022624054958688 0.2492638552193866 -0.35226669746348577 179 179 182
0.06002597811582455 0.2743738272712315 -0.36159016604912614 177 178 182
0.0965006523377387 0.2443456986431831 -0.3572436175677949 178 179 183
0.09424129628227478 0.24634959014998398 -0.3608426909025492 178 178 183
0.09859084691820971 0.24288689712579747 -0.36305844052520436 178 178 183
0.09974970267720676 0.24206320737604334 -0.365937568887371 179 180 184
0.10021413457137372 0.2418139462894793 -0.3689628144269762 174 173 174
0.09786996651440959 0.24388874841113994 -0.37259718589558477 140 137 137
0.09831483623149011 0.24365589180382435 -0.37563170043917365 117 111 110
0.09909962955904068 0.24314168156368754 -0.3785907962795328 99 93 90
0.10087624770109727 0.24180641734683997 -0.3813269683794598 100 89 84
0.10266815456290289 0.24045825096283907 -0.3840540137740082 102 89 82
0.10774465860350821 0.23639043586957645 -0.38602919140816366 99 84 78
0.11888619935885948 0.2272998666584821 -0.3865952162332577 98 83 79
0.1288474088659536 0.21918483844032702 -0.3873903621634393 84 69 64
0.13015907843271582 0.2182315751631826 -0.39016405977571433 74 58 52
0.13454460344856825 0.214732143643693 -0.3922106626084551 79 62 57
0.14196529518155215 0.20871778058417004 -0.393520564719397 80 62 55
0.14896776309096896 0.203048654410816 -0.3949018336047893 80 60 53
0.15240697610313364 0.20033066123854398 -0.397116244942122 87 67 60
0.1632585216131798 0.19147005326853128 -0.3975135915034204 85 66 59
0.16682345507517587 0.18864613589363774 -0.399656921080842 85 66 59
0.16878973685124865 0.187146624481065 -0.4021828889121136 86 64 55
0.1700918520690618 0.18619735320630593 -0.4048680596033846 80 57 46
0.17301124468949872 0.1839072220877512 -0.40714244577544695 80 55 44
0.17633113979007362 0.18128459421451448 -0.40930477464355625 93 70 54
0.17902530156893115 0.1791802753255489 -0.4116149994015507 106 82 65
0.18223188460260217 0.17665061969750961 -0.413783585917494 95 68 52
0.17953308295306425 0.17901800567753184 -0.41747476158139646 90 62 42
0.17920791137945336 0.1794171869937069 -0.4205569199326253 89 58 34
0.18938226761019744 0.17110699837075727 -0.4208710064438486 86 49 24
0.18845650998579722 0.17200373878614966 -0.4240969725704646 84 46 22
0.1878702407881638 0.1726190365142511 -0.4272372175643375 87 51 27
0.18814784592759493 0.17251767716731933 -0.43014803783863176 94 62 40
0.19030070146823092 0.17086012288994437 -0.4325489014486605 90 61 44
0.19161368744044974 0.16989930472124 -0.4351726532563496 93 68 54
0.18368473932692667 0.17660953774338697 -0.4403453451862503 99 81 71
0.15259173542634974 0.20255051053886783 -0.45199831736619756 115 105 100
0.16923253842820718 0.18886738296685365 -0.45039895114397327 171 168 168
0.18508458319656598 0.17583627504423016 -0.4489553071545192 181 181 182
0.19851191666076512 0.16481589189004622 -0.44813757711948865 179 181 183
0.1890219026338152 0.17282580441722042 -0.45383232043559646 180 181 183
0.22466611878333909 0.15117286957617493 -0.627621652601286 194 195 197
0.23021898161135654 0.14665985712436963 -0.6283125598523921 195 196 198
0.22990897976475244 0.14704889544265126 -0.631447205166657 196 197 199
0.21145557865791467 0.1626127173271309 -0.6422542246760982 197 198 200
0.2027980346263773 0.1699861019506195 -0.6489796053141733 197 198 200
0.24198656088420972 0.13733514532848956 -0.6353141237036115 198 199 201
0.24461143803032978 0.13526800801487848 -0.6371729554810073 199 200 202
0.24498188980040578 0.13508682400260658 -0.6399942940145643 199 200 202
0.24751766692186414 0.1330936178863729 -0.6418771397025115 200 201 203
0.16647472781896633 0.2010492488280206 -0.680150367166588 200 201 203
0.1276541978669718 0.2336789550376794 -0.7002927026434848 201 202 204
0.14973800952549832 0.21533219803038373 -0.693817575754334 202 203 205
0.1286590916017944 0.23311741884066783 -0.7063243738667908 203 204 206
0.08545964148102664 0.2694280372722324 -0.728745951856885 204 205 207
0.0965874833188432 0.2602536714395993 -0.7271129036088799 205 206 208
0.08573292175709318 0.26948716248288496 -0.7352896398045816 206 207 209
0.18928311587404392 0.1829003421937691 -0.6919762156482154 206 207 209
0.07070848755752765 0.28279792224892597 -0.7588788906575854 208 208 210
0.06962264412618555 0.28385373555425025 -0.7627554053138522 208 208 210
0.06728774049444938 0.28595669861964773 -0.7672170639767923 208 208 210
0.07297667162707683 0.281334407535345 -0.7679552010147486 208 208 210
0.06959631388469231 0.28431406048329255 -0.7729120213564056 208 209 210
0.07355216533783965 0.2811436734714716 -0.7744383592365276 209 209 211
0.07462150308644358 0.2803929709616952 -0.7773117361515807 208 209 211
0.07937299134101355 0.2765543102849137 -0.7784363762628301 208 209 211
0.08073812247457138 0.2755549352585898 -0.7811551171720137 209 210 212
0.10168749048096307 0.25812848935176896 -0.7744996670467286 206 206 207
0.09811389839395848 0.2612698949512685 -0.7795413314523968 182 181 181
0.0919414895174592 0.2665923629906404 -0.7858547159803373 150 146 145
0.09498673297155188 0.26418188285252014 -0.7877265954000789 120 114 112
0.0973845010548953 0.26231423885010785 -0.78990237659408 108 99 95
0.09959390281211866 0.26060430579904537 -0.7921616334282244 100 90 84
0.10206144904947959 0.258677361280509 -0.7942861619453119 94 82 77
0.10377803157897791 0.25738041313721716 -0.7967723500939806 87 75 69
0.1019128410361562 0.25909021655083725 -0.8010284158793285 83 69 61
0.10352231206926518 0.25788303972609006 -0.8035641893227872 82 66 57
0.1559686657609111 0.2139871107735877 -0.7806724344032763 82 63 55
0.15479683205239103 0.21511047877002573 -0.7844842539762884 81 62 52
0.1468970104601991 0.22188499440815493 -0.7916964767979996 80 61 51
0.1613776511423111 0.20986154483892466 -0.7876070368721461 81 61 51
0.1684503942459721 0.20405875417726338 -0.7872251480641603 79 58 48
0.18960045967197506 0.18642715667924475 -0.7796216182558059 78 56 46
0.1867147331923283 0.18898841505986533 -0.784260603315186 78 56 47
0.09724127059251833 0.26431623659842224 -0.8335306580091172 80 57 48
0.10399859095510922 0.2587822023534104 -0.8333965703192793 78 56 46
0.11352098143010045 0.2509227612306368 -0.8317979305188542 77 55 45
0.11186059545836985 0.25246245471176443 -0.8359948098484618 75 53 41
0.16490850303652832 0.2080065959132597 -0.8115338671278074 75 52 42
0.16956062852355197 0.2042340743459522 -0.8123078107307254 77 54 44
0.17224469256961442 0.20211576269765885 -0.8141029217052126 78 55 45
0.16497000459598327 0.20837264143373557 -0.821171448885072 78 54 47
0.16395182233874872 0.2093684533162085 -0.8249403976173659 80 57 50
0.1673977265882853 0.20660924712008677 -0.8263275548785234 85 62 54
0.17550585376706399 0.19992706285599227 -0.8251972247229828 86 65 58
0.17455700150491205 0.20086404495434593 -0.8289173301244644 88 69 62
0.17818586730774513 0.19794910870212395 -0.8301645138028442 95 75 70
0.18337692019762672 0.1937188217953167 -0.8305481345706605 93 75 70
0.18436069103050928 0.19302886358968613 -0.8332071922290006 92 74 68
0.18512767204093103 0.19252128028388285 -0.8359823713976122 95 74 70
0.18271806050696449 0.19468794022094849 -0.8405036914633658 95 73 67
0.18386151419446012 0.19386352610691387 -0.8430743839924022 95 73 62
0.17836878679471804 0.1986271102362086 -0.8493222923801561 93 67 53
0.17818914955426804 0.19891729652506882 -0.8526375032446146 90 57 39
0.17520342612446066 0.20157104796768793 -0.8575238023996589 91 55 33
0.17868100486509364 0.1987810282143455 -0.8587975316361028 93 58 33
0.18387013996597384 0.1945485138789695 -0.8590932765318426 96 61 37
0.18683218726768017 0.19219151040318488 -0.8606275062782794 102 67 45
0.18395718433646877 0.19475256038041916 -0.865464739083079 107 76 56
0.17926500061359762 0.19884563488082424 -0.8713521148435827 108 80 62
0.17887169190595603 0.19931644056406786 -0.8748018644430515 108 82 66
0.17722235951740548 0.20084612994705164 -0.8789764985124864 106 82 67
0.17169693707782663 0.20564383987504667 -0.8853951779101962 105 83 69
0.18892677847192535 0.19125728249613894 -0.8786679963698859 105 83 71
0.18745346555313885 0.1926382755496015 -0.8827340057592752 104 82 71
0.1833461486928283 0.19624090198210206 -0.8883445001156436 103 81 69
0.17376998940852018 0.2044568347262098 -0.8971767021960795 102 81 68
0.17076921108185142 0.207128329427849 -0.90218861366122 102 80 67
0.17163160951976114 0.2065415072556313 -0.9049365538387357 98 75 62
0.17295823928650206 0.20556292358742617 -0.9074074565046161 91 68 53
0.17306543480672165 0.20561310167614108 -0.9105988987682481 96 71 56
0.17274483693273657 0.20602433895091005 -0.9140467308507829 114 88 73
0.16954362083554259 0.2088668922538844 -0.9192224818420177 114 90 75
0.171012940552821 0.2077678471668983 -0.9216071581698011 107 84 71
0.16988032400141234 0.20886507224583267 -0.9255564973022352 98 79 66
0.17081790588610396 0.2082147861824151 -0.9282591743026558 98 78 68
0.17103647440773317 0.20817150082147384 -0.9313962688539803 91 68 59
0.17410882317008525 0.20571834447348603 -0.9327936065427744 81 57 49
0.18720177903918964 0.19480171182006364 -0.9280453054740233 72 47 38
0.19029186373156062 0.19233157431088196 -0.9293854419712952 70 45 34
0.19763875225444516 0.18626498820843282 -0.9280889166115545 69 44 34
0.1985726688102614 0.18561502048093748 -0.9307295519100385 70 46 35
0.1949535823944155 0.18881196010841925 -0.936195147838925 76 53 43
0.19327987890390708 0.19036574844615978 -0.9404660898985105 80 59 50
0.19422619255038365 0.18970566770653674 -0.9431074008674221 84 64 55
0.19678441044640496 0.18768304687170415 -0.9447343389509628 88 68 60
0.20039485735984625 0.1847705272543596 -0.9456886626784717 93 73 66
0.18514119979734134 0.1978055232655337 -0.9585539558774622 88 68 61
0.1902341197173166 0.19364011476364862 -0.9585809870233992 86 65 57
0.19387560231895837 0.19070115249490963 -0.9595109599390451 86 64 57
0.20278211643287608 0.1833088543713196 -0.9570625280660026 85 63 56
0.19114994174639383 0.19328672028287433 -0.9677438056561775 83 63 54
0.19651240618305027 0.18889103952900688 -0.967545040849267 85 65 55
0.20349415649619873 0.18312447142379015 -0.9662784733557073 89 69 58
0.2089108391073551 0.17868082585396186 -0.9659961864155966 91 71 61
0.21051556148394404 0.17746187054170456 -0.9681693956489246 90 70 60
0.21233915198184714 0.17605744860571076 -0.9701942753505779 87 68 57
0.21551155634261154 0.17351112027858479 -0.971329694536606 91 72 61
0.2180046750246912 0.17153925446220553 -0.9728986860134441 95 76 66
0.22074553175576203 0.16935724414138528 -0.9742948336609869 96 76 67
0.222325484830529 0.1681576889188472 -0.9764480446273802 97 76 66
0.22339171535636748 0.16739290734021722 -0.9789366891343748 97 75 66
0.22398279903607288 0.16703038031066242 -0.9817385489010128 100 78 67
0.2245978054698436 0.16664754735699405 -0.9845234083440167 101 79 68
0.22312957636776462 0.1680293156842042 -0.9887036353189582 102 80 69
0.22136656592998444 0.16966117102190809 -0.9930904050325416 101 79 67
0.22055789565475076 0.17048486083066033 -0.9968427360612926 98 78 65
0.22061658342778465 0.17057381166281396 -1.0000130680401444 98 77 66
0.2275125743226724 0.16486846898506968 -0.998539672527824 98 77 65
0.2266703038287351 0.1657204880798331 -1.0023114601889114 97 75 65
0.2292968535340589 0.16363237258505545 -1.003716379121319 92 69 56
0.22294198768573542 0.169157854686005 -1.011273784640992 90 62 45
0.2211350443482218 0.17082868245756744 -1.0157307001708078 85 53 31
0.23009847968424452 0.1633671860786469 -1.0127584391535165 81 46 21
0.234286741857762 0.15995358502600182 -1.0130562127285523 78 41 15
0.23815899580353048 0.15680725614002142 -1.0135563438422532 77 40 14
0.23536165884847626 0.15931768342592587 -1.0186925628709378 77 40 14
0.2461605097350678 0.15029450543193107 -1.0143289917664624 76 39 13
0.24741978419355373 0.14936304461073033 -1.016615149611012 76 39 14
0.24900448661098237 0.14815526915240665 -1.0186680234073584 78 39 14
0.2474677274416025 0.14959624125914445 -1.0229208988804077 79 40 15
0.2474728354971364 0.14972894901707498 -1.0260894425844544 78 40 16
0.247478127687431 0.14986157042403161 -1.0292594744631636 82 44 21
0.2474889185030548 0.14998959383887217 -1.0324272031133355 90 53 29
0.24784035850237437 0.14982846467225985 -1.0353527294363487 95 60 34
0.24868810835739633 0.1492459063758645 -1.0379219663577608 100 67 39
0.25013482048725705 0.14815459701665337 -1.0400575835011256 103 72 45
0.2507830806868539 0.14774121958777447 -1.042765150118873 103 73 46
0.24843316266966917 0.14987451176983468 -1.0476445155733223 102 72 47
0.246092010471322 0.15200089209555437 -1.0525298891315096 103 73 49
0.24849343378020874 0.15009840956751547 -1.0539684750937903 102 72 48
0.24840167593743345 0.15031403196310522 -1.0572219119140358 100 70 44
0.24767492688731288 0.15106937191733885 -1.0609434766357413 98 68 43
0.24594468208154438 0.15267781667832012 -1.0654088394888677 96 67 44
0.2443739058540627 0.15415112432044203 -1.0697660113525185 95 67 45
0.24431747517220226 0.15433744471786612 -1.0730101790638147 93 67 45
0.24301613400360653 0.1555822902558923 -1.0771813820221947 92 67 46
0.24151281643719608 0.15699920907887147 -1.0815107746222472 87 61 44
0.24017278540445722 0.15827763693958316 -1.0857266447334062 75 50 36
0.23667601874585176 0.16139073409911886 -1.0915678902772112 72 45 34
0.24392022289732027 0.15536819847150304 -1.0893464772773964 62 35 24
0.24167475945093495 0.15741726464500633 -1.0942543016499164 71 46 34
0.2422884917662696 0.15703421492878225 -1.097010015682977 72 48 35
0.2446339174013709 0.15517760036055794 -1.0984498890824521 75 50 38
0.2482268196500866 0.15225897730484614 -1.0989306922326223 74 46 35
0.2483606292142675 0.15228377660443373 -1.1020386764927335 74 43 28
0.24908018643738702 0.1518100280999577 -1.1046989727956935 80 46 24
0.249242959777814 0.15181020322011549 -1.1077854630012818 87 51 22
0.24910010330154791 0.15207063383064262 -1.1111084301994085 93 56 24
0.2526712541094909 0.14916866022453548 -1.111562714672071 100 65 34
0.2529055415779815 0.14910774361372464 -1.1145893647174474 103 69 42
0.2538746156044123 0.14842102963664425 -1.1170452039351106 104 70 45
0.2532100389408476 0.14912574943758355 -1.1207724117210758 105 73 48
0.25362938682005687 0.14890727166248768 -1.1236564491992418 111 79 54
0.25362984951217216 0.14904567552240972 -1.126868872506541 113 81 55
0.2533143588716426 0.14945337775889672 -1.1303315939786758 112 79 54
0.2535874893538995 0.14935958870154792 -1.13333290870625 110 79 54
0.2547828543217233 0.1484797906526435 -1.135604661675003 109 79 55
0.25506178323280304 0.14838100244324587 -1.1386000648212555 106 79 54
0.24903538375862333 0.1536575700837008 -1.14661596198925 103 78 57
0.251527852678468 0.15167216643499976 -1.1478592860648922 88 67 51
0.2527679938920741 0.15075420557602945 -1.1500956041716 84 67 53
0.2517430626428871 0.15176774153099895 -1.1541470099147453 102 90 78
0.245992652122633 0.15681195931630826 -1.1620110586673045 128 121 112
0.24487203326778242 0.1579081504785215 -1.166163665752655 153 150 144
0.23929044665441562 0.16281033597107541 -1.1739370813101309 171 169 165
0.2430923757956645 0.15970760431947853 -1.174114626242366 182 180 179
0.24367277250829467 0.15935315064442582 -1.1769009825716044 185 184 183
0.23938138793380717 0.1631562894360326 -1.1836670879142221 189 189 186
0.2479607358881869 0.15597503516500869 -1.1799081881449442 192 192 190
0.26725507731769216 0.13978432771885818 -1.170515401619607 195 195 193
0.16592575708200535 0.22643956869090975 -1.2574692330266493 196 196 195
0.15033202049515004 0.23990435069418697 -1.2738427948140034 198 198 197
0.3001497076362604 0.11224380983940217 -1.1559548218344033 200 200 200
0.302936725223507 0.10999878736803088 -1.156766562407367 201 201 201
0.2994349248867519 0.1131259379741311 -1.1628377831386103 202 202 202
0.2965527357749685 0.11572445945770143 -1.168406291646236 202 202 202
0.2913493625571112 0.12030714129373675 -1.1759463155829253 202 202 202
0.07556122614049046 0.23761005677390876 0.10555013891079748 183 183 183
0.10001655012209398 0.2178840277041643 0.10042097685820732 183 183 183
0.11176634894234416 0.2084691701920339 0.09649469566991557 183 183 183
0.11394728519037055 0.20682178432918658 0.09343098834190285 183 183 183
0.11434390632598637 0.20662299900563844 0.09052363698298477 183 182 185
0.11361270157524743 0.20734011258489413 0.08770880292538384 182 182 185
0.09212046607860894 0.22491906601873174 0.08655125691409578 182 183 184
0.09245879736322332 0.22476946848984686 0.08360553157745877 184 184 184
0.0906521972513055 0.22636228912391204 0.08082327260376158 183 182 182
0.07896246338998497 0.23598472642456894 0.07876785266133003 179 177 177
0.08736745660247058 0.22928211005950908 0.07521037992932646 168 163 161
0.08309576173834815 0.2328790520148439 0.07257819552337301 155 149 145
0.08430379594907389 0.2320235675067608 0.06955198299710046 145 137 133
0.08551049224258345 0.23116903416220203 0.0665290357698648 146 138 134
0.08839381414737253 0.22895156002105704 0.06340039420435527 145 138 135
0.09497981248599183 0.2237237462759174 0.060047843498746284 152 143 138
0.10202868005683019 0.21811861617666467 0.05669051619299898 142 126 120
0.10984819709524352 0.21188580965141438 0.05331281811249612 97 67 51
0.11737468801592538 0.20589006649546895 0.04998016190585636 82 42 19
0.1189167043979145 0.2047599236193005 0.047006612291480156 77 38 14
0.11312911644258426 0.2095908510090914 0.04443023345962761 74 35 14
0.10710080752474177 0.21461857921704375 0.04184298661450506 73 33 12
0.10651666029277322 0.21521865398103965 0.03896047356068164 70 34 12
0.1085198619083367 0.2137139269117069 0.03595047102098118 70 34 12
0.10673799763910195 0.21528860799014293 0.03312076144363014 69 33 11
0.10670700636590626 0.21543891812706306 0.030205714562259692 67 31 10
0.10874831135986629 0.2139028546862347 0.02720174659542461 64 27 8
0.10929780431876326 0.21358067800887734 0.024264259684596858 63 26 7
0.10931075307591136 0.2136951988226301 0.021348078602101424 63 26 7
0.1089187826856719 0.21413939961358502 0.018445338844361447 64 27 8
0.10465548520910795 0.2177354791007565 0.01567358343054651 66 29 10
0.10326547806481243 0.21899285389149425 0.012790328430679423 68 31 12
0.1016992142521479 0.22039403969543384 0.009905811272532563 69 33 13
0.1011103771398506 0.22099955120511908 0.006985724469181561 70 34 11
0.11213898010029354 0.21214333698313523 0.003748889220758527 71 35 10
0.11157040293082024 0.21273170721772544 0.0008431882580841269 71 35 9
0.11152393988666157 0.21289490600224756 -0.002078146479035641 71 35 10
0.11060592490543572 0.21376822576693288 -0.004982546736141133 71 35 13
0.10892922017651561 0.21525992274586203 -0.007877190392677643 69 32 11
0.10968151496405078 0.2147726484555876 -0.010821899746766787 67 30 11
0.1098754872107961 0.2147403134796566 -0.013756474731290068 66 28 8
0.11009984896330854 0.21468323800305708 -0.016692110843366186 64 26 7
0.11019951510884804 0.2147278261282996 -0.019626825908011437 62 23 5
0.11020561722279643 0.21484873036511656 -0.02256164026549036 61 23 5
0.11084839476671898 0.2144506276162479 -0.025502807584043705 62 25 6
0.11085590011823199 0.21457045293517416 -0.028439150839757253 64 27 8
0.10875379721961373 0.21641059548354757 -0.03136844274544596 65 28 9
0.10719195495363099 0.21781054950405207 -0.03430831888232652 63 26 7
0.10361629797869096 0.2208532972319993 -0.03725528937788735 61 24 8
0.07752105128591698 0.24226562970578255 -0.04025727722536209 56 25 11
0.086190497090811 0.23532235332051762 -0.04323260516167679 47 26 14
0.09564673710198214 0.227735800592821 -0.046171601731701276 111 101 98
0.0979570022797103 0.22597839487015436 -0.04912951491743652 180 180 183
0.0988417665561476 0.22538390130799335 -0.05209344212168158 180 180 182
0.09740303873217648 0.22668552314348292 -0.05508184219149763 180 179 181
0.0971034877376384 0.2270576676175542 -0.05806203061877954 179 180 181
0.09626510629757977 0.2278697507878333 -0.06105300561684187 146 143 141
0.09670020219953046 0.22764243333773237 -0.0640267630706349 86 74 69
0.10038417356234206 0.22476262424282803 -0.06693819930686964 86 67 56
0.09562892587278667 0.22877299942859736 -0.07001433735288315 76 53 39
0.09659194134862374 0.2281147125011566 -0.07297894470412017 94 69 55
0.12378813762058614 0.20603224256045866 -0.07528813530424042 91 65 52
0.12865706577712616 0.20218138308404057 -0.07809263892552676 93 69 55
0.13314602764028236 0.19864014931579954 -0.08089063842065007 93 70 56
0.13572270910401088 0.19666042522672472 -0.08373136728712101 91 64 51
0.13333148087104996 0.19873916874877273 -0.08672563978924122 84 56 42
0.13419971752043863 0.1981550805742437 -0.08961788231912193 82 53 35
0.13444249128004743 0.19808202178794937 -0.09253099055572982 91 62 46
0.13855890238852944 0.19484321316001219 -0.09529561931468673 89 63 51
0.14416691981547472 0.19038462504790407 -0.09798543352704037 87 58 46
0.14666510401245683 0.18846722339201163 -0.1007865096568426 90 57 42
0.16313905778733492 0.17512413636453028 -0.10296057297064048 99 67 48
0.17201393399640386 0.16799131751384447 -0.10542319522599733 99 66 48
0.18680240629530181 0.15602166959448047 -0.10756792672869007 101 66 48
0.18690949481117294 0.15605546043256918 -0.11039205059412105 102 68 50
0.18891429482524294 0.15453726079826158 -0.1131183455826027 110 81 62
0.1907741379655111 0.1531373486775659 -0.11584601829584379 117 90 73
0.190299171281277 0.15364708246090197 -0.1186984065208996 126 97 79
0.19247932656862232 0.15198481467311484 -0.1214003040551949 119 85 64
0.1960647267957454 0.14917250076301086 -0.12401097555340448 109 75 46
0.1957650563210585 0.14953864732731253 -0.12684905579392658 100 63 34
0.19465984143720044 0.15056411502041428 -0.12974099766333075 87 50 21
0.19567336580305894 0.14985578923333925 -0.13249943196859837 83 47 18
0.19815765825335557 0.147943510103232 -0.13515577994953187 83 46 21
0.19018402202983015 0.15459169143935406 -0.1385315768708701 82 46 23
0.19757276226063814 0.14866439970869033 -0.14084075183819186 79 46 25
0.19823656140138862 0.14824206470812218 -0.1436166962108325 77 47 29
0.19841315326938178 0.14821862495543695 -0.14642816298655373 74 47 34
0.2036180367106702 0.14407738688448277 -0.14885101911455925 74 50 38
0.19464191719478038 0.15154979505002394 -0.15238046653435852 73 50 37
0.19683229961122695 0.1498772923613745 -0.15503821772577525 70 50 39
0.19476504115443405 0.1518140149845622 -0.16088177014397906 70 52 42
0.1997103845400153 0.1478838418798257 -0.16329020048971915 69 52 43
0.1938122963839541 0.15283839448869438 -0.16664760468307782 69 52 44
0.19367280353109187 0.1530747128228556 -0.1695046719528166 69 52 44
0.18804190890525313 0.15781189191080788 -0.1728749562752242 69 52 44
0.17267649568603582 0.17052935705344732 -0.17719425947440676 68 51 43
0.1642378145140838 0.17757112321795215 -0.18090319376641906 68 51 43
0.154257834865877 0.18587801897148182 -0.18479933166176996 69 52 44
0.18056715281609723 0.16443153387724535 -0.18507173038686575 70 53 45
0.1792157380623685 0.16566320266816903 -0.1880895169155 70 53 46
0.14418548533127623 0.1945155514481572 -0.1946475476939445 71 54 47
0.14660695667408466 0.1926561390221808 -0.19734187720221863 72 55 48
0.14771892929228028 0.19187053397684667 -0.20017063211386393 72 55 48
0.1469145005326131 0.19265695027911536 -0.20320882554779096 71 54 47
0.1487110952332515 0.1913095549039898 -0.20595819495485226 71 54 47
0.18319242267889968 0.16314296813134074 -0.20495015886977563 71 54 47
0.17962943788479363 0.166190488971421 -0.20824937562152662 72 55 47
0.1739397930698123 0.17098403214506497 -0.21181658966860112 72 55 47
0.18067483160637385 0.16558055930377144 -0.21390783788229165 72 55 47
0.17381878858001318 0.1713325648314902 -0.21764140199838533 72 54 44
0.16272140569491664 0.18056775945448356 -0.2219323070839962 70 52 42
0.1568363213674576 0.1855253756948305 -0.22560840880266075 70 52 42
0.14755527322286702 0.1932725763713224 -0.22974610799743195 73 54 43
0.1485045057067385 0.19262017031891365 -0.23258573547882555 75 56 42
0.14762803479387418 0.19346711210711479 -0.23566512769085277 77 58 44
0.14558480752782155 0.19527261945386604 -0.23890646592862236 78 59 45
0.15048704103700777 0.19137305501312019 -0.2412087649632506 78 59 44
0.15030574070875632 0.19164911582162042 -0.24419741358038594 78 59 44
0.13566947748567057 0.20380203848070066 -0.2492198781518145 80 60 45
0.13421859843741918 0.20512276153915224 -0.25242254820953625 82 61 47
0.13288447613955942 0.20634784251971394 -0.2556155664649627 84 61 47
0.13180048870479738 0.20736762885767177 -0.25877869832802863 83 60 47
0.1307141763169072 0.20838957383720932 -0.26194794745992533 83 61 47
0.12969815348743602 0.20935398427838242 -0.26511240315683354 84 61 47
0.1394126132379899 0.2014965434696634 -0.2666459935512858 85 61 47
0.1373360886935882 0.20333249305035614 -0.2699639096636884 86 62 48
0.13479433116921752 0.2055514322131987 -0.27336436839047906 88 64 49
0.13864189098862678 0.20251623858870438 -0.2757638259615004 87 65 49
0.13653334337861495 0.20437931343733032 -0.27910521718731784 88 65 52
0.13513476723057877 0.20565880378171436 -0.28234113571745273 88 65 52
0.1325046372142042 0.20795175395212553 -0.28578667078227227 88 66 50
0.1297387030584973 0.21035695121595213 -0.2892667981072579 81 59 45
0.12677366730278758 0.2129265144452595 -0.2927930061499202 83 63 47
0.1227911066557136 0.21633399501459555 -0.29650602715362256 91 72 55
0.12204975938294219 0.21707467428556562 -0.2996774125936485 86 67 52
0.11420155014650724 0.22366516906043535 -0.3040933257949313 80 58 47
0.12006647333793992 0.21896868307682094 -0.30612188729784673 83 59 48
0.12472362963840894 0.2152655666619937 -0.30834399402089635 80 57 43
0.12118211466124525 0.21831211621532884 -0.312028820756033 82 56 41
0.11978256739208998 0.2195955583656324 -0.3153384061816338 85 57 39
0.12616762185906483 0.21446848549313563 -0.3172186405870196 91 62 41
0.116057159866939 0.22292628002766457 -0.3221516978964491 100 67 45
0.1189912763758199 0.22064108632416096 -0.32466738859074273 104 73 53
0.125005719831939 0.2158179246158391 -0.3265857824449777 103 74 57
0.13428322753058894 0.20830544477713497 -0.32785308019452725 97 71 56
0.12904945479492602 0.21274810036869812 -0.3319081826363873 100 81 70
0.11745717538385754 0.22243141114144785 -0.33723594083183606 103 92 85
0.10350766820951558 0.23405945270631234 -0.3430801057611618 171 168 167
0.09940123659977809 0.23757714538402855 -0.34700718782789924 179 179 180
0.09262123024261244 0.24329944993047312 -0.35149415751406776 178 179 181
0.0722050412617404 0.26026452333854105 -0.3588009381610003 177 178 182
0.07465177142467795 0.25838326208438556 -0.3614661842593097 177 179 184
0.09484127136741362 0.2418716098829232 -0.36041998188790125 178 179 183
0.0973879700904002 0.23990565499323255 -0.36301159768942465 179 178 181
0.08974863537838425 0.2463401179694024 -0.36776156924135384 138 134 134
0.09494207642127034 0.2421911991443037 -0.36978777454272677 83 75 75
0.09489955503529625 0.24236064297078844 -0.37292965895675567 84 73 70
0.0987622138208602 0.23930839740960969 -0.37521867608743237 87 75 68
0.10074215729264155 0.2378089442918905 -0.3779093761205593 91 75 66
0.10290072126445905 0.23616181983836393 -0.3805537627467387 92 76 67
0.10381689032941849 0.23553968160224348 -0.38347034860560764 90 74 64
0.1044626409071761 0.23514063786956416 -0.38644611076559804 92 75 66
0.1256300835333349 0.21780228171352906 -0.3847218590906172 89 73 65
0.11951263742356603 0.22298450522381566 -0.38921606513840346 83 68 61
0.12853517160919284 0.21566819348536448 -0.3902084632828558 74 57 50
0.13957121093089217 0.20668783399205803 -0.3906923601559674 78 60 53
0.14723966050171788 0.20048650455702038 -0.39193132903207045 78 59 52
0.14791294959148074 0.20006098178100792 -0.3948134071919277 80 62 55
0.1493815630453844 0.1989785025695406 -0.3975024174817048 82 63 56
0.1598123138131026 0.1904927188155232 -0.3980071978059104 81 62 55
0.16321143669057822 0.18781421736796594 -0.4001954775117958 82 62 54
0.16786484052183803 0.18409887511945128 -0.40206119489586145 84 63 54
0.16914167338059774 0.18317286103542066 -0.40475129549314687 79 57 46
0.17285509002794822 0.18023311044798235 -0.40682515660770413 77 55 42
0.17718604606798943 0.17678238797476806 -0.4087288250701966 93 70 56
0.1793927159733865 0.17508683715100298 -0.4111589395836191 109 84 68
0.18087551918725597 0.1739893510806228 -0.413767899890523 116 89 73
0.1806707033250713 0.17428689643017808 -0.4168102879551562 103 75 58
0.18074107611998708 0.17435700596887324 -0.41978299192314045 88 55 32
0.17800327037298505 0.17674930363217292 -0.42349724562645374 85 48 22
0.17757099210454444 0.17723545731466203 -0.426611616025348 83 45 20
0.18992446244757824 0.16714671811268522 -0.4263058975477686 83 45 22
0.18981516377127297 0.16736486234965062 -0.4293134018957246 89 54 32
0.19397262422364864 0.16405332154273497 -0.4311629059153209 90 61 40
0.19565313199342185 0.1627904412093955 -0.4336752464172348 94 69 52
0.1906341734788409 0.1670707831564496 -0.43803089627509323 98 80 69
0.14990443838718537 0.20090400741440442 -0.45233657296516744 106 95 89
0.1665630725846516 0.1872485047741847 -0.4507386793437474 161 156 155
0.18223703227709157 0.1744051544263677 -0.4493515677066182 180 182 182
0.1958731195793098 0.16324605234445125 -0.44848056500131367 178 182 183
0.21038036256686593 0.1513633856468262 -0.4473055348445675 181 181 183
0.2411118558227252 0.13371237720072257 -0.6201552196457346 195 196 198
0.23606551618664148 0.1380463509277805 -0.6252405896192633 195 196 198
0.23801429371592742 0.13654995572131612 -0.6274099529649918 196 197 199
0.23433758950167172 0.13974336319349845 -0.6319479868790341 197 198 200
0.23656541015177815 0.13801422821142814 -0.6339973023688259 197 198 200
0.24549400461683107 0.13069693775036842 -0.6331805917191338 198 199 201
0.25656601119277855 0.12159048129888816 -0.6314085713776583 199 200 202
0.25557138482103187 0.1225467030763727 -0.6347889750191735 199 200 202
0.2571808284505521 0.1213309076049831 -0.637047754616238 200 201 203
0.13507298547305072 0.22346658156508503 -0.6963397465004189 201 202 204
0.14213510045613653 0.2177115631473235 -0.6964544566684774 202 203 205
0.15737116977598936 0.20513377948143974 -0.6929321986890893 204 205 207
0.14248562984581226 0.21769389955985763 -0.7027080616951491 204 205 207
0.11931664230494665 0.23717125452538707 -0.7162413273067924 205 206 208
0.09807412480839794 0.2550446722169363 -0.7290125199085962 206 207 209
0.09097314062511336 0.2611151120011817 -0.735512485467716 206 207 209
0.07037026586155426 0.2786054941159827 -0.7515165145455223 206 207 209
0.07063151279455068 0.27853180099239105 -0.7547661064237636 208 208 210
0.07079985609654996 0.27853573298270856 -0.7580588735932487 208 208 210
0.0723072124886594 0.27742113186456624 -0.7607356966290455 207 208 210
0.07381241986559822 0.2763081212707539 -0.7634087372669793 207 208 210
0.07531547942592934 0.275196700639199 -0.7660780051938197 208 209 211
0.07810360643141367 0.27301121041218795 -0.7681421666211307 208 209 212
0.07901491760689233 0.27239381073420477 -0.7710768538299706 208 209 211
0.07949958336592378 0.27213291992588945 -0.7742104616180069 209 210 212
0.0840994756167025 0.26843198879261965 -0.775394624039405 204 205 207
0.08748330057628845 0.2657469348029641 -0.7771392424290756 182 180 182
0.09066775430395582 0.2632280242988227 -0.7789662557975742 152 146 146
0.09371222511265087 0.2608256514780113 -0.7808484322408485 122 115 113
