ply
format ascii 1.0
element vertex 686
property float x
property float y
property float z
property uchar diffuse_red
property uchar diffuse_green
property uchar diffuse_blue
end_header
0.032565362305213334 0.2748728557458749 -0.2549253135626565 89 67 56
0.03505458203104886 0.27359153180849516 -0.258410089337693 91 69 58
0.03676831186120595 0.27269009332045835 -0.2617972845987539 94 72 59
0.037433017213229704 0.27230269073025976 -0.26504452358494074 96 74 60
0.04037815397345581 0.2707973905676025 -0.2686193537570326 96 74 60
0.04069951924288837 0.2705780792308412 -0.2718284629095792 92 69 56
0.05449347569784984 0.2637537941142539 -0.27700018035799945 94 71 58
0.05450095208844124 0.26368782736470936 -0.2801912270831211 92 69 56
0.054080967519350355 0.26383142411120347 -0.28332002325781 93 69 57
0.047097936021346626 0.2671932117130974 -0.28546000509458325 96 74 60
0.04536986955707814 0.2679784935459694 -0.2883780510896871 91 69 56
0.05257381224893784 0.2643834532118519 -0.29266796188700545 96 74 62
0.05684166014321288 0.26222791104625837 -0.29652658263677156 103 81 72
0.05895089768189654 0.2611308193462808 -0.3000612271770461 97 76 68
0.0587419559899388 0.2611706676785514 -0.3032353123353935 91 70 61
0.05272143733362061 0.2640613840128301 -0.3054743808715032 79 59 49
0.03002889227888291 0.2750697921357747 -0.308142536042946 80 52 41
0.03002077129850835 0.27495020231317907 -0.31446844297195664 91 60 41
0.029094641631556853 0.27534284606994985 -0.3174770141735463 100 71 50
0.0352896240807193 0.2722408059314824 -0.32170418592144223 102 74 53
0.09130021303499947 0.24430507631804407 -0.35425554500489986 178 178 180
0.09233478146867052 0.24373292651219153 -0.3577318179835086 179 178 180
0.09472951105752374 0.24236408487721556 -0.3680557933743243 83 75 73
0.08743947932859837 0.24588029029089534 -0.36995084677978424 77 65 62
0.059619063149625645 0.25935489077227286 -0.37431741842824334 79 60 51
0.05515199311908513 0.26148625652014024 -0.3766685143358503 78 59 49
0.048976474898657404 0.26445731394909494 -0.3786621649373854 80 62 51
0.043957514034509024 0.26686047178298095 -0.380870084201147 83 65 54
0.047467286028705674 0.2650729246875247 -0.38480534771873387 80 62 51
0.04205411106959791 0.26767015143874195 -0.3869146530188678 79 61 51
0.0370748432035812 0.2700544684976029 -0.3890966695411737 78 57 48
0.032658600439758496 0.272162369833757 -0.39138073264301537 73 49 40
0.008455145526679392 0.2839349141131432 -0.3926302219379614 80 56 46
0.009739159912394907 0.2832418896251011 -0.39607028660850874 82 58 48
0.015432766755334872 0.28038082203815107 -0.40047163321332113 81 57 47
0.014042198851461282 0.28100243756913124 -0.40334702512446086 83 56 47
0.0031312371448322662 0.2863053707944359 -0.4041228494821185 85 58 48
-0.01868003092982548 0.29684712851188344 -0.40869107617784844 96 68 53
-0.026866191244955484 0.30081239142819544 -0.4099574900967614 99 71 51
-0.027823261713510974 0.3012223520683184 -0.4128515684054251 89 55 34
-0.01369459919343137 0.29421147940707276 -0.4192239353683794 84 48 26
-0.012891730292886469 0.2937552021088198 -0.4225496540656574 86 50 28
-0.00963577304512822 0.2920919675009735 -0.4264541320760088 86 50 28
-0.015031456612761854 0.2946852306760319 -0.428329860999165 85 49 27
-0.026160404892646497 0.30009989480780486 -0.4288249653849675 85 50 28
-0.02552668410084498 0.29972706331778476 -0.43209939311167356 86 52 31
0.09671575007165709 0.23453184651276748 -0.7195129805119613 156 149 146
0.0907982254187337 0.23739224028014252 -0.7207342817979735 130 122 117
0.08282732832676779 0.24126906567168108 -0.7211567126039085 113 102 97
0.07720980336461179 0.24398186013733109 -0.7224485281591347 105 90 84
0.0721744418586186 0.24640692005019751 -0.7239443156145056 98 82 75
0.06719084694777866 0.24880668865497912 -0.7254431688998462 95 78 69
0.06284433738258738 0.2508914524161504 -0.7271716434964691 94 74 62
0.05760206909734579 0.2534198915304088 -0.7285378249441768 92 71 56
0.05664142450535188 0.2538291455076674 -0.7315572824912782 90 69 53
0.06252111195316297 0.2507189415322697 -0.7440710372507493 88 62 44
0.06484414944302987 0.24943534808406514 -0.7518193005570246 86 59 41
0.056996365398561344 0.25325518473019654 -0.7520872299870152 84 57 39
0.050983446761242675 0.25616678182393715 -0.7530674940214697 83 56 37
0.04582822084506394 0.2586539513834665 -0.7543745087023532 82 55 36
0.04189148269522991 0.2605378810862006 -0.7561597337518461 81 54 35
0.02712525119694442 0.2677213296021938 -0.7568624638394571 81 54 37
0.02629655368523292 0.26806635823228186 -0.7598774842177534 81 54 37
0.025513046556811463 0.2683890253233427 -0.7629096779310843 81 54 37
0.026736484577583954 0.26771721583224706 -0.7667752507878188 80 53 36
0.021962186823050272 0.2700175681855323 -0.7681411443031948 79 51 37
0.021181271852593934 0.27033910252051147 -0.7711666468697652 77 49 35
0.018531832638972505 0.27158677675915616 -0.7734032791395837 74 46 32
0.030029868340055357 0.265294288325981 -0.8086434974263491 78 50 36
0.019748218352262523 0.2703278754606881 -0.8075051242538336 81 53 39
0.01124845664401435 0.2744782961799068 -0.8071174009965527 82 54 40
0.006013217237342477 0.27700986467451605 -0.8081479375274789 80 54 39
0.004262400522851293 0.2778131325962701 -0.8107128205901102 84 58 43
0.0037495194850623997 0.2778716673617164 -0.8205153068174996 82 56 41
-0.004462190263044969 0.28188139001568335 -0.8201429111908577 79 53 36
-0.01923095124768979 0.28914587235841904 -0.8167596739689368 80 54 36
-0.023500927692049804 0.29120058304269103 -0.8181169470693357 82 56 39
-0.02214925215046025 0.29046520149828403 -0.8220372094693633 86 59 42
-0.0076842664476214385 0.28322027068928046 -0.8320004584624627 86 59 42
-0.018489080877828953 0.28845432685123673 -0.8336538889512334 85 55 37
-0.027356502969602146 0.29279230479558455 -0.8328382825371323 85 56 36
-0.015946199467782612 0.2870621255723087 -0.8414766121146323 85 56 36
-0.01596525041547879 0.286941734207602 -0.8481163305067411 80 46 25
-0.019418378736280772 0.2885917703799841 -0.8498082877055655 82 45 23
-0.02669879363078339 0.292143000847769 -0.8496699883393476 85 45 21
-0.035942709521831075 0.29667005430107185 -0.8485692084623094 85 48 22
-0.04586988449109896 0.3015371702358877 -0.8471081289937794 88 51 25
-0.046191601148077244 0.3016330028503056 -0.8502301463684317 91 55 29
-0.025495633777369277 0.2912865051434555 -0.863497931042021 93 57 32
-0.021764769743078005 0.28936794623331263 -0.8686236347620713 91 57 34
-0.01945997981537785 0.2881577132444641 -0.8730710865940501 89 58 37
-0.027486667259423538 0.29208145649210593 -0.8724835469659301 88 59 39
-0.02257267969230313 0.28957448259891505 -0.8782109562667155 87 58 40
-0.02899017995819409 0.2926990731310864 -0.878382367732764 85 56 40
-0.027275312427662533 0.2917818731166869 -0.8825481918994351 83 54 38
-0.028759379779379687 0.29245468061290814 -0.885135847759225 82 54 37
-0.025803868712703147 0.29092052911910876 -0.8899290200130586 79 51 37
-0.025371633133421556 0.29064061461527196 -0.8934742261179569 77 49 35
-0.026356923375508788 0.2910654344919839 -0.896311741322565 75 47 33
-0.031170629752872915 0.2933939309260092 -0.8972200928060434 73 45 31
-0.019555158992035037 0.28755293773450663 -0.9064121151902806 72 45 29
-0.019584454949108675 0.2875021369309135 -0.9097443347864513 72 45 26
-0.022973186683428577 0.2891221177263113 -0.9113680905423902 72 45 26
-0.02322403756806684 0.28918158338812394 -0.9145836251866506 80 53 35
-0.021862382257662696 0.2884389422553213 -0.9186265354900359 81 54 37
-0.02591426458433544 0.2903891814650504 -0.9198901472432354 80 51 36
-0.02786129953770041 0.2912925375826321 -0.92222718455958 81 52 35
-0.025000190913333158 0.28980380147266827 -0.9270509286160321 84 55 36
-0.025647803395382786 0.29006065562408956 -0.9300614566525689 88 57 37
-0.02672547173362974 0.2905315260799363 -0.9328465003200029 91 59 38
-0.027775256914243922 0.2909885704136822 -0.9356436102339396 88 56 35
-0.023519540773336227 0.2888052224942006 -0.9412287040897563 84 52 31
-0.02210886530509508 0.2880375544253802 -0.9453296845986586 83 51 29
-0.02247525905756735 0.28815429468850917 -0.9484961609921082 82 49 26
-0.026129381312468745 0.2899076319167089 -0.9499149510001945 81 46 24
-0.026334854689002766 0.289944377481377 -0.9531613479391718 80 47 27
-0.028903681313713486 0.29115773777160425 -0.9551431356536372 84 54 35
-0.030905487599696725 0.29208893804883107 -0.9574213829955543 90 63 47
-0.03318202860333111 0.2931570576206113 -0.9595454349920304 90 67 53
-0.027281896765064116 0.29015353373959507 -0.9660867406920227 89 66 52
-0.02811534594355076 0.2905029502238319 -0.9689956779182305 88 65 52
-0.04585465348714633 0.29927235374105426 -0.9626911485535753 89 65 53
-0.05164313293628083 0.30209049521767234 -0.9628553682255351 89 65 53
-0.05821749575816951 0.30523588039652644 -0.9658767521054098 88 65 52
-0.05233011994993671 0.3022381487605975 -0.9724398258561953 89 66 52
-0.05534336002651582 0.30367454978208774 -0.9740923721500356 89 66 52
-0.058378633619099986 0.30512212383561793 -0.9757227106374451 89 66 52
-0.06042684900569752 0.3060780335183828 -0.9778939837935288 94 69 54
-0.0685887555679095 0.3100808038644602 -0.9766346598733393 96 70 55
-0.07899706726368352 0.3152037244195001 -0.9740832373454869 98 72 57
-0.07951452099712797 0.31539757772837784 -0.9770712611680905 98 72 58
-0.07371726652232787 0.3123151673632431 -0.9902191447653991 97 69 55
-0.07171621129786758 0.31125312978587116 -0.9946587721921897 97 69 52
-0.07544801479529886 0.3130493603335813 -0.9958199704308974 94 66 52
-0.08191756446864906 0.3162110033382972 -0.9953931788876945 94 65 48
-0.07585904736645681 0.313125575002934 -1.0021754553171334 94 60 40
-0.08236336680966018 0.316304998216107 -1.0017060043672248 90 53 27
-0.0856431696630797 0.3178766278680123 -1.0030869797664876 88 48 16
-0.09804037263915753 0.32399618231722854 -0.9991411626955928 89 44 11
-0.10027013919722427 0.32504479364250694 -1.0010967615097386 89 44 12
-0.10331007541707662 0.3264977115522476 -1.002569845538572 90 45 14
-0.10092450175057537 0.32524400421233374 -1.0072272124693107 91 46 13
-0.11572906673576089 0.3325038892605734 -1.0049728991986668 94 49 12
-0.11312255950764163 0.3311400418112139 -1.009755988362515 94 50 13
-0.10192400985573608 0.3254880523600266 -1.0196754256918654 94 50 15
-0.10394054794455904 0.3264307687522116 -1.021731675378234 96 52 17
-0.1067005499260213 0.3277446939291717 -1.0233353584349356 96 53 18
-0.10877709114593387 0.32871763451507274 -1.0253415216757453 99 56 21
-0.11055201551529785 0.3295401327370221 -1.0275234114200438 100 57 23
-0.11262205516461508 0.33051007001323185 -1.0295210953486365 96 56 22
-0.10857147353174593 0.3284242156756711 -1.035233709440735 95 58 26
-0.09610759303495635 0.32213709871238533 -1.0460950415920263 97 61 31
-0.0992049520051668 0.323619637815164 -1.0474845174092597 96 61 33
-0.10165594350666766 0.3247795879299893 -1.0492602909699402 95 59 34
-0.1148298874834442 0.33129509031193216 -1.0444256850326243 95 59 35
-0.10784673948238399 0.3277436786628854 -1.051991925677966 94 60 35
-0.10648546059720908 0.32699988220213383 -1.0561033852389325 93 60 35
-0.1096607401858765 0.3285221744069634 -1.057402028616325 90 58 34
-0.10949461753560863 0.32837536581504345 -1.0607731247424947 88 57 34
-0.1064855957509065 0.3268081408025096 -1.0659243008034591 86 55 35
-0.10565612804113576 0.32632969403037015 -1.0697213345325312 83 54 34
-0.1058958425359454 0.32638542263673326 -1.0728502914440043 77 50 36
-0.09531636476663 0.3210344075860685 -1.0828089458343104 71 45 35
-0.0997263511203384 0.3231738937229162 -1.0833196675717474 60 36 29
-0.10340255486993473 0.32494693152434334 -1.0842808199998712 49 29 20
-0.10850695795801159 0.32743410213385626 -1.0843194341384488 46 26 16
-0.1131905906748145 0.32971129253916326 -1.0846086070592538 45 23 11
-0.11229218978603256 0.32919821180703623 -1.0884586556406848 55 30 19
-0.11132681519747224 0.32865154901285376 -1.0923567610366547 65 35 21
-0.11030370724117139 0.3280759166335234 -1.096297359176293 71 38 16
-0.11028531330219576 0.3280025727796891 -1.0995936673996929 76 40 14
-0.11125715367877703 0.32842439094884807 -1.1022492179323324 81 42 15
-0.11204638005044336 0.32875492540497553 -1.105021317656997 85 46 14
-0.11146884777519869 0.3284019022002879 -1.108683775809436 86 50 18
-0.1128904444309556 0.32904875117771754 -1.1110415258933126 90 54 25
-0.11481910232907774 0.3299493253373673 -1.1130623827802961 92 58 30
-0.11226466492633559 0.32860727248519656 -1.1180290121829815 94 62 35
-0.11373650276735076 0.3292793609644551 -1.1203482805226692 90 59 31
-0.11455845045255696 0.32962636383398874 -1.1230937655965234 87 57 31
-0.11295512160961332 0.3287598366989953 -1.127448623570204 87 55 30
-0.11090497158262584 0.3276695594544712 -1.1321089566026246 86 56 30
-0.10651132126112395 0.3254062733388826 -1.1383447270169458 84 56 30
-0.10184311560916492 0.3230052079702036 -1.1447832012016164 84 56 32
-0.11328304599439801 0.32866642577470195 -1.1404152096686189 84 57 33
-0.1062287798717162 0.3250708068931515 -1.1484701078845214 83 57 34
-0.1027635346388806 0.3232713200177668 -1.1541279326002245 76 49 32
-0.09968309754336153 0.3216641916471244 -1.1595399825409707 68 48 33
-0.10038362544427437 0.3219498774389633 -1.1623948429829631 86 70 56
-0.1162709493093297 0.3298400000168994 -1.1548927016732409 116 107 97
-0.1215919446563236 0.33244007677598486 -1.154555624200029 147 144 137
0.08039782723752123 0.2608954132218005 0.04491105718038958 145 135 131
0.06793687215820916 0.26687988741650703 0.04149333546375263 130 112 104
0.05621896690118909 0.27250469129620813 0.03813351222000238 123 99 87
0.047227104605051584 0.2768077876249083 0.034873239714022945 117 89 75
0.04324037495625109 0.27868323868619477 0.031747377925221726 111 81 63
0.0384734167175884 0.2809374634320545 0.02861811061666164 108 76 55
0.03439763739506106 0.2828566037654515 0.025515641193581906 107 73 49
0.0302572209442927 0.284807342842966 0.022424277054437673 107 72 44
0.028473023493045327 0.28561492403500804 0.0193796905383483 90 51 22
0.02729281273678888 0.2861294796988953 0.016347531265192162 82 40 13
0.026494073713064614 0.2864589456352857 0.013322295996384003 75 33 10
0.026038175812717945 0.286622035276627 0.010301723127133323 74 33 10
0.029228760624969374 0.28501514467851946 0.007310520346975755 74 33 9
0.020863383865077467 0.2890176005354518 0.004234220059697447 75 36 12
0.02034519188826317 0.2892110803357292 0.0012210763262809204 74 37 12
0.021749555501127532 0.28847118552224255 -0.0017858081498170197 75 37 13
0.02456287657318748 0.28704709543534324 -0.004796688195883983 88 50 26
0.02385615613523759 0.2873319732765592 -0.007817182647842404 88 50 31
0.022292015493421857 0.28803322322864977 -0.010834960816402584 82 45 24
0.023845013576279217 0.28722080787020177 -0.013860049950217189 71 34 10
0.025736596734010797 0.2862438342627005 -0.01689335674480167 71 34 9
0.029781412716755773 0.2842209270009073 -0.019949115925429143 72 39 15
0.02879893066365151 0.2846395678812215 -0.022976494132214215 72 45 28
0.0351295248916248 0.2815059444708872 -0.02607674494839799 82 61 50
0.047388231219674073 0.27549213977730247 -0.029269839305316698 82 66 57
0.05729045423844639 0.2706223288521002 -0.032473034542656896 84 75 66
0.0686704443839517 0.26497395684214214 -0.03883993256777098 87 83 81
0.10074804024187523 0.2487771490436756 -0.07105919184820673 147 146 145
0.08455702169238762 0.2565884337853647 -0.07366405889877552 101 97 94
0.06750244250597465 0.26482065264823007 -0.07618428073367912 88 77 73
0.06623396431500027 0.2653772706566762 -0.07925769348518988 87 71 64
0.061454616069975446 0.2676413707491393 -0.0821869038321132 86 69 60
0.06004156117486352 0.26826853038949633 -0.08524256124470989 91 74 65
0.04866149160227928 0.27374361390500684 -0.08786032056980364 92 74 66
0.03908347674565818 0.2783428473366395 -0.09052285750665913 89 72 63
0.03772943924228399 0.2789420808105963 -0.09354069080218642 94 78 68
0.02572722378687986 0.284721578850259 -0.09603756356246605 92 77 66
0.012077127154181147 0.2913035547546352 -0.09841259752056394 94 74 63
0.010739573380042583 0.2918956974092051 -0.10138311231482934 103 80 65
0.011212477743554342 0.29160696095296795 -0.10444758464978843 110 82 65
0.014289386822072453 0.2900510163521884 -0.10765904907590323 108 79 63
-0.025384498298025082 0.3090692076944811 -0.12038139912965615 111 76 54
-0.02503061730955944 0.3088393029589522 -0.12339196084463626 118 84 62
-0.024759088367156692 0.30864944304548203 -0.1263994719614736 114 79 53
-0.027709109088943307 0.31002803753642405 -0.12918753440522812 98 59 29
-0.030846498872523942 0.3114980308441445 -0.13195372626433535 97 56 26
-0.030068428944770575 0.3110616034156475 -0.1349932171197537 89 51 24
-0.02587426118291275 0.30896154923120933 -0.13828894184152463 86 50 25
-0.031003116837768407 0.3114015720833115 -0.14089574458040272 80 46 23
-0.035984192208717736 0.3137699295436591 -0.1434979230118411 77 46 25
-0.038255983799105525 0.3148189709562989 -0.1462983978799074 79 51 33
-0.03697095258834274 0.314135591324557 -0.14937923080936524 83 61 46
-0.03368246013612232 0.31247614268445667 -0.15263060398402198 79 60 50
-0.03309595984400311 0.3121327835572629 -0.15566740896287834 78 58 47
-0.026792271869893913 0.3090039333964809 -0.15919743884473256 77 57 46
-0.021628869104890425 0.30643023348269527 -0.16265045766605402 78 58 47
-0.01764260042536271 0.30442975061988764 -0.1660174012627162 78 58 48
-0.017441830376396045 0.3042736574432233 -0.16905550565398023 78 58 49
-0.017907580936265724 0.30444234365055717 -0.17203395546359976 78 58 49
-0.013721337075355042 0.30234381147639966 -0.17545022238080016 78 58 49
-0.00972888844122953 0.3003394355561897 -0.17886342405126782 76 58 48
-0.008765990578987054 0.29981147120454343 -0.18199590242705277 76 58 48
-0.011241435678962283 0.30095948764961844 -0.1847916482553735 76 58 48
-0.010732389547531251 0.30065271051302067 -0.18788162791186086 78 59 48
-0.009353303085770204 0.2999217040724541 -0.19106397499935826 79 59 48
-0.0025830894961024614 0.296562069682554 -0.19481498781979778 80 60 49
0.0019532927305184328 0.2942911714447571 -0.1983534152766089 80 60 49
-0.002547361143906024 0.2964266642856938 -0.20093466927002473 80 60 49
0.0028016050041068247 0.2937591502507798 -0.2045802068346993 78 58 47
0.0021126151835091783 0.2940359340965594 -0.2075740007543438 78 58 47
0.010262785977733002 0.290001641174635 -0.21156456996526268 79 60 49
0.01031456586646598 0.2899168559584856 -0.21465627817496838 79 61 49
0.008837241878538515 0.2905779273236134 -0.21757167049038895 79 61 49
0.014717951225392822 0.2875898797254853 -0.22444900615437047 79 61 50
0.019098859611299285 0.2853926925918941 -0.22807965569485167 80 62 52
0.02192644361653187 0.2839530957459771 -0.23153536510062972 80 62 52
0.0240209814519953 0.28287098178579057 -0.23491057817178174 79 61 52
0.026252129533813715 0.28172203907619736 -0.23831159288487597 83 64 56
0.029213475337558414 0.2802165693388939 -0.24181524864555928 87 67 60
0.03979192005467429 0.27499330298226987 -0.24632039451170334 87 68 60
0.04669709996176994 0.271562193668604 -0.25037942638183847 90 70 62
0.04492414648087767 0.27230560941557935 -0.2564671199066205 91 70 62
0.04671600504124893 0.27136983231677025 -0.25987492897751935 94 72 64
0.049167494097742466 0.2701118640944002 -0.26338164465311054 95 74 63
0.05165391709961528 0.26883665033979415 -0.2669030498608056 95 75 62
0.054150149111200065 0.2675564556659368 -0.27043576382249324 96 76 62
0.0596419630543143 0.26481326255864707 -0.27440887849511214 99 79 66
0.06338423931200637 0.2629240730776183 -0.2781478495062266 100 79 67
0.06441569588059219 0.26223482385122965 -0.2879151974355392 102 83 73
0.06802700438371129 0.260408847878743 -0.2916737513366956 101 81 73
0.07190759108935595 0.2584510571108303 -0.2954876134031034 104 84 78
0.07180657987441891 0.25843820561486175 -0.29869615476362255 109 90 84
0.06849639561898342 0.2599932937617535 -0.30140042185960725 98 80 72
0.06343376378280197 0.26240485638911015 -0.3038157045821799 87 69 60
0.06087879141830575 0.2635913524976346 -0.30661843473188705 82 64 54
0.05478576105617388 0.2665069939553417 -0.3088383131898679 80 57 47
0.052755253194959564 0.2674375780664639 -0.3117062881920616 82 57 44
0.03656291489378365 0.2752899137270329 -0.31221643886279693 85 57 41
0.04165331501092329 0.27274058147823027 -0.3162437387324353 92 63 44
0.042527270537291995 0.2722519659261018 -0.31957511777780306 100 73 52
0.04720900441189351 0.26990181953335984 -0.3235631110405145 104 77 59
0.04487084261048988 0.27098326866843486 -0.3263541662766037 103 77 61
0.08580956542116228 0.25027475100350477 -0.3694174320898672 98 93 91
0.08800400989123458 0.24913776763049175 -0.373122315806108 87 77 74
0.07955597046957008 0.25320821342083016 -0.37475480840395825 86 73 69
0.07316792904060697 0.2562711270428118 -0.37676579787038555 83 68 63
0.06630180705176159 0.25956841002639225 -0.3786607919339508 82 66 60
0.06127343949301017 0.26196668778341137 -0.38090231255262175 90 74 67
0.0720054827970056 0.2566512375787184 -0.3863199961003434 91 75 68
0.07114492117881772 0.2570095060548224 -0.3894082319607522 85 69 61
0.047176616727239204 0.2686796001828804 -0.38773377842991336 82 65 57
0.04228459622185862 0.27101233950878123 -0.38994083952855124 81 62 54
0.03731333386023265 0.27338417742487864 -0.3921156185094736 76 54 46
0.030094640094105014 0.2768567221878056 -0.3937995953275921 76 53 44
0.012429072691584706 0.28544513070237854 -0.39323426353055324 81 58 48
0.014662655947145407 0.2842902379605511 -0.3968824154854037 83 61 50
0.02065762285506683 0.2812931190579 -0.4013542105058524 85 62 52
0.009151321266901172 0.28686699138806726 -0.4020282610973623 82 55 46
-0.014108041311437627 0.2980774973477761 -0.40633376247493835 88 60 48
-0.018030196581859906 0.2999385560478325 -0.4085803913140578 100 72 57
-0.02271351840464056 0.30217277142975935 -0.4106418159586414 100 72 52
-0.02092845297180007 0.3012380069401049 -0.41416811216823246 86 52 30
-0.009629523885081537 0.2956413314886399 -0.41989548204415145 84 48 26
-0.009843163840215108 0.29568537701778425 -0.4229894530410932 85 49 27
-0.0061854626448670375 0.2938322028333854 -0.42699020110971236 85 49 27
-0.011057365242284192 0.2961591007822635 -0.42899370790619396 84 49 27
-0.010451345765622816 0.2958013948271421 -0.4322829202131371 86 52 31
-0.019012241351448675 0.2999369355691583 -0.4333816152041437 90 57 40
-0.012869557470551476 0.29686532995675435 -0.4379966264734571 94 67 52
0.09649181663732229 0.23814586591582268 -0.7292725322862731 149 144 142
0.08903342718328644 0.2417556645095615 -0.7298746942156012 125 118 114
0.08367067230516152 0.24433288027734534 -0.731256947648667 108 98 93
0.0794902680232287 0.24632754289830833 -0.7330779311586296 99 87 79
0.07438810954774552 0.2487769292880568 -0.734527416369096 97 83 71
0.06869545482544681 0.25151780294785003 -0.7357295236402097 97 80 68
0.0662254287765475 0.25266994593182207 -0.7381749715273783 94 74 61
0.06212428100375102 0.25462660958439487 -0.7399708678771539 91 68 55
0.07297926047663815 0.24920749905275122 -0.7476677356344228 89 63 50
0.07008052499126337 0.2505711089991123 -0.7499417381022371 88 62 48
0.07182746501998338 0.24964342069678355 -0.7540608136707322 87 60 46
0.06980225771834948 0.2505763193821974 -0.7566753988513264 87 59 45
0.047067509793411594 0.2617257491012918 -0.7509427743720212 84 57 40
0.04467345247637579 0.2628415811572339 -0.7533583836324613 83 56 38
0.04670722296276096 0.26177290689198673 -0.7575663928198363 82 55 37
0.04334689174522366 0.2633656467389184 -0.7595810859134879 81 54 37
0.04547967363320743 0.26224795865649775 -0.7638377647735176 82 55 38
0.04243651587589613 0.26368439743527083 -0.7659715646502809 82 55 38
0.03074911933174145 0.26938722911195834 -0.7645188267402784 81 54 37
0.02752130044774545 0.2709154899455307 -0.7665406604783932 81 54 37
0.027733518142736075 0.2707459392789833 -0.7699882257790527 80 52 38
0.024253634902055184 0.27239890648731113 -0.7718899688301425 79 51 37
0.017317728214024174 0.2751116885111955 -0.8058398314388737 79 51 37
0.007749297158745474 0.27977430309023826 -0.8049756994246333 80 52 38
0.0037718247478655403 0.28167507331941316 -0.8065561090119078 79 52 38
0.007605891132577959 0.2797161304449667 -0.8116005687304108 84 57 43
0.008732429817702333 0.2790948701641395 -0.8154504766491887 84 56 42
-0.007215054803545628 0.2866551125352473 -0.8249389459210723 85 58 42
-0.020010998474942768 0.29291706295922443 -0.8224046637499959 86 59 43
-0.013876596740263189 0.2896922367230128 -0.835170540845274 83 55 37
-0.01140993811658643 0.2884083217323316 -0.8396404395714787 86 57 37
-0.009684022987630495 0.2874905475944918 -0.8437747788537873 90 59 39
-0.02183278064121738 0.29343506766350813 -0.8414058388417895 91 58 37
-0.024249509163548462 0.29456659665377005 -0.8435783897255698 86 51 28
-0.019658099488135752 0.2922315243518362 -0.8490583783962046 85 47 22
-0.02250226159945279 0.2935745469765195 -0.8510259892911274 87 47 21
-0.03439500204349879 0.29939449609559254 -0.8486706301123154 89 50 23
-0.041103635231413 0.3026502680871514 -0.8487535481650942 91 54 28
-0.026201673188494305 0.29521317588893975 -0.8591963186505717 91 55 29
-0.020457049159862378 0.292306529732231 -0.8652792442410323 93 58 33
-0.01719065301069987 0.2906258916736514 -0.8701851463703006 91 59 36
-0.009927774016190775 0.28696702369835747 -0.8770473968556759 88 59 38
-0.018378092702285756 0.29108504730244156 -0.8762709922071492 88 61 41
-0.026053702766231944 0.2948201720613682 -0.8758439485183428 87 60 43
-0.014721046580759352 0.2891460688537599 -0.8847360153177174 84 57 40
-0.021783544682447434 0.2925780238610385 -0.8845927096489377 83 56 39
-0.02503980265779175 0.2941259638129257 -0.8863102355198901 84 57 40
-0.02230691957930918 0.29270862737613784 -0.890995585668529 80 52 38
-0.019243485791861047 0.291127382149204 -0.8958577059365099 76 48 34
-0.029306914733707362 0.29604651368733875 -0.8941553205567552 74 46 32
-0.02201460094630698 0.2923708811084552 -0.9011457398951299 73 45 31
-0.019585627825893532 0.2911034456997302 -0.9057099075736758 72 45 29
-0.016200344055794465 0.2893621210190215 -0.9107692886192112 72 45 27
-0.01805298457588127 0.2902151828585469 -0.913178973691567 74 47 28
-0.01795771667468524 0.29010336199738274 -0.9165775574767676 79 52 33
-0.02308552891738635 0.29257919211580585 -0.9173019772989391 80 52 34
-0.022050274608619753 0.29200175376735915 -0.9211778617635541 82 53 35
-0.02175971585128676 0.29179321187278034 -0.9246748161192205 83 54 36
-0.01928415570919148 0.29050185914384696 -0.9293062171214228 85 56 37
-0.01574662928781997 0.2886840092815527 -0.9345005740951556 89 57 38
-0.014895171196918511 0.28819712815597687 -0.9383082877898119 90 58 37
-0.01667295393302334 0.28901334224969 -0.940743922561692 88 56 35
-0.02287845247988489 0.29202442074327295 -0.9408474127476378 84 52 31
-0.021214713498286422 0.2911349505451085 -0.9450794968942613 83 51 30
-0.021953682628270348 0.2914364976883509 -0.9480475860132671 83 51 30
-0.021829779512884846 0.2913102596714971 -0.9514727800244677 82 51 31
-0.02452599154777357 0.2925822908717483 -0.953396557014798 84 54 36
-0.026959725922279763 0.29372433453481656 -0.955452087421819 87 59 43
-0.026691462586330525 0.29352658796575426 -0.9589506071814191 92 67 53
-0.027562757882411998 0.29389394856670437 -0.9618376971399067 91 67 55
-0.023552615292321034 0.2918402494202531 -0.967362297465896 89 65 53
-0.02680714950946139 0.29338962508712046 -0.968962015472145 89 65 53
-0.04300303429405089 0.30135880256664915 -0.9635047644227343 90 66 54
-0.04778326539921988 0.3036659510745478 -0.9642247190989242 89 65 53
-0.05599337108685211 0.3076750703458813 -0.9630475720876902 88 64 52
-0.05783314992530939 0.30852404357620367 -0.9653454786075234 89 65 52
-0.04698310936034404 0.30307644298681147 -0.9746434775408287 89 66 52
-0.05105453784334165 0.30503258724515586 -0.9757182884183517 87 64 50
-0.055008860025210375 0.30693088420583375 -0.9768442320374553 86 63 49
-0.058783905625208716 0.3087404654692198 -0.9780566436598427 91 66 51
-0.06590416352735966 0.31221067764211335 -0.977383987418315 95 69 54
-0.07427223298847012 0.31630077588298455 -0.9759849917133526 95 69 54
-0.061995952720811265 0.31014320143166274 -0.9861882771761021 97 71 57
-0.06251986471066326 0.3102116437049342 -0.9958268887019018 97 69 55
-0.07047628172415538 0.31409859773843846 -0.9945972262154966 97 69 52
-0.07049020492539057 0.31404183811379666 -0.9978898779856133 97 68 54
-0.08217828591542377 0.3197829086037593 -0.9944722031306301 97 68 51
-0.0875280802978679 0.3223767289507427 -0.9946675297757873 94 60 40
-0.092807061368502 0.32493574097685896 -0.9948848854900075 90 53 28
-0.09721591142946212 0.32706287519983657 -0.9955887972643478 89 49 18
-0.085522613398912 0.32119095291407573 -1.0056580546418143 88 43 11
-0.09452057574352334 0.32559807117499584 -1.003679733728451 88 43 12
-0.09800768182057314 0.3272676912215655 -1.0049000455609214 89 44 13
-0.0974311359824532 0.3269183164315906 -1.0084992261326216 91 46 13
-0.10189194917083377 0.3290721141495499 -1.0091288646334848 93 47 14
-0.10478998901758498 0.33044955728713915 -1.0106682951194783 94 49 13
-0.1056013167652902 0.3307900697930091 -1.0134377629569662 99 55 18
-0.10024129656947733 0.32806316457917417 -1.0198837067686308 101 58 23
-0.0993037427031975 0.3275341701815842 -1.023707465684627 98 57 22
-0.10158911004766417 0.32860725909381705 -1.0256030939185723 95 55 19
-0.10602621452019384 0.3307502420349986 -1.0261966038907582 95 54 19
-0.10495746239773311 0.3301560400792326 -1.0300983428185901 94 54 19
-0.10706626775343954 0.33114171407161397 -1.0320813353660085 96 57 22
-0.10551875755370599 0.33030934189049277 -1.0362790404025803 96 60 29
-0.09245450357480012 0.32374947344609667 -1.0475031912925108 98 63 35
-0.09946356749540083 0.3271719439370465 -1.0465066366829592 98 63 36
-0.10254875670592709 0.32864324610919365 -1.0478911380481721 96 60 35
-0.11448622500817303 0.3345180329976419 -1.043818946060916 93 57 33
-0.10377754849920183 0.3291282333355641 -1.0536787627981672 94 60 35
-0.10450153492901022 0.32942527249409437 -1.0565034280805634 92 59 34
-0.10464226657744247 0.3294321498733669 -1.0596890240521792 89 57 33
-0.10423002626791576 0.32916386800627007 -1.0632200655286062 87 56 34
-0.1046915020956111 0.329330291330984 -1.0662082237718704 86 55 36
-0.1030113724410675 0.32843096770678804 -1.0705385352513044 83 54 36
-0.10192357817843038 0.3278262824595627 -1.0745044163372388 77 49 36
-0.09290804059541348 0.32327571886944867 -1.0834760784468964 69 43 34
-0.09764719657193241 0.32557090297384145 -1.0837823994425335 59 36 28
-0.10141448043079078 0.32738262263780504 -1.084688607633419 50 29 20
-0.10687163275937188 0.3300358594912837 -1.0845061016123712 45 22 12
-0.11031454302045263 0.33168665284806614 -1.0855899512176737 46 23 11
-0.10911037557849398 0.3310238790214126 -1.089637924278907 52 25 14
-0.10635094066953821 0.3295865546706337 -1.0946910898990818 69 37 22
-0.10747276617834023 0.33008177779881054 -1.0972558723827752 74 39 16
-0.10629242494701997 0.3294305403920439 -1.1013055238076181 78 41 13
-0.10740610917140671 0.3299217320793689 -1.103874372681901 85 46 18
-0.10558603192097325 0.32895169843900507 -1.1083476786221274 85 46 15
-0.10639176211351446 0.32928948791729235 -1.111117412849544 84 48 16
-0.10858471578254668 0.33031837593651797 -1.112978285017969 93 57 28
-0.11149994783497134 0.3317072409292371 -1.1143583602848666 97 62 36
-0.10964717719169816 0.33072068113585806 -1.1188654584856188 100 68 41
-0.11112980002601659 0.3313959079759753 -1.1211804488204005 95 64 38
-0.11261551102102674 0.3320727558708098 -1.1234891358077093 90 60 35
-0.11081839127416475 0.33111367475902326 -1.1279725223456676 88 56 34
-0.10793448033086499 0.32961278139405475 -1.1331879242490248 88 57 33
-0.10465312931679578 0.3279135455772986 -1.1386814667952756 86 57 33
-0.10180504715889652 0.32643000310877796 -1.1438992398165049 86 58 35
-0.10878695693079644 0.3298465126248247 -1.1425282342920915 86 59 35
-0.1033589563139169 0.3270766535249209 -1.149489745684358 83 58 36
-0.09833121299714402 0.3243774359634237 -1.1628635841133546 94 80 67
-0.11494981210658345 0.3326007374690752 -1.1548728056052644 126 117 108
-0.12012033090950663 0.33511575081878425 -1.1546409937712703 155 151 145
0.07480387201276925 0.2670123236654249 0.041562021102637695 131 121 115
0.06572828428353238 0.27133918893106607 0.038258544631037325 125 105 99
0.0573205943719825 0.27534383012947605 0.03499884026684892 123 98 87
0.05276662667030045 0.2774865043978189 0.031846978060390246 118 91 76
0.04671987158582905 0.28035093726315374 0.028679714568947953 114 86 65
0.04165827651333011 0.28273954416922015 0.02554865848045014 108 77 54
0.03889808845701244 0.28401597823393043 0.022470272576223964 105 71 45
0.034524983298234585 0.2860722720445984 0.019376230607253978 102 66 39
0.03904965391171872 0.28382720400014866 0.016410112914277915 96 58 33
0.03574789060578101 0.2853657470598113 0.013339725450343764 92 53 27
0.03489025728633956 0.28572270969756275 0.010302412009856536 88 51 24
0.03207805657697613 0.2870248179317735 0.007251107205847441 87 51 24
0.022492614571911138 0.29160244111269673 0.00416516064056539 85 49 22
0.020479979209759122 0.292518393649741 0.0011447763176577284 80 43 17
0.027076487334184177 0.2892707494682484 -0.0018444945712023757 82 45 19
0.025888398330923823 0.2897878285186619 -0.004867267361104594 84 48 22
0.024620443811940437 0.2903435889259176 -0.007887368610534209 83 47 23
0.024870598978676037 0.2901650474106201 -0.010907556283161784 81 45 21
0.03224904661021992 0.2865380613469757 -0.013955746278243463 81 45 23
0.0312714236098838 0.28695320658134654 -0.016985484488755816 81 47 26
0.040077112871565054 0.28263496640477576 -0.02008123465682666 83 57 39
0.03701737206881314 0.2840573256256979 -0.02310538475958171 84 65 52
0.044139260403214725 0.28055307126393547 -0.026225188674467055 91 72 66
0.05386702761193332 0.2757873021313677 -0.029401008457939734 90 76 71
0.06090469667737489 0.2723227726898989 -0.032573897495622575 94 86 82
0.06569795102482365 0.26994403419822005 -0.03573726473113269 104 100 98
0.09193567156794596 0.2564648676283933 -0.07710355134355264 122 116 115
0.08366780877161106 0.26040983908927223 -0.0799452710702746 98 87 84
0.07686659713548744 0.2636447766611994 -0.08281973055942407 93 82 76
0.07243195225186336 0.2657335379945611 -0.08577200128425025 97 84 77
0.06698217814733083 0.26831441147371954 -0.08866651599991204 104 91 84
0.05432499170824155 0.2743880046914866 -0.09121783059069052 103 89 83
0.05118435418755912 0.27585077204868136 -0.09417485700798228 107 92 85
0.03360757482246923 0.2843097607696058 -0.09642076760996418 92 74 65
0.01845847136981095 0.2915932685706043 -0.0987311873675828 101 78 68
0.009093958743432953 0.2960740201398562 -0.10129277172749604 102 76 64
0.012420811310323118 0.2942877407394772 -0.11058806924393637 108 79 62
-0.02343914145889464 0.31133053886959167 -0.1264618310907071 107 71 46
-0.025204306345829416 0.3121296674598475 -0.12933126676410572 99 59 30
-0.02910228690926242 0.31396337833007937 -0.13204573753542698 90 51 22
-0.027528429254898096 0.3131430981693427 -0.1351431805605139 84 46 20
-0.020503976010312674 0.30967860448786505 -0.13864970316788258 85 49 24
-0.03011560723211129 0.3142843463469853 -0.1409246863791697 81 47 23
-0.027759673392863254 0.3130844376126525 -0.14409262588231184 76 46 24
-0.03293620588866107 0.3155390844971414 -0.1466754443670855 80 53 34
-0.032354749976113595 0.31520009482517475 -0.14970613090685495 82 60 45
-0.029052635205003438 0.3135408119692662 -0.15296393915261047 80 62 51
-0.025563804787979122 0.31179067992763115 -0.1562498787795306 81 61 50
-0.020033658331294293 0.3090495946232975 -0.15972378591397005 80 60 49
-0.021379699036044753 0.30964554251105897 -0.1626169936922446 79 59 48
-0.01298258199603508 0.30551231591682865 -0.16637460366956852 79 59 49
-0.011182007176859077 0.3045806347413986 -0.16956333634827891 79 59 50
-0.009010034838099326 0.3034685156536576 -0.17279380708991435 79 59 50
-0.007410510656557248 0.3026341477529237 -0.1759790587363233 78 58 49
-0.004844456455240592 0.30133038219397057 -0.17926366899652643 76 58 48
-0.0031079038191180047 0.30042919194365325 -0.18247739587567882 76 58 48
-0.007832387317535508 0.30266524251165905 -0.18505722315857914 77 59 49
-0.0027095628509098135 0.3001195563198108 -0.18861615812808552 79 60 49
0.002279634924658394 0.29746333032820993 -0.2013692420384819 81 61 50
0.006381492157889551 0.29541232544621504 -0.20488378631131926 79 59 48
0.011117032621943301 0.2930531788622749 -0.20848404181113667 78 58 47
0.011429955941341177 0.29284239980227844 -0.21160274402553222 81 61 50
0.026782681069870043 0.2852054561609425 -0.22267331838605556 83 65 53
0.02927255733426236 0.2839360840461735 -0.22608669472472104 85 66 57
0.033533884416042645 0.28180558849429294 -0.22972490010715696 85 67 59
0.04149126406607915 0.2778783657616668 -0.2338338705196792 88 69 61
0.050084753703070105 0.2735209389739532 -0.244373477778362 88 69 63
0.05386720591403238 0.27150088778198084 -0.2543721398570261 91 74 66
0.056246818403300806 0.2702832877300004 -0.25786749074528253 93 76 68
0.058989514489414675 0.26888893876630626 -0.26142202556330496 98 81 73
0.061741284422884894 0.26748997147936776 -0.2649885984774175 101 85 78
0.06470590671418903 0.26598727416832435 -0.2685958296664722 104 88 80
0.06719218282899184 0.2647170230002197 -0.27214674088668067 105 89 80
0.06995859278483767 0.26331031724349163 -0.27574780645805036 105 90 81
0.0762606316775407 0.2601834519110851 -0.27987360890485735 106 92 85
0.088030599122779 0.25439602447329474 -0.28482652614791565 110 96 90
0.08562724047554139 0.25550352396399556 -0.28771272989363494 109 94 90
0.0855253556619949 0.25549134652161787 -0.2909384250145033 102 90 82
0.08310621881737829 0.25660670953988124 -0.2938124672369502 106 94 88
0.08653476289614456 0.25487656705114803 -0.29757973141732397 128 115 111
0.08362367826608787 0.2562314130082742 -0.3003734266559068 120 106 101
0.0798569598244786 0.2580028535249429 -0.30302384782065855 104 88 81
0.06839511164744594 0.2634585815959109 -0.30765818599029643 86 69 59
0.06476867346089521 0.26516252598352563 -0.31028989264548784 82 62 51
0.06173933686385342 0.26657599893539197 -0.3130085726892303 85 62 49
0.050045419951769934 0.2721472036777905 -0.31747356779983166 99 71 52
0.050697628778598396 0.2717687534133073 -0.32077916654559313 104 76 56
0.08570930503944015 0.2538492520972193 -0.3724550484671712 151 148 147
0.0854117620380886 0.2539318237878605 -0.3756749451530885 131 125 123
0.0813845319797851 0.25583242780942667 -0.3781597399142037 112 104 101
0.07744681165104768 0.25768963708265835 -0.38064975412792806 101 90 86
0.07342335386767193 0.2595888789056189 -0.38311027803788916 104 92 87
0.08125408495095691 0.25570884391203047 -0.387957795875478 94 82 78
0.07446022612135854 0.25895897468500856 -0.38984816293171926 86 74 69
0.05252550336915696 0.2695924724113355 -0.3885985903572327 82 66 59
0.04799468251269474 0.27174038387620586 -0.3908879447058983 81 62 55
0.04344371159873039 0.2738983965845452 -0.39315867789133924 82 61 55
0.036486268634293294 0.27723036196988954 -0.3949068097819442 80 58 49
0.021471154696375706 0.2844928930006837 -0.39491661496516395 82 60 49
0.01948313197597932 0.28540199908319974 -0.3976714986565439 84 62 51
0.020519846963298304 0.28483569366362743 -0.4010753455124069 86 64 53
0.007191187438861088 0.29127744017384527 -0.4013505679603129 87 61 52
-0.013826008370724854 0.3013520367731301 -0.40614205305678963 87 59 46
-0.01485709689969203 0.30179559143261175 -0.4090380324320092 99 71 56
-0.014649587204273881 0.30163473209153885 -0.4122127999074043 97 69 49
-0.017134706466373315 0.30278797091446213 -0.41477399994577124 89 55 33
-0.008733897902376123 0.2986281064051876 -0.41983600395023885 84 48 26
-0.006827576317951903 0.29763772397213956 -0.42342111951599143 83 47 25
-0.021806131900043296 0.30483006031215737 -0.42618703733312596 83 47 25
-0.019852855370952036 0.3038169211190518 -0.4297745117875443 84 52 32
-0.00912853495316282 0.29852115404760665 -0.4354681415172917 88 56 42
0.10099421454026275 0.2395030719272233 -0.7373865495549955 165 163 161
0.09539513704769798 0.2421864832817722 -0.7386896571171584 135 130 126
0.09024664088500448 0.24464898118738276 -0.7401486496258394 113 106 98
0.08365687015050947 0.2478196441264146 -0.741028754402481 103 92 84
0.07808301545144594 0.2504917657344034 -0.7422840808918355 97 83 74
0.07164895688632619 0.2535867677873448 -0.7431822340350507 96 79 69
0.0692170415980434 0.2547162445996835 -0.7456399099871877 93 73 62
0.06349469860463357 0.2574623093906629 -0.7467839502973929 92 68 56
0.05118756548704153 0.263443801711861 -0.7452824345429805 89 65 52
0.05182868986199542 0.2629351395538225 -0.7557037030844695 85 60 44
0.04779805679938295 0.2648513029932159 -0.7574582423594636 83 58 42
0.04391796206280793 0.26669373440210054 -0.7592609410989364 81 55 39
0.04055773744374258 0.2682808908981884 -0.761263975244677 82 55 38
0.050953073223913944 0.26310688870744814 -0.7689186276210458 82 55 38
0.05373717152976461 0.2616736004044553 -0.7734658432857247 82 55 38
0.0388712589099429 0.2689169537034188 -0.7706944274921248 82 55 38
0.03346380986781833 0.2715111425122415 -0.7718155694974164 79 51 37
0.032461310491217026 0.2719398695081767 -0.7747639961564362 77 49 35
0.03256403094621525 0.27182518824194946 -0.778175360631238 75 47 33
0.02658004671984838 0.2747035891897032 -0.7790159331384762 75 47 33
0.03451375459643397 0.2707379108344647 -0.7857442316768605 75 47 33
0.017627040766070204 0.27853178168469894 -0.8053806349687989 78 50 36
0.011506607144224124 0.2814796684714357 -0.8060382364216182 79 51 37
0.004190780311950259 0.2850162506993253 -0.8061452030546095 79 51 37
0.007505980170078648 0.28332106072855784 -0.8109554315215084 80 52 38
0.0053580124460431144 0.2843146013448502 -0.8133392344924134 81 53 39
-0.012513583132542243 0.29247958984228944 -0.8385004748451343 91 61 41
-0.013466429165831163 0.2928856499876644 -0.8413780370944798 91 59 38
-0.012555061588402028 0.2923733846845684 -0.8451277467184551 89 54 33
-0.017383522741914494 0.29468883189005396 -0.8461800661931527 88 51 27
-0.013240342568053537 0.2925842720349389 -0.8514564164290102 87 47 21
-0.018162654601414648 0.29494627259425404 -0.8524479436017254 89 49 20
-0.02819587759811177 0.29982709907159266 -0.8509878688517133 91 52 24
-0.041726485767600255 0.30643214155547877 -0.8478192567824528 91 55 28
-0.034897609822328264 0.3030041220143141 -0.8543765339445661 92 56 30
-0.014450445072138218 0.29286344859912794 -0.8675245362968821 93 58 35
-0.01352287710236616 0.2922156043854599 -0.8779789264146091 88 61 43
-0.011660500725389746 0.2912338035605234 -0.8822292682333167 85 59 42
-0.015566259558573551 0.2930322506508815 -0.8869920520028283 83 56 39
-0.01262691056468613 0.2915191535589869 -0.8917867374517795 83 56 40
-0.012617880663444367 0.29145093973554576 -0.8951377485263227 81 53 39
-0.011598631748458387 0.29088445872070184 -0.8989942233585125 78 50 36
-0.013678788205737556 0.29184660617019803 -0.901304193370394 75 47 33
-0.01570381924563895 0.2927816816832104 -0.9036355834804355 73 45 31
-0.015055819419852467 0.29239825391579594 -0.9073092842262044 72 45 29
-0.014931359457833922 0.29227303436259294 -0.9107218570141578 73 46 28
-0.013805406394998374 0.2916536638622975 -0.9146453744291548 78 51 32
-0.013631405259390498 0.29150388848928577 -0.9180890744252957 80 53 34
-0.01774467675271293 0.2934696179496421 -0.9193400485153851 80 52 33
-0.017086681554028506 0.2930810699602195 -0.9230287350907515 81 52 34
-0.016858122248542537 0.29290438089266885 -0.9264999504685104 81 53 33
-0.015203242666964233 0.2920236780530936 -0.9307118166992674 83 55 34
-0.01280882572062549 0.2907777980631019 -0.9353156200347437 88 56 36
-0.013498183458889083 0.2910539526964193 -0.9383221844612506 88 56 35
-0.01701776361875613 0.29272730463971847 -0.9398467503183593 86 54 33
-0.02237122835295234 0.2953062677666876 -0.9403965222829445 83 51 30
-0.023412560583626455 0.2957565351582592 -0.9432002360790176 82 50 29
-0.02251196801540735 0.29524798197207386 -0.9470286579724878 84 52 31
-0.020084136149270494 0.2939851732757885 -0.9516726714797847 83 54 34
-0.021510490198077013 0.2946255239133723 -0.9542742851666115 85 57 42
-0.021749191750510113 0.2946793913510717 -0.9575069362893608 85 61 47
-0.021854128714559898 0.29466717848791074 -0.9608119755372576 95 71 59
-0.02054163183432543 0.29395480086090064 -0.9648812476935213 93 69 59
-0.025954438262841033 0.29650053503966933 -0.9686815752768781 90 66 55
-0.03630632673343075 0.3015509756321397 -0.9664091474398296 90 66 54
-0.03708670769871153 0.3018728952903316 -0.9693245098869135 90 66 54
-0.05167796103894654 0.3090192321170336 -0.9646722923210186 90 66 54
-0.05238216424089812 0.3093040611349942 -0.9676004574453474 90 67 54
-0.04978903053941826 0.30795935517766854 -0.9723463869640219 88 65 51
-0.0435747932536249 0.30482473787811054 -0.979108079350172 85 62 48
-0.04864812192434778 0.3072688190690141 -0.9796254074011521 86 63 48
-0.055865713738124434 0.3107731749546923 -0.978929902167117 92 67 51
-0.06208682053446897 0.3137854136753889 -0.9787657373576628 95 69 54
-0.06912271492013009 0.3172008933379316 -0.9781222087429172 95 69 54
-0.060780880438562494 0.3130137774527171 -0.9861116984477823 96 70 56
-0.08545102382642496 0.32490008145113286 -0.9885518628302603 97 69 55
-0.08997251630869535 0.32707427549508716 -0.9892249366606359 97 68 52
-0.08526801721627195 0.3245601139148107 -1.0017493182762722 88 47 19
-0.08255448676357605 0.32315506581892667 -1.0066058338891584 86 40 10
-0.09134055844671428 0.32744003934304067 -1.0047580767336282 87 42 11
-0.09401548135527446 0.3287014755632657 -1.0064590067186658 87 42 11
-0.09600996126025987 0.3296263310951528 -1.0085511975472212 89 44 11
-0.0992886437321704 0.33118689501169 -1.0098798500352606 92 47 14
-0.09972476031516293 0.3313406928831769 -1.0128793593053758 96 52 15
-0.10131630599385376 0.3320664359187132 -1.0151928143205902 99 57 19
-0.09876075377245908 0.33073928620263415 -1.0199713736238243 98 58 22
-0.09904886081581184 0.3308197510899664 -1.0230622964923008 98 58 22
-0.10093787468710161 0.331692839036017 -1.0251940782075575 95 57 20
-0.10204889332861045 0.3321808123394988 -1.0277879001630317 94 55 18
-0.10241986970377195 0.33230237942634455 -1.0308253497290971 95 56 20
-0.10420939853215705 0.33312644537074554 -1.0330044578959832 97 60 26
-0.10558144549192784 0.33374385189997474 -1.0354316144665439 99 65 33
-0.10704250129937509 0.3344054162907702 -1.0378007831124045 101 67 40
-0.1088734853871453 0.3352502971268759 -1.0399398321180549 100 66 40
-0.09795546141957934 0.32977980820580544 -1.0498863104896536 96 60 36
-0.10970124038231352 0.3355362883463019 -1.0459436114889091 93 57 33
-0.10109535476154574 0.33121050465908863 -1.054507709758875 93 59 34
-0.10182693813125858 0.33151059050420034 -1.0573302100969764 91 58 33
-0.10235238778847744 0.33170855870794436 -1.0602793080584807 88 56 32
-0.10181882425955639 0.3313817389710682 -1.0638870919159038 86 54 32
-0.10086348680338084 0.3308458241110285 -1.0677618015021644 83 52 32
-0.09877848294059713 0.3297499166596457 -1.0723492638371783 79 50 31
-0.09009463575909042 0.32532003990848946 -1.0843975517053008 66 40 30
-0.09339377398588214 0.3268925416010282 -1.0856189519976982 54 30 22
-0.09892100195613227 0.32956988821663347 -1.0854163258304697 50 28 17
-0.10670343501844098 0.3333657706488519 -1.0837594746395844 49 26 15
-0.10652428946432309 0.33321446161643614 -1.0871530683803559 50 25 13
-0.10765033165563763 0.3337103342007669 -1.0897136940129615 55 28 14
-0.1050447873869208 0.332355683779676 -1.0946664986776975 70 37 19
-0.10445026413165184 0.33199819665960606 -1.0983362965534897 77 41 16
-0.10219308968754029 0.3308159677203004 -1.1030835066813158 84 46 15
-0.1065758170247187 0.3329271557240914 -1.1035406644781258 89 50 20
-0.10901127314484226 0.33407265563746724 -1.105247247216503 89 51 20
-0.10321761898634764 0.3311357842944471 -1.1123074524831296 89 53 21
-0.10685492122582853 0.3328775716803141 -1.1132287471694593 94 57 30
