ply
format ascii 1.0
element vertex 684
property float x
property float y
property float z
property uchar diffuse_red
property uchar diffuse_green
property uchar diffuse_blue
end_header
0.003179637763896327 0.24418013077193576 -0.7168502392784533 70 37 16
0.0014004574146916846 0.24541594692713153 -0.7193770404262644 73 40 19
0.0026559040843813705 0.24439902929927487 -0.723249072655063 67 35 14
0.005492820250026613 0.24220778639910556 -0.7278351436000432 65 32 11
-0.00013595519369322823 0.24630194908865055 -0.7286309712396277 63 29 10
0.0002477549455752043 0.24593209816506137 -0.7321189376536502 59 26 7
-0.0002908587643293617 0.24624708510516755 -0.7351919035910668 58 25 8
-0.00018308708162846632 0.24608204673179204 -0.7385586567106244 58 27 7
-0.001665841516734122 0.24709825129716428 -0.7411997630186192 62 29 8
-0.0025303853652935554 0.24765538913622542 -0.7441204798712112 67 32 12
-0.0067853381663324636 0.2507310168751599 -0.7454740858626611 69 33 14
-0.01034567990214421 0.25329105042525496 -0.747133836774343 71 34 15
-0.004581294677799969 0.2489239056342493 -0.753123646277147 67 30 11
-0.0026114941854758975 0.24737537858011846 -0.7573636314860457 66 29 10
-0.0036430255417679233 0.24805666495729503 -0.7602030426481412 64 29 10
-0.0031687299639988967 0.24761907329206526 -0.7637504964203432 63 28 9
-0.006556220745083614 0.2500512010846057 -0.765470910622898 62 26 9
-0.006307388428039747 0.24978119159977277 -0.7689101772776451 60 25 8
-0.009496522715632595 0.25206633662679956 -0.7707081485812081 57 24 7
-0.01975937109059043 0.25960959629710106 -0.7690974325632308 57 24 7
-0.017912324811489917 0.25815210373268477 -0.7732865622789893 57 24 7
-0.01864048415621792 0.25860877080009903 -0.7762375552034932 59 26 9
-0.0174015539877935 0.25760304378341936 -0.7801440402966408 61 25 9
-0.016281252368751095 0.25668534454356784 -0.7839993152251284 62 26 10
-0.01962294897060629 0.2590852268681499 -0.7856717446957913 64 28 12
-0.021638290125504854 0.26049913459071583 -0.7879853799576049 63 28 9
-0.022209570473172395 0.2608393231575541 -0.7910067162115526 61 26 7
-0.024763058913152773 0.26265372911301726 -0.7930424345755293 62 27 8
-0.02724410750053649 0.2644144876177803 -0.7951052785475182 63 28 9
-0.028013824928209932 0.26490254470432517 -0.7980167852040906 65 30 10
-0.02994347312937437 0.2662534861329689 -0.8003431444993165 66 31 11
-0.03199510347985724 0.26769533840116366 -0.8026014467489851 65 30 10
-0.034042448874041606 0.2691341807678805 -0.8048549740148786 62 27 8
-0.03812287619315906 0.27208588491087204 -0.8060660404350677 60 27 8
-0.03808042840725345 0.271970200539822 -0.8093702197287067 59 26 9
-0.034051324967934296 0.26888783321782095 -0.8147233626257683 59 26 10
-0.03262164739220176 0.2677394746140767 -0.8187546692657494 66 30 14
-0.0352119293463963 0.2695827723784625 -0.8207124708519876 63 27 11
-0.03490200760036061 0.26926767765374676 -0.8241685114644676 62 26 10
-0.04077409703793887 0.27355412588345845 -0.8244012581920173 61 25 9
-0.04477953435911168 0.27645160862280815 -0.8255890939936643 62 26 10
-0.044742315445699385 0.27633987091102236 -0.828888416681368 63 27 11
-0.048669137504663965 0.2791793837418573 -0.8300958968141108 64 28 12
-0.0500380349702179 0.28011472175118446 -0.8326448427354614 63 26 9
-0.05510889617809388 0.28380673795515765 -0.8332189499756693 67 30 10
-0.05570284356353089 0.28416539888329023 -0.8361660071325309 70 32 12
-0.054966307639715384 0.2835332296766974 -0.8398260136260672 73 34 13
-0.0540800019156322 0.28278939404073744 -0.8435713765550646 76 35 13
-0.05251979507694815 0.2815434740818664 -0.8476864579756317 79 36 12
-0.053215060722532834 0.28197743130122316 -0.8505853461582306 80 36 11
-0.05241268131134966 0.28129575615498503 -0.8542990323007266 78 34 7
-0.053099996392489135 0.28172377731465026 -0.8572027725409678 77 34 7
-0.05463280840989332 0.28278177311665786 -0.8596409234190728 76 36 10
-0.05678362779179781 0.28430037592311985 -0.8617335473255748 82 44 18
-0.06048072110255548 0.28697139554734336 -0.862963074247676 88 54 29
-0.06090373670201589 0.28720287583050375 -0.8659972486747497 86 56 33
-0.06329743274699962 0.2889030513686387 -0.86793244383196 82 53 32
-0.06208413208772903 0.2879150605277462 -0.8718779058782543 77 48 29
-0.06409605682425779 0.28933091241776965 -0.8740181850320288 75 48 30
-0.06390466774355111 0.28910451819509 -0.8773940228045665 74 47 30
-0.06218067453481223 0.28773552565308935 -0.8816397460256498 71 44 27
-0.06215345626616256 0.2876313210880703 -0.8849303717932969 69 42 24
-0.05194646833465248 0.2799370827268206 -0.8940276605623277 70 43 24
-0.05159963755249125 0.2795939192883607 -0.8975261959282314 70 42 23
-0.04558596107958554 0.275024888063487 -0.9042832802592886 68 39 21
-0.049417580686277496 0.2777973723108296 -0.9053907238365516 63 35 15
-0.04647065640714239 0.27551470875880024 -0.9104063808672185 64 33 13
-0.04749025205880812 0.2761901787116759 -0.9131322747739349 71 38 19
-0.04428151692777438 0.27371171681495676 -0.9183203873497282 74 42 23
-0.044234314923451576 0.2735912903268199 -0.9216740129479861 73 42 24
-0.05004983812195954 0.2778445846334455 -0.9215868955550098 73 42 24
-0.050899855535567404 0.27839378448161395 -0.924402985616791 73 42 24
-0.053101282476453515 0.2799513740603662 -0.9264178059760184 76 45 27
-0.053025016653145754 0.27980956301486276 -0.929776869789117 77 46 26
-0.05157682440383893 0.27864390509542347 -0.9339551415094913 75 45 24
-0.04860987718670281 0.2763445973985258 -0.9390491595492556 77 45 24
-0.04877033698971366 0.27637908540608846 -0.9422811356378021 76 41 20
-0.05142431726924385 0.2782747408365066 -0.9440127488586316 73 38 14
-0.05033852759708287 0.2773790334414966 -0.947994322928233 72 36 13
-0.052162335028996365 0.27865523945539317 -0.9502179282389388 71 35 11
-0.05005559689112824 0.2769971550982812 -0.954827062566285 76 40 18
-0.055235045556017465 0.28077888305991683 -0.9549977505680287 81 50 30
-0.05294344485515122 0.27898261838794686 -0.959725869883756 90 64 48
-0.05363339968234096 0.27941250564792547 -0.9626320891813416 88 67 54
-0.056810337727765406 0.28169969081135443 -0.964002461892452 93 74 61
-0.06128232101437997 0.2849543851705928 -0.9645590386285285 92 71 61
-0.06218773990130523 0.285545647721531 -0.9673140440189281 97 75 64
-0.07011632232393562 0.2913829797072069 -0.9656882409676062 96 77 63
-0.07091235101793932 0.29189302660342703 -0.9684921529696809 101 82 68
-0.07407070274053866 0.29416793588445267 -0.9698113778536367 109 90 76
-0.07657702703633666 0.29595600555869045 -0.9715293847170884 104 85 71
-0.07868648859606778 0.29744778184997456 -0.9734890912520983 104 82 69
-0.07914411745367612 0.2977054442662446 -0.9764889049688352 104 82 69
-0.08335251456224961 0.3007660202565428 -0.977101714684083 99 76 64
-0.08410722072522274 0.3012459253076937 -0.9799031162260972 101 78 65
-0.0865322047935065 0.30297423479005003 -0.9816328977796537 101 78 64
-0.08562633510455377 0.30221311199610146 -0.9854948139834483 105 82 68
-0.09013694323161885 0.3055007110524329 -0.9858690971358662 102 79 65
-0.09271682053977245 0.30734542184190716 -0.9874748927387197 99 76 62
-0.09191912407823509 0.3066652381102464 -0.9912639767728775 101 77 64
-0.09232713432400445 0.3068864004568219 -0.9942727516167856 99 71 59
-0.10052687112745363 0.31293366822285223 -0.9921892771932592 96 67 50
-0.10108930856646971 0.3132707465138826 -0.9950797134316659 92 58 31
-0.10013903811663083 0.31247658253045596 -0.9989644581145145 92 52 21
-0.10206657804825031 0.31383457236367973 -1.0009555615087133 95 50 19
-0.10399765998670414 0.31519538338046404 -1.0029376086443547 93 49 15
-0.10704385667058505 0.3173904791469311 -1.0041721297844657 95 50 15
-0.10303277801969585 0.31430659727434085 -1.0100986512106545 94 50 15
-0.10704066457420665 0.31722135055933354 -1.0106822825331951 94 50 15
-0.1047445435652296 0.31542002458322016 -1.0154789799678177 94 51 16
-0.10706691760657151 0.3170740876282926 -1.017179098505218 95 52 17
-0.10792022524323773 0.3176290895594349 -1.0198626017494064 98 55 20
-0.1093397328590311 0.3186078541174494 -1.0221605299715821 100 59 23
-0.11031925359663672 0.31925745139013767 -1.0247528801423578 103 65 28
-0.11161461804416588 0.3201435092696177 -1.027127302536325 101 63 26
-0.11339553930315825 0.32139311165718587 -1.0291656856394444 96 59 22
-0.11492372343575803 0.322453681667768 -1.0313713251007253 96 60 25
-0.1124146224852655 0.3204920017336934 -1.0363502472448216 97 62 31
-0.11535208378925546 0.3226076912677741 -1.0375817342113525 99 64 35
-0.118022637913232 0.3245238257950315 -1.0389868992038478 98 62 36
-0.12304707996709446 0.32820276975880597 -1.038746843916037 97 61 35
-0.12374479589076172 0.3286422091521312 -1.041501667159191 93 59 35
-0.12452310629315025 0.32914204196850844 -1.0441987232611263 92 57 35
-0.12508653987458268 0.32948098815135707 -1.0470446750552707 90 58 35
-0.11775326037123096 0.3239052621520942 -1.055444343230501 89 58 34
-0.11692471803298993 0.32320113272490364 -1.059287984979903 87 57 33
-0.11630119054242828 0.3226504495775464 -1.0629917625977432 86 55 34
-0.11429216110815288 0.32106167190895396 -1.0676835229270705 84 53 33
-0.1177737040011205 0.3235863334656058 -1.0684756654387813 79 52 33
-0.1112783609928995 0.3186357945195584 -1.076380901159287 74 47 34
-0.10722264009960779 0.3155125993398304 -1.0825681672191803 65 42 33
-0.10011523953199383 0.3101019823048769 -1.0909680395160992 51 31 22
-0.10397138013780698 0.3129072061724049 -1.0914972365642455 43 24 17
-0.10743639255253203 0.3154196656224147 -1.0922940069256197 42 20 13
-0.10822061688814297 0.3159230411296589 -1.0950215190719805 46 22 13
-0.10804670244980269 0.31570821940103255 -1.0984442411882238 51 25 10
-0.10240048868844018 0.31139086504667973 -1.1058622338953672 70 34 16
-0.09908917551539967 0.3088233921465202 -1.1115978690384882 74 34 11
-0.09649106893663216 0.3067902609795777 -1.1168261755215296 80 39 9
-0.09961103108013385 0.309044479087825 -1.1178577024343361 86 42 8
-0.11707057913357061 0.3220523277370596 -1.1082883339769203 89 45 13
-0.11815497305253515 0.32278137475625324 -1.1107718277257712 89 49 20
-0.1209791674962375 0.32481538247982666 -1.1119598107298 91 55 27
-0.12004005168402956 0.3240269065499398 -1.115940798497633 94 60 32
-0.1206071346369516 0.3243681277108032 -1.1188020760957305 93 59 33
-0.12035160049132726 0.32409225450016793 -1.1222789991816342 91 57 32
-0.11953827349666285 0.32339783011355844 -1.1261779535551177 85 53 29
-0.11963892471471783 0.3233890291341699 -1.1293931380896123 81 50 29
-0.11898196203763851 0.32281171713604206 -1.1331823236774299 81 50 29
-0.12179467704230422 0.3248379786689082 -1.1343451274701075 82 52 31
-0.1214635431562145 0.32450515434726557 -1.1378879661005026 82 54 32
-0.122308577173621 0.32505499474801286 -1.1405368738324182 81 53 32
-0.11762239858506114 0.3214532571357045 -1.1474144814081662 80 51 34
-0.10871155856744294 0.31467974962429496 -1.1575552313857078 69 42 30
-0.11276378318538471 0.3176365085600279 -1.1577643551985959 70 51 39
-0.12548864019008005 0.3271046861232632 -1.1512659806139538 97 84 74
-0.13423929772167015 0.3335903993060933 -1.1477879183494673 139 132 123
-0.15637326593609455 0.3501261394123132 -1.133887738663965 168 163 159
-0.16618372742065732 0.3574103480236387 -1.1294809671024169 180 178 176
-0.18162627835298484 0.36892521615762175 -1.1206369924854787 190 189 187
-0.0020687193765612476 0.23389795988894133 -1.2679123596286468 196 196 196
0.008927474622452712 0.22545420338706812 -1.2837471498240236 199 199 199
-0.10705405968181145 0.3124088548824853 -1.1989000772365337 202 200 201
-0.3166857768041596 0.46983579458919295 -1.0353912381659593 202 200 201
-0.31349413493591477 0.46736356388290795 -1.0408238293862357 203 201 202
-0.306788380809737 0.46225010164132063 -1.0490848641348882 204 202 203
-0.2976852033378905 0.455334052665801 -1.0593015525334213 205 203 204
-0.309673388546278 0.4642693420539031 -1.0525842884829881 205 203 204
-0.297020086480962 0.45468384041360677 -1.065703447795394 205 203 204
0.11824750451573693 0.18545165073213035 0.11967407290832913 183 183 185
0.09661784098058263 0.20109504878191917 0.11502773328608909 183 183 185
0.0987742458815182 0.19944903861789226 0.11208003348500699 183 183 185
0.07800642269449173 0.2144686874793319 0.10760172342675581 183 183 185
0.07344712200629315 0.21770588331026963 0.10424362557783216 182 181 180
0.07077298933672957 0.21957277436947162 0.10101895281057424 166 159 155
0.06404578309670983 0.22438701572484498 0.09755566892371383 128 113 107
0.05810339549556409 0.22863113413851893 0.09416181718888152 122 99 86
0.05738796051460032 0.22907457318928415 0.09108763666830445 113 84 66
0.055266450377488396 0.23054064654929513 0.08793667774632946 101 72 54
0.04824356195313735 0.23557175610756945 0.08452906274964048 97 69 51
0.048844857202048356 0.23505789737785543 0.08154084265281425 96 65 46
0.04906056593460982 0.2348244292048165 0.07852977657361047 95 64 43
0.04796775814214857 0.23554279895952018 0.07545348474507492 94 62 41
0.04782937650572423 0.23556688447653829 0.07242406293127837 93 61 41
0.042134094484107265 0.23963388015151268 0.06914618774370376 90 58 37
0.03379776055972657 0.24562299080534716 0.06577484758972832 90 57 36
0.03990058417283643 0.2411062697851541 0.06302321420119279 90 57 39
0.03902337610658611 0.24166825126824404 0.05997514559787368 88 57 39
0.03382781025266873 0.24537290594439745 0.056768018643786694 89 58 42
0.027309604268276694 0.2500406014458434 0.05353163599475064 82 52 41
0.022999303064306614 0.25310188840399145 0.050391899326780204 106 75 58
0.01493973692930263 0.2588925378556114 0.047147422198743225 136 102 73
0.009709456972213162 0.2626244007375256 0.044015792193256895 125 84 51
0.006550551689762513 0.2648488194884832 0.04096018817806471 111 67 34
0.007131944124984524 0.26435050608320865 0.03801311795174807 94 51 16
0.008486888320718283 0.26328891176027375 0.035081486243360785 81 37 10
0.007452496528599167 0.2639668503954061 0.032089483987950126 76 33 8
0.007796137748770582 0.26364143093420633 0.029128570446323148 75 35 9
0.008449089943993071 0.2630907049472008 0.02617090686649791 77 38 11
0.007935661132632651 0.26338929704398356 0.023189522570100634 76 39 12
0.009203037319794452 0.262390954402934 0.02023588911094757 80 41 13
0.009738061966471381 0.2619258601799317 0.017266394623120077 84 43 15
0.010157409291344524 0.2615449395101509 0.014292232649314602 87 46 18
0.009646015219756873 0.2618419279170195 0.011306071771887354 87 46 18
0.010164386880730417 0.26138876636452135 0.008328602759349322 86 47 18
0.00975804365491445 0.2616092008497684 0.00534222783153299 86 47 18
0.009223902632650313 0.26192274868249776 0.002355442023676293 85 46 17
0.008636114182762403 0.2622754003613192 -0.00063086958538109 82 43 15
0.009081856658505721 0.26187497353953243 -0.0036157882614362806 79 39 13
0.011536417376985214 0.26001061923276847 -0.006606267746881483 75 35 10
0.0114919503831072 0.25996719087961423 -0.009599380349078292 77 36 14
0.011384423685787265 0.25996969030581574 -0.012593384774876221 77 37 12
0.012025696625409088 0.25942640032234476 -0.015593457699494894 76 36 11
0.007755223287724891 0.262463185784617 -0.018554773700644796 76 36 11
0.010562068942242597 0.26034134962531086 -0.02157598941783753 77 37 13
0.011643717012091478 0.25947687337168546 -0.024587647788501973 78 38 16
0.01130942478510133 0.25964453829370515 -0.027584577599885935 75 37 15
0.009964879798591883 0.260548761869346 -0.03056543449179052 72 36 14
0.01092192851001006 0.25977490676287995 -0.03358388072597803 68 32 12
0.010886259943188495 0.25972479739856696 -0.036587641404543125 64 28 8
0.014861629618318203 0.25674969626764976 -0.03967928730377348 58 28 9
0.02583964648651807 0.24866733376915048 -0.042951283834729286 46 23 9
0.03413176711377808 0.24254278716461486 -0.04619739584986647 22 11 4
0.03721393286921516 0.2402174035720193 -0.049334145513567615 17 14 9
0.04324552119361229 0.2357403397171907 -0.052569322833241186 23 16 12
0.04011786688266544 0.23794399858770365 -0.055545507473407266 19 12 9
0.037476945368572476 0.23979283979168453 -0.058527414945418264 16 11 8
0.02886663930749478 0.2459968992184557 -0.061294428470884656 15 10 7
0.02305305577623286 0.25016123439653304 -0.06413277361709299 17 11 8
0.020170420243417267 0.25218751272876555 -0.06706317745604676 30 15 9
0.01763048768634548 0.25396395774535435 -0.0699980160070159 56 26 16
0.011914144244257519 0.2580585781338414 -0.07279127876847144 76 43 28
0.011125901621326165 0.25855721143993826 -0.07578096167092238 87 58 45
0.010850114737611147 0.25868187338713206 -0.07879254607052558 93 66 53
0.008290754742072151 0.26047327648081786 -0.08169574138090498 83 55 40
0.005121832420483585 0.26270982663518166 -0.08456061407812346 74 42 26
-6.821826818671772e-05 0.2664220275737157 -0.087311256165367 66 33 17
0.0017647565601252996 0.265007673269106 -0.09041768147643818 71 39 19
0.0037835110818253553 0.2634574771012319 -0.09354257255872328 76 45 25
-0.0025683976006369014 0.26801867241132665 -0.09619962271688932 87 58 39
-0.0015948206751981858 0.2672315782001669 -0.09926524940942343 84 52 31
-0.009380699423377922 0.2728406708333444 -0.10180422762701762 92 54 32
-0.02423199291688763 0.2836100961120382 -0.10387338286968839 92 50 28
-0.023073631369622274 0.28268883493847125 -0.10691998527166044 99 58 33
-0.014004474869981978 0.27598969689007546 -0.11049688783106029 109 67 43
-0.034319999528237055 0.2907524687823479 -0.11210548961589668 108 62 41
-0.03682421241399407 0.2925067651759652 -0.11488719614678095 134 99 78
-0.0333949270588316 0.28992682677748177 -0.11808771271759658 143 112 92
-0.036193649869588035 0.2918964025058513 -0.12084274838290407 129 95 74
-0.047716220979351576 0.3002398367525864 -0.1229283264722787 121 85 57
-0.053955232249687624 0.3047239228168895 -0.12538182867922812 101 61 30
-0.05095831901869702 0.3024599406035071 -0.12854701603104166 92 50 18
-0.05811025783227658 0.30761181999550424 -0.13089943820041594 88 47 16
-0.05484503694819044 0.30515160559155663 -0.13409310969267557 86 48 21
-0.05742326515427104 0.3069616499356087 -0.13680319866048554 82 46 21
-0.058348427524010635 0.307563706696106 -0.13964870525880685 79 46 24
-0.058671963693350176 0.307726069879112 -0.14254553688508811 77 45 26
-0.05723927122083172 0.30660466281297444 -0.1456018613097672 74 44 29
-0.04881896677538697 0.3003749508046283 -0.14931216707081563 73 46 32
-0.05625662797360062 0.30573776041876316 -0.15155683709127046 73 49 35
-0.06137460043155479 0.30940526947673713 -0.15399841622072094 74 53 39
-0.0632708424211706 0.3107175993177031 -0.1567386797381145 72 53 39
-0.051449295871138986 0.30199937736782323 -0.16084729887088955 71 51 38
-0.04788736029562224 0.29931996400851885 -0.16415893975253382 69 49 38
-0.048436895704424 0.29964695172399386 -0.1670580092832474 69 49 38
-0.039150095408985855 0.29278003489365056 -0.17099749291903424 69 49 38
-0.03394796027128377 0.28889975789221256 -0.17453341896336147 69 49 38
-0.03189435307639327 0.2873219627505508 -0.1777452454973395 68 48 37
-0.0312147699134514 0.28674904219155967 -0.18081299802185435 68 48 37
-0.02887352420482517 0.2849604255324628 -0.184073174729182 67 47 36
-0.022432461533295228 0.28017211482019316 -0.18781638003305964 67 47 36
-0.016424571168159097 0.2757000804433789 -0.19153463411420915 67 47 36
-0.03406844041798267 0.2885333794159521 -0.19245998522158597 67 47 36
-0.033030049546093024 0.28769766812657116 -0.1955804143817223 66 46 35
-0.031145907581949225 0.2862429059314114 -0.19881012350468347 66 46 35
-0.030492165306117258 0.28568838574614774 -0.20189482394162964 66 46 35
-0.028698718352455965 0.28429962820657173 -0.20512781020362608 65 45 34
-0.027892481774054734 0.28363323999982654 -0.20824205088750014 66 46 35
-0.027900907094650484 0.28356306050916713 -0.21125443619330997 65 45 34
-0.02108726422145775 0.27849885266149105 -0.2151715202504764 64 44 33
-0.01148423291271923 0.271391886895643 -0.21949061966182265 65 45 34
-0.006758906124081088 0.26785508033866295 -0.2231832648250896 65 45 34
-0.009350265852072673 0.2696749127117096 -0.22588469599350586 67 46 33
-0.008734862763436047 0.26914687705562423 -0.22902672763070567 68 46 33
-0.010442891154763281 0.27032014042906993 -0.23184273198852717 68 46 33
-0.013688135611342744 0.27261927466497443 -0.2344325059607425 68 46 33
-0.013311207213492313 0.2722659040313824 -0.2375392830424322 69 45 33
-0.012812329961302313 0.2718231429358542 -0.24066692904470732 69 45 33
-0.013130001129155688 0.27197839487823955 -0.24367576090125612 69 45 33
-0.013260803790656625 0.2719967568919266 -0.2467131105696787 68 46 33
-0.009893980436480349 0.2694528497701576 -0.2502879533114612 69 45 33
-0.011912885723068964 0.27085424880845 -0.2530405772023079 71 46 33
-0.014179246835366671 0.27243710956172745 -0.25574798740155025 73 47 34
-0.015275556404666435 0.27316284259318413 -0.25863436031794246 70 42 28
-0.011361602538627655 0.2702173192436821 -0.2623249682706259 68 40 25
-0.007829110694034705 0.26755091853966245 -0.26596984016760095 70 43 26
-0.0010061923783547255 0.2624727214681143 -0.27017231530530306 69 41 26
-0.00293207121805536 0.2638058794264769 -0.2729428798057476 71 43 29
-0.008224560226077843 0.26760676431514785 -0.2751393819851018 71 43 29
-0.010043782879865362 0.2688622085110874 -0.2779097682256256 69 41 27
-0.0038637161759997735 0.26425388989904397 -0.28205520568070896 70 44 29
-0.0041427708430574195 0.26438012607196276 -0.2850986410117391 78 51 36
-0.007181090040441887 0.2665293091136264 -0.28765560669301105 74 48 33
-0.006634111830131545 0.2660500143634187 -0.2908418050896216 69 43 28
-0.0038273547752079307 0.26391365117668664 -0.2944389660919105 72 45 27
0.00038415128271199195 0.2607468793050838 -0.29830435397701427 74 47 30
0.005341555206118176 0.25703265839703915 -0.3023247776867435 69 45 31
0.005592248518830084 0.25676979235606756 -0.30548998957634244 74 51 38
-0.00020429937058781544 0.2609421744232797 -0.3075207401595471 76 54 41
-0.001664730600689085 0.2619345779621031 -0.31035413629874364 78 52 38
-0.007345085104406859 0.26602257553379566 -0.3123737025924835 66 34 16
-0.005947861847539607 0.2649190503195557 -0.3157443694137707 71 36 16
-0.00672405343572563 0.26540985386717064 -0.31869649186140614 75 40 20
-0.010325125154094048 0.2679732779163276 -0.32108869585510674 83 48 26
-0.008104974349567667 0.2662657704711454 -0.324630312053067 81 48 25
-0.006950685878906668 0.26534012365148196 -0.3279671694447262 84 53 31
-0.005195448242378636 0.26397332898526077 -0.3314322261085383 75 47 30
-0.00254442478890074 0.2619489218447816 -0.33508954044112965 50 22 14
0.0015175782841713725 0.2588886520986134 -0.33905114999459396 43 18 12
0.012925940361801516 0.25043584596883456 -0.34456745005027006 76 50 38
0.013723973406877893 0.24977020025504218 -0.3478883319937537 68 42 28
0.013139812090842404 0.25011908121077253 -0.3509191551643457 57 31 15
0.01083364789434739 0.2517321564728461 -0.35357877464379067 70 42 26
0.009140435290754853 0.25289540480978545 -0.35636395453949277 66 40 26
0.007943424713872327 0.25369445667417023 -0.35925269665140086 65 39 26
0.004267554594098319 0.2563137609197449 -0.36159058600158567 51 31 22
0.0052581889692824985 0.25550664870558715 -0.36495574161326294 38 19 15
0.0033212450871940163 0.2568493462167287 -0.3676680202980598 52 30 24
0.0029621894183161496 0.2570333554271052 -0.37073206462279035 66 43 32
-0.0013289073125760387 0.26010534954532555 -0.37289682359421844 64 40 29
-0.00740854131953303 0.26449145477198865 -0.3746337581258196 59 34 22
-0.013291255968159929 0.26873347154759425 -0.3763942632831007 60 34 21
-0.011864055417197358 0.26760599717933137 -0.3798480279328059 65 39 26
-0.009816125765967507 0.26602231159080786 -0.3834556528515985 65 38 25
0.008166733958292677 0.25273063548073443 -0.39087295789847315 71 42 29
-0.0009508686122886856 0.2593498008638675 -0.39184605559990787 61 30 17
-0.004709497076024263 0.26203194242462324 -0.3940839676653849 70 40 25
-0.011611913211903635 0.2670246973463591 -0.39554048271249265 72 43 25
-0.026733502346313817 0.2780585385865683 -0.3949470469614844 81 48 28
-0.028934457357082125 0.2795975615604099 -0.3975035842594479 77 39 20
-0.03451636130335506 0.283621830352213 -0.3992069788655002 74 34 13
-0.03672385487093745 0.2851661903618582 -0.4017409183087598 82 48 27
-0.03877041886427453 0.2865924303360421 -0.40430855810267896 95 68 51
-0.04071878148507628 0.2879466422310121 -0.4068947752563733 96 68 53
-0.04430975163139626 0.29050868646245787 -0.40905090289137586 95 60 41
-0.04735365340846373 0.29266880905599124 -0.41133663792944436 74 34 12
-0.04798543528414083 0.29305552257221945 -0.4142438224150678 76 34 10
-0.047699762369774204 0.2927675955428307 -0.4173921421241248 75 33 9
-0.053286209500476064 0.29679806380418533 -0.4189815072462395 75 33 9
-0.049856212832339666 0.29419775118206176 -0.4229657571563574 78 36 12
-0.04652940250120435 0.2916729552162501 -0.426937108371051 79 39 15
-0.043088849814562985 0.2890641254530587 -0.43095392886847256 84 47 24
-0.03328096042606474 0.2817709938059099 -0.4367291074190034 82 48 27
-0.021680624561582346 0.27315820210987807 -0.44303869735133944 84 53 32
-0.006509591592639044 0.2619171919185862 -0.45038721602471243 88 60 42
-0.0020502464312515123 0.2585559334979649 -0.4548008977049688 95 68 51
0.014571802644013074 0.24624466789047172 -0.46265971119574956 91 63 44
0.021707068045850257 0.24091271182703888 -0.4678946610729522 83 55 37
0.02124084959541847 0.24117406420055126 -0.47098808219325555 59 35 19
0.026507699484935476 0.23721607516584992 -0.47573007209887125 64 39 22
0.028257318872417246 0.2358462617301771 -0.479475873610646 78 51 32
0.02838127555312052 0.2356728311664147 -0.48275614479592455 78 51 32
0.0287443770595815 0.2353233105814429 -0.48610864245424895 78 50 31
0.02933068566886394 0.23480939678523566 -0.4895300785411546 70 43 24
0.031526330032876124 0.23311056360860238 -0.4934341611582616 71 46 26
0.03466711209327491 0.23071559631454697 -0.4976315431023481 75 50 30
0.033072905304060166 0.23180673277208994 -0.5004154708581954 77 52 32
0.033346904994169556 0.23152230195405016 -0.5037615341679834 75 49 30
0.0317207740671944 0.2326370961458203 -0.5065298614328384 69 42 25
0.03150667919851472 0.23271209387388775 -0.509727372359359 69 42 25
0.029072946373868522 0.2344218802515563 -0.5122388037509292 70 43 26
0.027289179778904327 0.23565312702813995 -0.5149445080775945 69 43 26
0.025937075677989162 0.23656654303812108 -0.5177799435471759 70 43 26
0.02492849955464059 0.2372269892108617 -0.5207198870022347 71 45 28
0.024617242415008823 0.23737376841469054 -0.523878667852869 76 49 32
0.024914273073609695 0.2370723707859068 -0.5272320172822772 77 48 30
0.027388449652639854 0.23516673529006674 -0.5312877214809414 78 47 29
0.02981842273446507 0.23329338299154098 -0.5353405453735874 76 45 27
0.030631749025419153 0.23261108978333073 -0.5388786603754202 78 47 27
0.03018413037240028 0.2328579578013921 -0.5420088308776458 84 53 32
0.02974289538095439 0.23310012669511643 -0.5451408752633069 83 53 30
0.02826078268670986 0.23410950520883517 -0.5479278488857642 81 51 27
0.027549449201020607 0.23455083348317574 -0.5509673776529491 78 46 24
0.02874421741311598 0.23358706221443865 -0.5546447775323312 78 46 23
0.030597179302982357 0.23213789254808126 -0.5585505381708279 76 44 21
0.029662095411204195 0.2327440579600507 -0.5615192326392558 78 45 20
0.028564665627135902 0.23346998071526 -0.5644303363328829 83 49 24
0.027517219510067366 0.23415911828634298 -0.5673557704899678 83 49 24
0.028443368608509205 0.2333929354346505 -0.5709601127084553 82 48 23
0.030159321030668287 0.2320441545610056 -0.5748440588541613 85 49 25
0.02976596159776375 0.23225084243651575 -0.5779995898627588 87 51 27
0.03150669988295814 0.23088345885597303 -0.58190491877055 88 52 28
0.030913549557647767 0.23123741090169947 -0.584994120625098 87 52 28
0.030886520699738077 0.2311737649400295 -0.5882836915714402 87 51 27
0.030145852439288304 0.23163655822310636 -0.5913196943282301 86 50 26
0.03075388644125356 0.23110433420899462 -0.5948389929102724 83 47 23
0.03022796757114627 0.23140867994972386 -0.5979525111913374 85 49 25
0.02814251263718492 0.2328638012430742 -0.6004987477835293 89 53 28
0.025426803677856567 0.23478418389000696 -0.6028078596728011 92 56 30
0.023707333673540824 0.2359695899819924 -0.6054736593746136 92 57 30
0.021642975144767186 0.23740967338630503 -0.6080066870118443 94 59 31
0.02145153001537639 0.23746754631841388 -0.6112286847311567 95 60 32
0.02003050008904359 0.23843300783745275 -0.6139922589389233 98 63 35
0.02283396395478779 0.23628007996025235 -0.6183379636291039 100 66 35
0.023408225405344374 0.23577252262454013 -0.6218550013057688 102 67 37
0.02488726636547341 0.2345968713735136 -0.6257193354944955 98 62 33
0.025538237495687965 0.23403243169929916 -0.6292752716454983 97 60 31
0.024416801668970665 0.23477662780542125 -0.6321555635793303 99 59 31
0.022722058145614024 0.235944257605102 -0.6348118345271226 99 60 30
0.02295254347338754 0.23569023762012134 -0.6382091009643788 97 58 27
0.023439815660602877 0.2352465033189505 -0.6417089427594566 98 60 27
0.024078468256698935 0.23469086870406008 -0.6452716369770936 98 60 28
0.02220452704834747 0.23599106815489407 -0.6478492895076008 98 60 30
0.023363457139030628 0.23505101864577205 -0.6516211348902912 96 59 30
0.023364480584001576 0.23496622223945896 -0.6549387018487584 90 53 24
0.025351673935522602 0.23341398492511628 -0.6590519146099565 92 55 26
0.02410737792559532 0.23424912295728417 -0.6618763111502645 88 51 22
0.02415250316240717 0.2341315797497318 -0.6652179825752016 86 51 21
0.024928474184724755 0.2334739230799889 -0.6688580716572874 86 51 22
0.024722030262233713 0.2335421654695473 -0.6721021680328859 84 49 21
0.02389126828990274 0.23407180128299607 -0.6750910817132565 81 46 18
0.022106363061591035 0.23530670690328295 -0.677685116766765 77 41 15
0.020510360158983727 0.23640212528913648 -0.680351691744296 82 46 20
0.018827225254686362 0.23756207777463875 -0.6829771097641905 79 43 17
0.017424613094035406 0.23851478070449103 -0.6857145511070132 81 45 18
0.01597772797167989 0.2395003201852167 -0.6884292686214664 82 45 18
0.013287280244264336 0.24140542962903364 -0.6906146718119379 80 43 17
0.013737313385738928 0.2409886169993695 -0.6941229483128686 78 40 16
0.01081581781367031 0.24306489498076125 -0.6961974975459249 76 40 16
0.009402757165984654 0.24402589961386964 -0.698907779061061 75 39 15
0.016259878667808994 0.23887052049165888 -0.7051729660831972 74 38 14
0.014532767554733404 0.24006359133463823 -0.7077560019297342 75 39 17
0.019467464785578002 0.23632914698409538 -0.7132277510527629 76 41 21
0.018180855812942442 0.23719629269895 -0.7160057669977121 76 41 21
0.014130248213849957 0.24010831208024364 -0.7175680006390255 77 42 22
0.011155984630442636 0.24222438595684362 -0.7195894661898694 73 41 18
0.007904977297893898 0.24454548936220127 -0.7214778445916376 74 42 19
0.005237378957509989 0.2464351984696994 -0.7236139261201596 70 38 15
0.010666636236298085 0.24233348195690105 -0.7293578643913882 65 33 11
0.009811811880942413 0.242881699009817 -0.7323054340775146 64 30 10
0.004699078158146519 0.24658125468241923 -0.733331424372148 63 28 9
0.004123381703605558 0.24692319212238667 -0.73639285089094 62 27 8
0.005843618449682814 0.24556568332395154 -0.740498072589242 62 27 7
0.006381491729518532 0.24508320978195686 -0.7440716152533646 63 28 8
0.0032227433513530024 0.24733728968806487 -0.7459519495306559 67 32 12
-0.0005382159358825189 0.2500375132807097 -0.7475431834766817 69 34 14
-0.0017126158894663068 0.25082296008531385 -0.7503186097498453 70 35 15
-0.0016874829597167268 0.2507202734934992 -0.7536488893476556 68 33 13
0.0014269424732806027 0.24832986079405148 -0.7584245602319029 66 31 11
0.00035937650373935037 0.24903614863733511 -0.7612517379698083 65 30 10
-0.00279686183130938 0.25128942938167037 -0.7630914226878663 64 29 9
-0.0019047175030278418 0.2505444562134917 -0.7668366342385435 63 28 8
-0.013708897720391133 0.25920388742067785 -0.7645490606875665 61 26 7
-0.02034680331133519 0.26403743312119404 -0.7646819360555768 57 24 7
-0.020776763059610973 0.2642725766672361 -0.7677669821967581 55 22 6
-0.014216838586959428 0.2593290147290131 -0.7742194389774949 57 24 8
-0.010083107288614931 0.25618238507719543 -0.7795267329891723 58 24 8
-0.006721662043193237 0.25360753828103244 -0.7844774811071423 60 24 8
-0.013013062596433311 0.2581854795536389 -0.7847332289626341 61 25 9
-0.013775957934294099 0.25866688586731984 -0.7876738462362071 62 26 10
-0.016114240904023316 0.260315928445667 -0.7898375911787039 63 28 9
-0.018853121547663554 0.26226209975113224 -0.7917952566048623 63 28 9
-0.027342541175298718 0.2684711289034479 -0.7908892006399967 63 28 9
-0.028732768631566097 0.26941833224957795 -0.7934875101539343 65 30 11
-0.028854809782275677 0.2694254597556828 -0.7967163009540967 67 32 13
-0.029429421332031205 0.26976810079262453 -0.7997187519680116 67 32 13
-0.03181711987067666 0.2714551019494368 -0.801805511829205 64 29 10
-0.03239165553197154 0.2717978224875312 -0.804802642161933 60 25 6
-0.03572893475200474 0.27418933147414337 -0.8063933716542678 60 24 8
-0.03632219459194455 0.2745461244173572 -0.8093735901424061 61 25 9
-0.0311448283205965 0.27062300592821437 -0.815312911350034 60 25 9
-0.03294684881922858 0.2718761108455363 -0.8176808667382777 60 27 10
-0.03228646236134229 0.27130279779511995 -0.821316242751578 65 30 13
-0.0346710805121733 0.27298826333755183 -0.8233750174803737 66 30 12
-0.039685958335763535 0.2766252967164874 -0.8240543182416851 64 27 11
-0.043397905156896274 0.27929612351667127 -0.825396188554225 65 29 13
-0.04780298795051556 0.2824816051190404 -0.8263599198002413 64 28 12
-0.05211972277093524 0.2856019548143649 -0.8273534305814234 64 28 12
-0.05070207768527629 0.28446724337840945 -0.8313676820878176 65 28 10
-0.05192374586077182 0.2852911133987544 -0.8339860220334361 67 30 11
-0.055506116672506586 0.2878671986107119 -0.8353406052624506 70 32 11
-0.053800761301934896 0.2865187650220151 -0.8395156337918864 75 35 12
-0.05317050827827627 0.2859681707847825 -0.8431209656880119 79 38 13
-0.053360158961940685 0.28602613669606325 -0.8462876819656169 81 40 14
-0.05214431526774872 0.28504061840355105 -0.8502172912574893 83 42 15
-0.05206890317145592 0.28490166767502306 -0.8535328359377187 83 42 12
-0.05225030975591967 0.284953362518133 -0.8567099628689688 83 41 13
-0.05101978445032185 0.28395656745000775 -0.8606624090143803 80 42 15
-0.052319419558287075 0.28483857548430236 -0.8632284484902253 87 51 26
-0.05433192464058993 0.2862501185548862 -0.8653965955126423 90 56 32
-0.05792067050383272 0.2888325684620139 -0.8666833153904141 86 55 34
-0.06135185867147924 0.291298328320097 -0.8680442737934759 84 53 34
-0.061069084234799814 0.29100551905801486 -0.8714686657281557 78 49 32
-0.059948115203669494 0.2900899465549609 -0.8753662057282651 76 49 32
-0.060562162912144474 0.2904632459333563 -0.8782927940515605 75 48 31
-0.05713593890356071 0.28783463119484015 -0.8835026665787605 72 45 28
-0.0541826121315082 0.2855569994108154 -0.8884602410126365 70 42 24
-0.050781441378458705 0.2829462130107722 -0.8936869865960316 70 41 23
-0.0485265193963442 0.2811868734388981 -0.8982743901560347 69 40 22
-0.04287741015046801 0.27690462914425346 -0.9048206149552788 70 40 22
-0.046017450705854626 0.2791544669135741 -0.9063303205036972 65 34 16
-0.043572896749027416 0.2772534283887036 -0.9110565768326995 65 34 16
-0.0440545453226221 0.27752736457616084 -0.9140970994579662 69 38 20
-0.04401165170900277 0.27741134935285 -0.9174426452020883 73 42 24
-0.042768187558526315 0.2764026802656986 -0.9214916270951743 73 42 24
-0.044841095643482314 0.27785969257806764 -0.9236023534516336 73 42 24
-0.04738705029186574 0.2796686409482361 -0.9254274566355447 75 44 26
-0.048410226091114686 0.28034541071921987 -0.9281430032455471 75 44 26
-0.047865882792422806 0.279856482923811 -0.931785212788564 74 43 25
-0.04627309799528717 0.2785876712750588 -0.9360552101335763 74 43 23
-0.04487459637502217 0.27746315640367125 -0.9402175927194141 74 42 22
-0.04029251859993279 0.2739703046741046 -0.9462953916222654 75 40 20
-0.041232192984083385 0.2745846427935529 -0.9490735314977305 74 38 16
-0.04245474401437902 0.2754094926530565 -0.9516785886415337 70 35 11
-0.04055704080125126 0.273912886078159 -0.9561698936199233 71 35 12
-0.049976137681211404 0.28083662456240577 -0.9537926852192581 76 40 21
-0.04998792370009415 0.2807610496807532 -0.9571146919347857 79 48 31
-0.04909069173337158 0.2800089553460144 -0.9609946538491995 89 66 51
-0.04744965760260458 0.2787031544873282 -0.9653369172879936 93 71 58
-0.04884988623017032 0.27966073130363767 -0.9678134265641316 93 71 58
-0.05492871808368381 0.2841009322942064 -0.9673920732170956 97 75 62
-0.05822255048601012 0.28646858714916357 -0.9686747424072482 97 77 63
-0.06488896671846746 0.29134730244973867 -0.9678447431524431 97 78 64
-0.06898998308013875 0.2943167288055691 -0.9685909091487805 103 84 70
-0.07217557316537375 0.2966049634340343 -0.9698951360461541 101 82 68
-0.07554335789618072 0.2990291682535395 -0.9710727195776936 108 86 72
-0.07634095491425286 0.29953974457412336 -0.9738600482483125 104 81 67
-0.07686627367006185 0.29984759299438857 -0.9768180517393563 103 80 66
-0.07888646332472206 0.3012688118021215 -0.978825309265098 105 82 68
-0.08219754720301704 0.3036517153117177 -0.9800022812559921 105 82 68
-0.08414747131330201 0.30502102119713714 -0.9820376340015082 104 81 67
-0.08666221614329293 0.3068112592254941 -0.983703604008571 104 78 65
-0.08838664509308075 0.30801294423974246 -0.9858694856888119 98 75 61
-0.08722184929314149 0.30706214471865556 -0.9898969370649611 101 78 64
-0.09047009194794901 0.30939937417844826 -0.9910692861335727 104 80 66
-0.09027716894094136 0.309172683951654 -0.9944681776332978 103 76 61
-0.09215780275175486 0.3104911847247711 -0.996515948957055 99 68 50
-0.09598843467515289 0.3132631309118225 -0.9972801260603604 97 59 35
-0.09721539395939503 0.3140948650074714 -0.9997402444237629 92 50 22
-0.09864951967705625 0.3150811104314181 -1.0020601144063415 92 48 16
-0.1005438739305902 0.31641054306553584 -1.0040710180939918 92 46 13
-0.10350061295684339 0.3185321409334966 -1.0053704084266002 93 47 13
-0.10202069374784697 0.3173462870249516 -1.009612192202006 93 47 14
-0.10499322673137305 0.319479983489363 -1.0108883006000344 94 48 14
-0.10210763673744737 0.31724582097285353 -1.0160783278986283 95 50 16
-0.10423394134397522 0.31874872449858394 -1.0179134590490662 97 54 19
-0.10485077570253395 0.3191261094233343 -1.0207589355958324 98 55 20
-0.10638443737466827 0.32018730946940466 -1.022983099456145 96 55 19
-0.10874548967188755 0.32186576695812763 -1.024640693474352 97 57 21
-0.10817430198278402 0.32135719687042025 -1.0282861123900595 100 61 26
-0.10932291623597382 0.32213146950999605 -1.030760951985623 98 60 26
-0.11047024906445746 0.3229048714394256 -1.0332333033658256 95 59 27
-0.10969690498380201 0.3222453513952781 -1.037022497311961 98 62 31
-0.11185543669897258 0.323773324076222 -1.0387950316877013 98 63 34
-0.1147698325346205 0.3258655228319224 -1.0400369701978873 97 61 34
-0.11758746720200701 0.3278857925469289 -1.0413349997545935 95 59 34
-0.11803875058306604 0.3281402882197963 -1.0442695028326359 93 59 34
-0.11777607120503451 0.3278619122820301 -1.0477021660150696 91 57 34
-0.11475236239009255 0.3255225643273573 -1.053071429453556 89 57 32
-0.1145411166632746 0.32528229054024105 -1.0564794842525806 89 58 33
-0.1174497365903903 0.3273710432877721 -1.0576913148975742 87 57 33
-0.11930512128764051 0.3286737403986475 -1.059636663845697 85 55 33
-0.12925527805051376 0.3360205315013593 -1.055835353495519 83 52 34
-0.11589742267414993 0.3259642568470808 -1.0685713365785194 78 49 35
-0.11271067188830966 0.32350180427842645 -1.0741102906163338 73 45 35
-0.09651034579546074 0.31132026361690435 -1.088978228854125 62 39 31
-0.09845845271318668 0.3126913604039229 -1.0908906271401633 49 29 21
-0.10046365728864173 0.3141052787679758 -1.0927550432545823 45 26 17
-0.10451154722364298 0.3170452189797722 -1.0931370475818174 43 24 13
-0.10380545841039474 0.3164341844538888 -1.0969468486102625 47 23 10
-0.10363578650796677 0.31622378118323263 -1.100371620070561 56 27 11
-0.09713470896056194 0.31128284210601365 -1.1084130921970141 69 34 15
-0.09853598892056958 0.31224578160470084 -1.1107081689715839 73 34 10
-0.09519165995696696 0.30966265185386765 -1.1164781487560955 81 36 10
-0.0991494524568199 0.3125360656945648 -1.1168946559339967 86 41 8
-0.11527161712963799 0.32450112577888524 -1.1083233713380867 88 45 10
-0.11695068657854599 0.32567284411684194 -1.1103674490855235 89 49 18
-0.11551014144861789 0.3245128642090009 -1.1147204275943212 91 56 26
-0.1160243772996141 0.32481394718625967 -1.1176267061246912 92 58 30
-0.11632819845285412 0.3249577420438323 -1.1206894100333653 92 56 31
-0.11818760860341747 0.326264557902746 -1.1225879668877967 89 55 30
-0.11561238039416585 0.32425575583469574 -1.1278093389215393 86 52 28
-0.11708663469968925 0.3252746529834515 -1.1299945807784249 84 52 29
-0.11885534567050689 0.32651387144322686 -1.131952607836345 83 53 30
-0.11942939724456661 0.3268597976219886 -1.1348092849596845 84 55 33
-0.12340934457716134 0.3297530988231056 -1.1350780296350993 82 55 34
-0.12374863115056713 0.3299236607824131 -1.1381042566489143 83 55 35
-0.1147097745627315 0.32307902797302457 -1.1482954694139114 80 51 36
-0.10186834517118558 0.3133886665958189 -1.1614418032752503 67 41 28
-0.10636573930047202 0.3166688350987983 -1.1613231817702645 73 56 41
-0.126366140780819 0.331548881088909 -1.149239347900125 103 92 81
-0.15055375620273048 0.3495642529130709 -1.1338326496672964 141 135 126
-0.15858167256294117 0.355489728484695 -1.1308450945701243 170 166 161
-0.18876043893290767 0.3779931505082049 -1.1106065254890836 182 181 177
-0.18976189887454473 0.37866278872712256 -1.1129789751792885 189 189 187
-0.018446963876678785 0.2502667661133857 -1.2535818331407518 197 195 196
-0.0025714693592797135 0.23820232062696792 -1.273170636924337 200 198 199
0.002422619609799545 0.23437263589138782 -1.2806934116849635 201 199 200
-0.10921637625042002 0.31787323515483845 -1.1957736465871673 202 200 201
-0.2961985290725772 0.4578050077129161 -1.0504597433957863 202 200 201
-0.3124703253278678 0.4699164609333091 -1.0404138391526816 203 201 202
-0.3078143666151099 0.4663561814708811 -1.0470281339608878 203 201 202
-0.30212619451404704 0.4620222207449832 -1.0544921432075618 205 203 204
-0.28853646448089415 0.4517689348742832 -1.0683352372858248 205 203 204
-0.2960000396728786 0.4572852016424227 -1.065268125182915 205 203 204
0.13965653254150293 0.17379728669394928 0.11782539869435087 183 183 185
0.10771554686210238 0.1968647636892212 0.11248239013763092 183 183 185
0.08349567052107569 0.21433944916985406 0.10776509655053255 184 182 186
0.07903828355227413 0.21749310320228687 0.10440754822909866 183 182 184
0.07627690342482746 0.2194178408082853 0.10117097394460664 185 181 180
0.07352327438547063 0.2213371759992179 0.09794349456249657 165 157 156
0.06657285045510311 0.22629899546096494 0.09447701304092804 129 114 108
0.06143417231121881 0.22994798989406418 0.0911379704882001 121 97 85
0.05734257226137174 0.2328382919152991 0.0878741783959523 109 79 62
0.05337973519830104 0.2356355734784672 0.08463076577345927 102 74 54
0.05219286866217952 0.23642036720191473 0.08154399512424035 102 74 54
0.050880326818845786 0.23729636561189613 0.07845389335091045 96 67 46
0.04919604720967806 0.23844202450249907 0.07534931259721854 90 61 40
0.04406902670716492 0.24208455222421169 0.07209015755774649 89 59 39
0.05028378230701036 0.23750169621204362 0.06935255035933095 90 58 38
0.04852526251644951 0.23870135685627442 0.06625096805270013 86 54 35
0.04736671381056158 0.23946594954579542 0.06317890780835855 89 57 39
0.04202287415783432 0.2432666403829223 0.05994649323238162 91 60 40
0.04092215511481094 0.24398961453437182 0.05688991483741873 91 62 45
0.03395548322463601 0.24896837659847632 0.05362863943688866 82 53 40
0.031155820942850923 0.25092440465906585 0.05053110882789821 100 71 56
0.021449064119990188 0.2578923514634329 0.04722351147871283 138 105 83
0.01216010360956754 0.2645579858531424 0.04396249342263778 137 100 75
0.008146554653796295 0.26739618470038357 0.04088200104675406 128 88 60
0.00828941968343333 0.2672183072692878 0.037923786977837194 92 49 15
0.007089654738041767 0.26801482353711625 0.03493096424464116 77 32 5
0.009845922832622839 0.265940064560364 0.032030406191750495 75 31 7
0.010750099441741393 0.2652093812527556 0.0290800261614507 73 32 6
0.014695265458564408 0.2622711037908285 0.026182428019881934 74 33 8
0.013222616138025015 0.26326551221361605 0.023176598563310898 75 35 9
0.010649569599699371 0.2650589096434306 0.020158058059711742 78 37 10
0.011219170391748981 0.26457080495035784 0.01718968048249169 81 40 13
0.010323129614615845 0.2651468035729088 0.014200920069654868 84 43 15
0.010850371395819028 0.2646893519914749 0.011227925279845553 85 43 16
0.011833893741911516 0.2639004745240001 0.008255232220746152 83 44 16
0.011315643055360328 0.26420210415884254 0.005268487091698746 85 46 17
0.010809641831248232 0.26449485094818953 0.002282337928744445 86 46 18
0.015231483870789389 0.26120841168931536 -0.0006916470333958938 84 45 17
0.016977500523763706 0.25986516353615696 -0.003684677752003474 81 42 15
0.013103805132107738 0.26260395605650305 -0.0066781192316047 78 38 12
0.011057817282677254 0.26401531555793617 -0.009664428620600907 78 38 13
0.010399847594096817 0.2644184261499092 -0.012651502858183027 78 38 13
0.011067827428557081 0.26385819174802516 -0.015646589534954618 76 36 11
0.011148225786944826 0.26372479715456487 -0.01864040265885109 77 37 12
0.012511412116633813 0.26265922987880186 -0.021649390368547853 75 36 11
0.013664026148098266 0.26174652319976577 -0.02466217365675052 73 36 10
0.015728184779178978 0.26017122221835165 -0.02769355188255068 69 32 8
0.013102359298304278 0.26200429843949774 -0.03065855206754701 67 32 9
0.012539616517896493 0.2623380735585128 -0.033652192182110574 65 31 11
0.014737654000532605 0.2606651213341865 -0.03669970678286672 57 22 3
0.026181867122313504 0.25227067872404285 -0.03995663824823399 49 19 6
0.033627696442444566 0.2467818404168255 -0.04316346753459259 36 15 5
0.043567933794511765 0.23947880402413707 -0.04646243163370026 19 9 3
0.04219935283334213 0.2403970172209718 -0.04949229179785964 20 14 11
0.047909855457361636 0.2361680639467333 -0.052723990259748735 24 17 14
0.045165601196984526 0.23808645913314352 -0.05571715129753834 22 14 11
0.04034484625762173 0.24151510732049025 -0.05863355500976455 19 12 10
0.04138385006512775 0.2406826739728974 -0.06173619706321131 18 11 9
0.03340025919856325 0.2464121873336909 -0.0645152005493209 18 11 8
0.022822633879891654 0.2540291548617393 -0.06716656561441631 26 11 7
0.01903189409598513 0.25671037957239506 -0.07005263941095753 50 21 11
0.011850747991143232 0.2618582181594874 -0.07278351104484568 77 44 30
0.01103369843846902 0.26237693668616846 -0.07576837470221989 91 62 49
0.012688694959642324 0.2610972167138783 -0.07886468304239522 97 71 57
0.011011609184996593 0.2622416424526227 -0.08180988955467555 88 61 46
0.005082516007393026 0.2664800363693687 -0.08453986123441883 83 51 35
0.005521756231184588 0.2660849238492107 -0.0875760730372003 72 40 23
0.012579148753640232 0.2608736162126448 -0.09096742842382419 80 48 28
0.0030029191881890405 0.26776690448443896 -0.09347047372017124 89 59 39
-0.0023470759744996794 0.27158517000174476 -0.09617979530167746 80 51 32
-0.0019503421412621902 0.27122112243912966 -0.09920845692671208 84 52 31
-0.011711853137273548 0.27825119620073857 -0.1016236530286413 87 49 28
-0.021264522930195623 0.2851301239367006 -0.1040168045172319 95 54 31
-0.02382495823920859 0.28691960515242 -0.10682598940120441 100 59 34
-0.018358064244023642 0.28286506576984555 -0.11015903512401526 107 65 41
-0.030825984906992024 0.29186810397590046 -0.11229157919181608 105 59 38
-0.034349102769471146 0.2943592537121729 -0.1150051792590189 133 99 77
-0.034340345051301166 0.29427885210357707 -0.11796088451558502 141 110 90
-0.04409763837626032 0.30131033564048754 -0.12019750075764296 124 90 69
