ply
format ascii 1.0
element vertex 677
property float x
property float y
property float z
property uchar diffuse_red
property uchar diffuse_green
property uchar diffuse_blue
end_header
-0.04621887667615046 0.13746407786443574 -0.5353023835293617 183 185 186
-0.04667270898771715 0.13794902169533968 -0.538381669459582 183 184 186
-0.04676027325492796 0.1379044863152324 -0.5416438701327411 183 184 186
-0.04697722291064391 0.13804692027053905 -0.5448428259681822 184 185 187
-0.046427360626707784 0.13708053018158148 -0.5484308385490453 184 186 186
-0.046813753112777946 0.13746776604971775 -0.5515479878402865 184 186 186
-0.04705581294929333 0.1376462556040153 -0.5547391141799423 184 186 186
-0.01611598385102494 0.092723388312844 -0.5739784953357407 184 186 186
-0.016152871745976273 0.09260030443374624 -0.5773682125590625 184 186 186
-0.015658662434209727 0.09170877042048914 -0.5810365474758102 184 186 186
-0.014593636918824045 0.08999107921576906 -0.5850089200082068 184 186 186
-0.014278623819490629 0.08935820628126145 -0.5885952215482396 183 186 187
-0.013963087827225822 0.0887243555513492 -0.5921860711879355 183 187 188
-0.010963266353565194 0.08420532426469382 -0.5972094537540753 183 187 188
-0.010525390089650328 0.08339354415653484 -0.6008821411542772 184 187 188
-0.011763172684323676 0.08500718714412928 -0.6036584804095603 185 187 189
-0.011471584301455517 0.08440692984837057 -0.6072571802031856 185 187 189
-0.011179721305249635 0.08380605960905241 -0.6108601893972379 186 187 189
-0.011042141096214146 0.08342838332999508 -0.6143830223634561 186 188 190
-0.010310553314596467 0.08219029369622259 -0.6182355892987962 186 188 190
-0.010124716997106955 0.0817422969165199 -0.6217933633449526 187 188 190
-0.009938663416923909 0.081293801212725 -0.6253548170619561 187 188 190
-0.009752523513855506 0.08084499597543443 -0.6289198830635598 187 189 189
-0.012249348194650934 0.08428311409591693 -0.6309825152038298 187 189 189
-0.012996280027511194 0.08518633310654185 -0.6340203547430499 188 190 190
-0.013190438122292276 0.08528861845952312 -0.6373698122675989 186 190 191
-0.013384628896716697 0.08539088200341263 -0.6407205875025285 186 190 191
-0.012721057728264408 0.08424981964530964 -0.6445642623163067 186 190 191
-0.012723538157107174 0.08407391605794337 -0.6480306682082432 186 190 191
-0.012842333504906711 0.08406650906752644 -0.6514322036828845 187 191 192
-0.0129613463599191 0.0840593248512705 -0.6548354012735819 187 191 192
-0.013248696209740694 0.08429614161488164 -0.6581419339993564 188 191 193
-0.014165423961223132 0.08544562977814082 -0.6610793055012102 188 192 193
-0.015551026141849486 0.08727529421729247 -0.6637367587825229 189 192 194
-0.016426285255833326 0.08836500691464387 -0.6666915199673058 190 193 195
-0.01700526041945421 0.08902505672116892 -0.6698203868205549 191 193 195
-0.017583993001984356 0.08968480279241559 -0.6729484679353854 190 194 196
-0.018162483143149995 0.0903442452714936 -0.6760757643795376 190 194 195
-0.018912313143194668 0.09125236743116862 -0.6790983712969204 191 195 195
-0.01954825043724031 0.0919953030619757 -0.6821883386031087 191 195 196
-0.02018416278316238 0.09273826842061342 -0.6852770472805578 192 196 199
-0.02245601845835305 0.09585597393868941 -0.6873592203068037 194 195 197
-0.02316396348321694 0.09670389421313652 -0.6903960353963183 195 196 196
-0.023871572263819873 0.09755141482107667 -0.6934313490053613 195 196 197
-0.024578844939888093 0.0983985359056195 -0.696465162201673 194 195 195
-0.025669933059427465 0.09980311420489496 -0.6992568468589272 191 191 191
-0.0255033923471055 0.09938140332318111 -0.7028360492757785 183 182 180
-0.025694172147325608 0.0994785148937244 -0.7061927985175489 171 169 166
-0.026617880166395914 0.10064023811894049 -0.709085256349413 155 153 151
-0.025580544483607633 0.09895311846048181 -0.713226505806713 140 136 132
-0.02828794909217784 0.10270647512615445 -0.7149748794523667 128 122 117
-0.029540203617818797 0.10434605177819296 -0.7176471435577164 119 111 105
-0.03111409520503846 0.1064533094153413 -0.7201062213964435 112 102 95
-0.032835526788286176 0.10877536238257425 -0.7224624324526546 109 96 87
-0.034196930644047926 0.11057449340547615 -0.7250460406773708 102 87 77
-0.03555610799909794 0.1123706806519475 -0.7276254505458952 96 80 70
-0.036453752853040776 0.11349614613832175 -0.7305035037203823 93 76 65
-0.03751824478903012 0.11486436301385942 -0.7332681667055846 90 73 60
-0.03904741458536844 0.11690851325644419 -0.7357197747368426 87 69 55
-0.04119716298016201 0.11985554859886051 -0.7377499320368267 84 64 51
-0.04604136912623619 0.1267222299222634 -0.7379607165348533 82 61 48
-0.048633647802531224 0.13031449913736498 -0.739663432257676 82 58 46
-0.050153673344122546 0.13234751473423512 -0.7420793384854936 79 56 42
-0.053475185259812257 0.13700199315229844 -0.7432628274317651 78 55 40
-0.05411727842021758 0.13775847540381564 -0.746259929911218 78 54 38
-0.05274432275421904 0.13558255379232204 -0.7506388749013402 80 54 39
-0.053022621530414565 0.13580938166913722 -0.7538901261922667 80 54 37
-0.06280619476189937 0.14987205421393407 -0.7505597591545072 79 53 36
-0.046483229241825484 0.1259328675530407 -0.7653305822952702 80 54 37
-0.049261931205966406 0.1297988285765564 -0.7668591097437442 79 53 36
-0.05169688359630664 0.13316500775443368 -0.7686144723783571 79 53 36
-0.05972908342870062 0.14468269637507628 -0.7664135363412231 79 53 36
-0.05978410866332316 0.144584933201311 -0.7698115589300298 79 53 38
-0.058723892097289086 0.1428626592221095 -0.7740043730077545 78 52 37
-0.05596973674224488 0.13867235857518875 -0.7794152151738596 76 50 35
-0.04282217602397189 0.11933933360358419 -0.7922954123742079 77 51 36
-0.05585570825978528 0.13814832057973692 -0.7864116840651207 79 53 38
-0.06902074310726994 0.1571529131518313 -0.7803559359269554 79 53 38
-0.0718445874966077 0.16109098080142745 -0.7817296100576498 79 54 38
-0.06985270793805304 0.158010939020849 -0.7865992536127888 82 59 44
-0.06108345760825597 0.14505111030388687 -0.7964450737606753 83 60 46
-0.05282374416649816 0.13283118154950677 -0.8059724736912883 85 62 48
-0.03915936444651319 0.11272868613516834 -0.8195426371454643 87 64 50
-0.04504500774553868 0.12112808937126349 -0.8187075593849749 87 64 50
-0.041165646265291705 0.11528908644893571 -0.8251072489343317 89 66 53
-0.04311091971274936 0.11794360952115814 -0.8271800577757763 93 69 56
-0.04516464856081083 0.12075681039096578 -0.8291621119145346 98 75 61
-0.04840014233529259 0.1252944420955507 -0.8302436310267349 100 77 63
-0.05110137920787147 0.129053532729397 -0.8317120524932496 101 78 64
-0.0493007465414831 0.12624477091548955 -0.8365864099443675 101 78 64
-0.05186037902920475 0.12979796484533607 -0.8381485889454218 98 75 61
-0.04662149545082649 0.12197071028772832 -0.8456700015981008 96 73 59
-0.043863395118010295 0.1177624938365448 -0.851318761489552 97 74 60
-0.0441936530303441 0.11806138954794143 -0.8546028843730947 99 74 62
-0.021208353816565315 0.08432242708599094 -0.8759594591140504 102 75 63
-0.017578949725649065 0.07883628497398229 -0.8823981305213396 98 71 59
-0.07717319931503669 0.16566779251915065 -0.8394662989527814 97 70 59
-0.07857211887092513 0.1675323243630176 -0.8418154133502811 97 70 58
-0.08180798867677797 0.1720800704976732 -0.8427118408395678 101 74 62
-0.08208806170170763 0.17231125847016385 -0.8459275230861597 106 79 67
-0.0945154080944104 0.19028760281774676 -0.8395029744351219 101 75 62
-0.09857324398014519 0.19603996683002473 -0.8396724779455764 99 71 59
-0.101322500733048 0.19988146347268448 -0.8408659927979426 100 71 55
-0.09914926365756546 0.1965303754390889 -0.8459976627728055 99 69 50
-0.10123202271375159 0.199398517198865 -0.8477145553214843 94 58 34
-0.10255263694351044 0.20115321742934827 -0.8500377263301815 95 55 25
-0.10968875346224946 0.21140933725153976 -0.8476310172093936 97 57 26
-0.11153132871088531 0.2139286582025252 -0.8494989565208193 96 58 25
-0.11330669127769001 0.2163501721542577 -0.8514129028498538 97 58 26
-0.11238715224098286 0.21483140829773995 -0.8555326442542076 96 60 30
-0.11330698679666976 0.21600221036100217 -0.8581434582508342 98 64 37
-0.11126595493236024 0.21284258288979185 -0.8632024599860674 99 67 39
-0.11090368577102354 0.2121378155537716 -0.8668815398531557 97 67 42
-0.11321550666193175 0.21534482411231037 -0.8683346277344304 93 65 44
-0.11212433925954102 0.2135735471574274 -0.8726252049499241 91 64 45
-0.11229462909084292 0.21364762723067315 -0.8758648922223324 84 59 44
-0.11217119768180175 0.21329179461539974 -0.879353803671576 83 60 44
-0.11100513396429612 0.2114098104816497 -0.8837288587098546 80 58 44
-0.11072149898883903 0.21081897062717253 -0.8873637721101477 74 53 36
-0.10859627141423964 0.20753198026700975 -0.8925739587507708 73 51 34
-0.10640907096712054 0.20415343408034098 -0.897853105508736 73 48 33
-0.103810214122904 0.20017128121150957 -0.9035023165104298 71 45 30
-0.10025575580317045 0.19478876580242924 -0.909994657915297 69 43 28
-0.10009950816328379 0.19438185380614115 -0.9135702817438458 70 46 31
-0.09978618597756299 0.19374468720270308 -0.9172859148903769 79 58 41
-0.10100443961268205 0.19535087691287562 -0.9196705881927075 84 63 46
-0.09503180617126503 0.18642229239201474 -0.9283431349345485 87 65 47
-0.09502584275117801 0.18623409200258612 -0.931815502730712 89 66 48
-0.096171606301788 0.18773347631342505 -0.9342752738752341 91 67 48
-0.09773643371148494 0.1898472603847921 -0.9363596430251009 94 68 48
-0.10566575315168537 0.20128992612016625 -0.932786207026343 93 67 46
-0.10488203502025638 0.1999628434296713 -0.93692819306567 91 64 43
-0.10563151920253674 0.2008831046943847 -0.9397067930511533 92 64 42
-0.10990125329613391 0.20696488243140237 -0.93932433970218 92 64 41
-0.10601624575462806 0.2010900796477999 -0.9462607991089018 96 68 49
-0.10057345548605598 0.1929293242216239 -0.9546323294533923 98 71 56
-0.09864809909504349 0.1899256532015146 -0.9598511908352292 99 76 60
-0.08068587482206062 0.16339732663069684 -0.9796797079719667 101 81 66
-0.07913775093021957 0.1609428779126859 -0.9846349717552052 106 84 71
-0.05803483505386588 0.12979712120990533 -1.0075239634461297 106 84 70
-0.06380189684137991 0.13807214163327589 -1.0058393292883694 100 78 64
-0.09745719940751812 0.18727559917500905 -0.9783837505228437 98 76 62
-0.10498826256477783 0.1981477861329043 -0.9749079156076987 96 73 60
-0.1143630247621591 0.21172861841893756 -0.9696731912098902 95 71 56
-0.11589719430658776 0.21380226799154145 -0.9716920248133674 94 68 51
-0.11895828454012408 0.21811809922660538 -0.9722749067022929 93 66 51
-0.12082089537728162 0.22067502247186388 -0.9739659442035143 98 71 55
-0.12647657726103198 0.22880263203667361 -0.9720741769032684 98 72 57
-0.12895333892539615 0.2322631539315213 -0.9731536709891426 99 73 58
-0.1215599112217251 0.2212265128660148 -0.9835818789717382 98 72 57
-0.12393609308400727 0.22453902143330712 -0.9847621151697563 98 72 57
-0.13160709315397895 0.235631262626466 -0.9808732691513308 98 72 57
-0.13878421619619966 0.24600025100245426 -0.9774107628496456 98 71 55
-0.14101164132618 0.24909782364154456 -0.978663208272416 99 72 55
-0.1378532862054967 0.24428059666500435 -0.9850991665781307 97 70 54
-0.14595210162816064 0.2560085837668037 -0.9806625661561987 98 72 57
-0.18971803041597232 0.32017058572228296 -0.941539551589716 99 75 60
-0.13589712456382036 0.2408759929869007 -0.9972188916330921 101 74 60
-0.10592869791819759 0.19663488908664717 -1.0299315270659084 101 73 59
-0.1905448328256807 0.3203789243355428 -0.9601929054982322 97 54 22
-0.15076035230439883 0.26167982387909733 -1.002982461018433 94 51 18
-0.16099074574758881 0.27655735624981403 -0.996165231388051 94 48 15
-0.1618777456111692 0.2776890834399257 -0.998630330240239 93 47 13
-0.15665850039547147 0.2698344019250212 -1.0072202785328863 93 47 13
-0.15462026699073436 0.26665986813432746 -1.012644021894408 92 46 12
-0.14745864969090544 0.2559426864035651 -1.023258758275789 91 45 11
-0.14933620270080206 0.2585305026279876 -1.0247628073769837 90 44 8
-0.1538260098665624 0.26496504780893837 -1.0236014431222646 91 45 9
-0.15545632207063578 0.267190237011884 -1.025329701865624 93 47 11
-0.15552368949826978 0.2671140702699961 -1.0286490259355299 93 50 14
-0.15564612922837565 0.2671189090422325 -1.0319139410530027 90 50 17
-0.15720114284310566 0.26923391881225534 -1.0337054478540175 92 53 24
-0.15824397910901314 0.27059477068448823 -1.0360184059579662 94 58 31
-0.15929961345278607 0.2719747007887137 -1.0383138203782225 94 59 33
-0.16072651685345876 0.27390194663335954 -1.0402188998454753 91 59 34
-0.16195550578074225 0.2755378715365328 -1.0423235621295286 89 57 32
-0.15767259063826833 0.2690500497631001 -1.0501890424597125 89 57 34
-0.1567686689733846 0.2675415323261214 -1.0545391968036506 88 58 34
-0.16118967347496682 0.273882833392294 -1.0532920752913841 87 57 33
-0.16005387110516928 0.2720324514671285 -1.0578866294239413 84 56 32
-0.1615223501736695 0.2740217936027288 -1.059732417750637 84 56 32
-0.16087142034972546 0.27288588420944837 -1.0638232791125788 83 55 33
-0.16133604143597824 0.27339497944337565 -1.0667318970544784 82 55 35
-0.1588589973663524 0.26956484212824894 -1.0727854438490798 80 53 36
-0.15739705954342015 0.2672312817229977 -1.0777692018555247 67 44 31
-0.15276622590541397 0.26022155276753856 -1.0861746186182315 53 34 24
-0.153080107413269 0.2605066053629363 -1.0892769954604697 46 27 20
-0.1522778566029596 0.25914445472218006 -1.0935881443275837 49 29 19
-0.15179749285715238 0.2582569852923581 -1.0975577233570701 65 40 27
-0.1529859191110455 0.2598325700696915 -1.0997155339524667 77 46 27
-0.15333663463179756 0.2601717115174638 -1.102783260611194 87 51 26
-0.15473074099304734 0.26205138028192115 -1.1047079161406128 90 52 25
-0.15607704533522998 0.2638608066703972 -1.1066784586321565 96 59 28
-0.1566254356685666 0.2644921844769997 -1.1095223434106711 99 63 29
-0.15877101826722756 0.26748265985246195 -1.1105989972045576 100 64 32
-0.1603577681615495 0.2696482509819895 -1.1122837911861163 97 62 30
-0.16189944438068726 0.2717476655881127 -1.1140107575802072 91 56 27
-0.16330426858920802 0.27364527702241737 -1.1158827493059538 89 55 27
-0.1616911913658189 0.27108372655010937 -1.1211255618638367 88 54 28
-0.16502804003927815 0.2758367779377161 -1.1208253415633862 88 54 29
-0.16625335874426841 0.2774699387853163 -1.1228827335523164 87 55 31
-0.16172284345481733 0.27059507511545766 -1.1314342504600743 86 56 32
-0.16620370331711237 0.2770407441208161 -1.1298125639506587 87 56 34
-0.1778313882588571 0.29405480486251745 -1.1200449544803737 86 56 35
-0.18351585362936673 0.3022843670851071 -1.1169730141882026 84 56 35
-0.18554703335702025 0.30511292009811286 -1.1180399729819581 84 57 39
-0.19156622622910358 0.3138406246344001 -1.1145254061446948 80 56 40
-0.18789649886910947 0.30823794664216675 -1.1221094666406142 77 59 44
-0.18549059191105766 0.30450358261816124 -1.1282639397856604 94 82 70
-0.16015948647502196 0.2668481100026865 -1.1609424630556886 125 119 108
-0.16135647483052695 0.2684392636624955 -1.1630343403241752 158 155 149
-0.16833818914808446 0.2785918038597849 -1.1583936422723446 178 176 173
-0.1685284853324637 0.278694500911881 -1.16162921768241 185 185 182
-0.16759487666453995 0.2771334102897844 -1.1661807755112694 191 191 189
-0.1679674116775794 0.2775055686442933 -1.1692091184510933 194 194 192
-0.13927698454451118 0.23484561016513344 -1.206429039368417 197 197 195
-0.13190815699926292 0.22374903363766582 -1.2186899282427204 198 198 196
-0.09406092586551962 0.16751113256163414 -1.2670671188028426 200 199 197
-0.08882035372480523 0.15955605470353487 -1.2770116987972975 202 201 199
-0.08999153183826145 0.1610970579730988 -1.279364507980968 203 202 200
-0.2763163868982283 0.4367879742297994 -1.0638545479800066 205 204 202
-0.2778410558628696 0.43888605625153027 -1.065140767477385 205 204 202
-0.2879887811235934 0.453764436900558 -1.0560396450029688 206 205 203
-0.22806803916394555 0.36461803937316417 -1.134738650147054 207 206 204
-0.22899965326188476 0.3658289055785328 -1.1368985456636118 207 206 204
-0.22894603335816105 0.3655790973641099 -1.1402539770601594 207 206 204
-0.228773440012786 0.3651527074865726 -1.1437575577652095 208 207 205
-0.030436697803902832 0.15427486758448644 0.1228206999162051 183 183 183
-0.029449930182163853 0.15273440549122774 0.12000831203382162 183 183 183
-0.01958524780220143 0.13866285441773168 0.11785143359656573 183 183 182
-0.02119059743472801 0.14077953821133132 0.11481634898659215 183 183 181
-0.02275005816984081 0.14283175176391855 0.11179054399728057 182 181 176
-0.015036882083248576 0.13179284344743622 0.10939298557015466 145 132 123
-0.016175755679041767 0.1332506191204351 0.10638292865976176 122 95 84
-0.017600897667885695 0.13511282358397078 0.10335884357889609 132 96 80
-0.02060111872523078 0.13919964792692519 0.10024604017670177 127 92 62
-0.03302948962923892 0.15660294729545232 0.0966077858875038 89 55 21
-0.03326632410312056 0.156789108433736 0.0936956911560953 80 46 20
-0.03435176507292246 0.1581739755160318 0.09073864811967479 76 42 15
-0.03434908962684278 0.15802180806929825 0.0878391043790333 76 42 15
-0.0337842805553211 0.15707532645394393 0.08496410241200311 75 41 14
-0.03363593805822561 0.15671706343889677 0.08206577871695983 81 47 20
-0.033961597444456114 0.1570284834885172 0.07914484749581087 77 42 19
-0.03395886807509517 0.15687579530740603 0.07623661928086388 77 42 20
-0.03424390035416635 0.15712972251547874 0.07331579411711073 80 46 24
-0.035445886520474916 0.15867974076154573 0.07036282360785784 80 45 23
-0.03548027440252329 0.1585794171455385 0.06745134539276251 78 44 18
-0.03555868598725274 0.15854124267001946 0.06453681438326453 83 49 21
-0.03570321302043655 0.15859646957364815 0.061618966472689565 81 47 19
-0.03456033307765081 0.1568312179704996 0.0587313714211371 77 43 16
-0.03370076564069952 0.15546621762169383 0.05582986228376726 78 44 17
-0.033866673910650645 0.15555120233528474 0.05290219720178683 74 40 14
-0.03387230078015124 0.15540942764915422 0.049976131233644326 78 44 17
-0.03365228187611345 0.1549483709775174 0.04705138218002205 80 46 18
-0.035030668261171 0.15674836651305094 0.04410473519660098 82 49 21
-0.03577770555630103 0.15765539033503773 0.041168969280530654 82 48 20
-0.03652415107561134 0.1585616711379878 0.03823505006151238 77 43 16
-0.036124435948670666 0.15784616605313823 0.035307760805436766 73 39 13
-0.03586979955483953 0.1573357706152083 0.032376255962563105 68 34 10
-0.03561495756514777 0.15682491815889932 0.029441506399192695 70 35 13
-0.036160190532158305 0.15744636148676144 0.026506264852891114 70 35 13
-0.035594225127831024 0.15649486196454454 0.02356518652433641 68 33 12
-0.034617897278057766 0.15496216249747136 0.020615766781300504 68 35 13
-0.03511026525355109 0.15550854034768768 0.01767569239455618 70 38 15
-0.035602561642623376 0.15605484487801422 0.014736165046865068 70 38 16
-0.03609471657046569 0.15660097713895282 0.0117971836072729 68 37 15
-0.03658679995846243 0.15714703612770486 0.008858748850820188 69 38 18
-0.03663386630263443 0.15706281960747434 0.005911386456764506 69 38 20
-0.03717014153092568 0.15767147377246019 0.0029739649600262347 61 30 12
-0.03802298490157928 0.1587286243368097 4.56779805985269e-05 59 29 11
-0.03786980946500638 0.15836061938566248 -0.0029093548654978083 60 29 11
-0.036644467553340374 0.15647333997358534 -0.005900947728671998 63 32 12
-0.03635852182839317 0.1559167749739314 -0.008868768906529923 65 34 14
-0.0367940916093363 0.15638252547139947 -0.01181358500068987 67 37 16
-0.0365239889869087 0.1558481566372275 -0.014785824054945995 67 36 16
-0.03486253072457234 0.15334149781341946 -0.01781957974268998 65 34 14
-0.034309935030638665 0.1524061561898495 -0.02081466670491546 68 37 16
-0.03427311242074677 0.15220176362371285 -0.02379037643121762 68 37 17
-0.036778597561841674 0.155601748810828 -0.02664240141085423 65 37 17
-0.034935656976189236 0.15283651207884258 -0.029709996127735516 66 38 18
-0.03449181069195048 0.15205469516213194 -0.03271260484449405 68 39 19
-0.03513150435127239 0.15280933288269316 -0.0356574774463406 67 39 20
-0.036270234873535 0.15427183613237988 -0.03857119493733714 61 33 14
-0.03660485994857284 0.1545939450221065 -0.041531208924606 61 33 14
-0.036910219646390074 0.15487452438649527 -0.04449339503462833 64 36 17
-0.03708785200055807 0.15497387199296708 -0.047464633797202144 68 39 21
-0.03655733491639865 0.15406840002061167 -0.05048663900779679 67 38 20
-0.037885723928931615 0.15580045668510312 -0.053378163360598904 68 39 21
-0.03818538885880885 0.15607287585575233 -0.05634231468148239 65 37 20
-0.03953954600376504 0.15784186695614102 -0.05922474050432927 78 55 41
-0.04269223610769397 0.16216393353402714 -0.0619573192211296 64 45 35
-0.04844676257927315 0.17018009977077814 -0.06445926563626181 77 58 48
-0.053343529310071476 0.17697997037222857 -0.06700684490114907 76 56 45
-0.057891769960233944 0.18328620842474175 -0.06956174297536268 77 54 40
-0.06331673295270099 0.1908384323946083 -0.07201525502463407 82 55 39
-0.05922318705198298 0.18487519781633752 -0.0753327197033577 111 84 68
-0.0604771338157037 0.18650521513676474 -0.07815943694396459 120 97 84
-0.06255963301369338 0.18931227604008694 -0.08089979488765871 109 86 72
-0.06315153717491666 0.1900024684478438 -0.08378233761315747 90 62 45
-0.06593875712739328 0.19381135749107653 -0.08643556155588578 80 49 30
-0.06996245711505666 0.19937758445234371 -0.08894444328831036 77 47 28
-0.07311163067774441 0.20370221043587222 -0.09152975444301684 68 37 18
-0.06690751290726549 0.19473664850245842 -0.09514622440926354 68 38 20
-0.07306116375695808 0.20333123955718485 -0.09738325807238912 89 65 51
-0.07741661251766405 0.20937167011774205 -0.0998004919407564 90 64 51
-0.08244343331770507 0.216367450362027 -0.10211654298549999 97 65 51
-0.08806933521193223 0.22421608822485262 -0.10433494739816651 102 72 59
-0.09047173080744458 0.22748340609004336 -0.1069284016297467 106 76 65
-0.09302758168520309 0.23096945140060365 -0.10949162554137454 116 88 76
-0.09821581813284137 0.23819914956171262 -0.11170075842175517 112 84 72
-0.10047001049429702 0.24125774687908164 -0.1142741470510018 130 100 86
-0.10106895835910712 0.24196276593552787 -0.11706176021556484 140 111 96
-0.10228876768307349 0.24355091874425785 -0.11976245355947032 149 122 105
-0.10210075123387835 0.24313671415943053 -0.12265671798405779 132 104 84
-0.10550939700045277 0.24783898105727292 -0.12503844778538192 105 69 44
-0.10526986420998174 0.24735166733868458 -0.12793661407685714 93 48 18
-0.10558010271799381 0.24764644423006243 -0.13075629200169364 86 41 10
-0.10970067455658164 0.25336334083056267 -0.1330000004758533 81 40 11
-0.1093666741676434 0.2527417577218679 -0.1359093514648628 73 33 11
-0.1075354399651946 0.24998900373175367 -0.13905677074785802 69 32 10
-0.10629080445078672 0.2480706270971758 -0.14212245591519243 69 34 11
-0.1076822298252041 0.24990437744887384 -0.1447701000296622 69 39 17
-0.10456480267668798 0.24531921731678463 -0.14815392216345585 69 45 27
-0.10770065104307917 0.24963665774316254 -0.15051112535919042 71 48 34
-0.10814445403275415 0.2501214926744447 -0.15331070664567753 73 51 38
-0.10778304652027518 0.24945965349045424 -0.15624873697965794 73 51 38
-0.10697403355225302 0.24816012312315988 -0.15926902092867845 72 50 37
-0.10319694391542628 0.24263264694708658 -0.1628231728506067 72 50 37
-0.10254302401871646 0.24155300120269707 -0.16583590862458444 70 48 35
-0.09980831707959148 0.2375087084303957 -0.1692350614963916 67 48 35
-0.09823677004508574 0.23512080875712488 -0.172434710072127 66 46 35
-0.09624749931109296 0.232137159669031 -0.17572343102092727 65 46 35
-0.09493294107807378 0.23011436269845303 -0.17889582894222245 64 46 34
-0.0967711742915908 0.232584412266679 -0.1814663612278533 64 46 34
-0.09555696741628678 0.23070415629968755 -0.18462865871932524 65 47 35
-0.09656015729734227 0.23198427096129096 -0.18735794969086125 65 47 35
-0.08976853308601293 0.22124543605797922 -0.20937820532739698 63 45 33
-0.09079526143896285 0.2225586133089149 -0.21211239470858445 63 45 34
-0.09259993420532883 0.22498185803118936 -0.21466940054952013 64 46 34
-0.09331992927158385 0.22585784410997561 -0.2174637999958225 65 47 35
-0.09419823785851 0.22695983365908443 -0.22022014652806038 66 48 36
-0.09368305114789459 0.22607329444076327 -0.2232961605598676 65 47 35
-0.09003655575382771 0.22071736293427158 -0.2271098443937156 64 46 34
-0.09142715121237052 0.22255018112563893 -0.2297527518450238 64 46 34
-0.09253902029275143 0.22398539154361297 -0.2324569226203251 64 46 34
-0.09007366306724704 0.22031374114749297 -0.23602334463337304 65 47 35
-0.08445745907101251 0.21214252829064661 -0.24037665159566962 65 47 35
-0.08179855927344154 0.2081924996126053 -0.2440302969261638 64 46 34
-0.06631940028673972 0.18593332280959957 -0.2509089825071857 65 45 34
-0.0675395248424065 0.18751990907934873 -0.2536490059854909 64 44 33
-0.06861638298297773 0.18890209183354434 -0.25642113679305883 62 43 31
-0.07041086441189609 0.19130958619719607 -0.2590040714509433 62 43 31
-0.07052038524241569 0.19131028424220917 -0.26201934556821643 63 44 32
-0.07167381016518656 0.192802405296972 -0.26476068454452617 62 44 32
-0.07197761008624373 0.1930807025478494 -0.2677243286329414 62 44 32
-0.0738950663849485 0.19566497185416842 -0.2702538674945531 61 43 31
-0.06955077596059514 0.1893004500091533 -0.2744783651233508 58 40 28
-0.07145219104753778 0.19186177259017972 -0.27701267403420315 57 39 27
-0.07262179974998609 0.19337742451311402 -0.2797417709695259 57 39 28
-0.07448335001861822 0.19588250050564582 -0.282272702437134 59 41 31
-0.0749525085905553 0.19639722072729296 -0.2851895245148433 60 41 33
-0.07514357870374413 0.19651432935819982 -0.28818532685029585 54 35 25
-0.07169565742948322 0.19142752623763426 -0.2922316943181756 51 32 23
-0.0721690572072925 0.19194779520352165 -0.29515738226713556 48 30 20
-0.07154821665407177 0.19090298821393986 -0.29840417095421984 61 40 29
-0.07271811367067327 0.1924194557032448 -0.30112530436956547 63 42 31
-0.05710707493302017 0.16992953063548286 -0.30886581583522865 79 59 48
-0.06380323362847709 0.1793506631168168 -0.30995485989560934 70 50 39
-0.0716793466473924 0.19046192892467204 -0.3106495422577862 83 61 51
-0.03430217272091528 0.13681738616377367 -0.32522342140077215 79 55 41
-0.0682868726517582 0.18529182601628094 -0.31785714169312507 77 45 26
-0.06906861248886748 0.18625260217769812 -0.3207022574686031 72 38 18
-0.07190685074596467 0.19015722861178852 -0.32289562228721463 72 38 17
-0.07286055959463848 0.19136470315627124 -0.3256759385997329 73 41 21
-0.07575653333281313 0.19535310753944896 -0.3278289168993658 74 46 30
-0.07237374663174989 0.19035193765204664 -0.3320032730948962 74 51 37
-0.07029769632607438 0.1872209456262233 -0.335771272218673 56 35 26
-0.06527870094267252 0.17987454949988063 -0.34052309997380703 32 15 8
-0.06185891204972274 0.17481713502366664 -0.3447732086206601 48 32 22
-0.06509499153589095 0.17929265618973023 -0.34681332083148725 60 43 31
-0.057214264928503226 0.1678434453986779 -0.3525948986897214 56 38 27
-0.06672467674779747 0.1813082771984712 -0.35249632081530535 53 35 25
-0.06323623774298673 0.17615031977995527 -0.3568125685412115 48 31 21
-0.06302690241263209 0.17569018332910263 -0.3600148009318799 56 40 26
-0.06479757024098451 0.1780674823192172 -0.3625291993386803 56 42 30
-0.06523891075237076 0.17853988261766962 -0.3655036659476924 36 21 14
-0.06472530717233094 0.17764346414531118 -0.3688165157134992 46 30 25
-0.06404670407189902 0.1765102511970208 -0.37219337928507384 68 50 43
-0.06441818120674334 0.176882235042582 -0.37519795909505715 75 56 44
-0.06989273695379339 0.18457123423290667 -0.37635025807302397 73 50 37
-0.06739470814195464 0.18082909974036804 -0.3803904572376429 63 38 22
-0.0634391611918168 0.17499586934001982 -0.3849839903522755 65 37 21
-0.06616132767235113 0.17873906064889336 -0.3871219047388951 69 40 26
-0.06375420819892799 0.17512538789225895 -0.3911660003399042 78 49 34
-0.06053278861777995 0.17034275192529896 -0.3955327181913473 72 40 25
-0.059032415102211876 0.16802826951198746 -0.3992660838444736 75 41 24
-0.056557371744099826 0.16431474286051642 -0.40338293828619326 74 39 21
-0.08054805837988144 0.19857843283368862 -0.39731686645278086 76 40 21
-0.07929944604498455 0.19662714913121312 -0.4009156123565214 79 41 23
-0.08390606231660368 0.20307926747929028 -0.4022342726755638 78 40 21
-0.08899238261349525 0.21022117548121672 -0.4033403322230657 73 33 13
-0.08499887549537063 0.20432976092516708 -0.40802102542763813 76 43 25
-0.08174388371471848 0.1994973781299345 -0.41243138170511273 117 91 78
-0.08858399791843408 0.20915902569502504 -0.41280171229899865 106 82 69
-0.08900944470224159 0.20961109476374784 -0.4157339178406119 93 63 43
-0.08625504151336416 0.20549646374981068 -0.4199628443840855 85 48 22
-0.09893945911047132 0.22355547153916594 -0.41786900563009405 77 37 12
-0.09850597883812912 0.22277509845435955 -0.4211300831808939 79 39 14
-0.1005389517914341 0.22553773184593007 -0.42336890762359797 79 39 14
-0.10460709096160305 0.23122480380405236 -0.4247453446270359 80 40 15
-0.10526301853629338 0.23201006108796973 -0.4275408400619875 81 43 19
-0.10696877108276662 0.23430400514642552 -0.4298887937069309 85 50 28
-0.10466690249279398 0.2308387678067239 -0.4339431064909989 82 53 34
-0.1120626718498538 0.24131115039754258 -0.4338379264214055 86 60 43
-0.03996818995644149 0.13752282991560788 -0.4681379147357546 91 68 55
-0.03977587321363028 0.13707919314757036 -0.47148839045263496 98 85 77
-0.0443827083129595 0.14353528704768007 -0.47273541558680077 152 148 143
-0.0414732830371316 0.1391851264631505 -0.47727957466224435 165 164 161
-0.040930516300320685 0.1382373158703375 -0.48079015060866526 167 167 166
-0.02122035323079633 0.10972323925420255 -0.4928842406299987 171 170 169
-0.021328275283693122 0.10970797867219706 -0.49616714973871656 171 171 170
-0.03437446268475426 0.12830383885974947 -0.4935876932413621 170 172 171
-0.03467966314001292 0.12857409615600351 -0.49674718103112336 173 176 174
-0.035149942550804406 0.12908183170553333 -0.49983149004150196 176 179 177
-0.035691624610173014 0.12969232696821928 -0.502882465911039 177 180 178
-0.03613749881401057 0.13016498951597136 -0.5059771919260508 178 181 181
-0.03677087735153756 0.13090751836431413 -0.5089840351503545 179 182 182
-0.037245918309904605 0.13142221184523661 -0.5120640634116785 181 184 184
-0.03709567602782689 0.131036838370715 -0.5154396177208342 183 184 185
-0.03753920241005577 0.13150611046822278 -0.518535665738804 184 183 185
-0.037970974384285004 0.13195846940939795 -0.5216371366736074 185 184 185
-0.03852379694089962 0.13258513952111453 -0.524680138691181 184 184 185
-0.03923296683833957 0.13343700414951812 -0.5276465189380019 182 184 184
-0.039740505627096814 0.13399856420033282 -0.5307094796896509 181 184 184
-0.04024784183599413 0.13455986200047185 -0.5337719625758933 181 184 184
-0.019500326505223632 0.1045032406655068 -0.5473201656312456 183 184 186
-0.03822438683272773 0.13130562778388205 -0.5414028421251382 183 184 187
-0.03848544303408553 0.1315117230652415 -0.5445952771502116 184 184 187
-0.03879233506217305 0.1317838224265142 -0.5477655510017202 184 184 187
-0.039099167543516486 0.13205580603378114 -0.5509364399981883 184 185 186
-0.03923351815793327 0.13207916946777787 -0.5541954990045519 184 185 186
-0.019733707994194785 0.10380173364800512 -0.5674828742945163 184 185 186
-0.019771482230719874 0.10368280795750262 -0.5708515127805405 184 185 186
-0.019809393375623725 0.10356396772528788 -0.5742222676546769 184 185 187
-0.01940617846800717 0.10280897943577433 -0.5778243163592075 185 186 188
-0.019004725066697675 0.10205628819554033 -0.5814301942670047 185 186 188
-0.0186942701638824 0.10143458706768055 -0.5849930268920551 184 186 189
-0.017158364281356676 0.09904521183935455 -0.5892072034697016 183 186 188
-0.016728383605207946 0.0982504874466619 -0.592845507988039 184 187 190
-0.01643488011396019 0.09765239145776289 -0.5964158769053289 184 187 190
-0.01688408487592962 0.09812561741589704 -0.5995917033183293 184 188 191
-0.015875683352136186 0.09649569095872161 -0.6035540246153227 184 188 191
-0.016324185546554855 0.09696770444858782 -0.6067341138744456 184 188 191
-0.015531014066922057 0.09564776116348651 -0.6105914041062575 183 187 190
-0.01523171405066577 0.09504027807037409 -0.6141848993500125 184 188 191
-0.014932011552430253 0.09443199939182098 -0.6177828102298415 185 189 192
-0.014530581924481024 0.0936766489992405 -0.6214413086697148 185 189 191
-0.014974382396967016 0.09414138247469786 -0.6246336271113909 185 189 191
-0.016192179483376305 0.09572372289403858 -0.6273922510128086 184 189 190
-0.01575927938565818 0.09492255816977634 -0.6310756677023913 185 190 191
-0.016805065738735837 0.0962567061926313 -0.6339271320371098 185 190 192
-0.01699888443335913 0.09636047418839688 -0.6372596414617598 185 190 193
-0.017050321759473366 0.09625849976793742 -0.6406748988572571 186 190 193
-0.017043019694405283 0.09607155488254918 -0.6441260817752628 186 190 193
-0.017150860745862556 0.09605084433489047 -0.6475132496268664 188 191 194
-0.017349773140325236 0.09616163663072495 -0.6508493674014643 188 191 194
-0.017579158893632617 0.09631640052221149 -0.6541690000577189 188 191 194
-0.01834050425338793 0.0972399409006948 -0.6571777171808848 189 192 195
-0.01911226635129918 0.09817864101658436 -0.6601782806360781 189 192 194
-0.020193751829257322 0.09956517980203476 -0.6629932632465787 189 192 194
-0.020269814733719124 0.0994983397950482 -0.6664029981832955 189 192 194
-0.020804454929783774 0.10009444841656448 -0.6695403562293748 190 192 195
-0.021466245066486766 0.10087445594853368 -0.6726005735420953 192 194 197
-0.02230553359600714 0.10191123374847662 -0.6755520954780083 191 192 193
-0.03552586663855647 0.12085539335527866 -0.6709826293374143 190 191 191
-0.03491796223966788 0.11980094385992729 -0.6747756073275727 185 184 185
-0.02432687438638304 0.10430403446149761 -0.6846961981714463 178 176 175
-0.024414255030645166 0.10425338654203048 -0.6881025242261487 169 166 164
-0.024755143517527806 0.10456945139888571 -0.6913538672289309 159 155 151
-0.02509246218280674 0.10488032656136739 -0.6946078959358314 144 139 133
-0.02527604545683162 0.10496868240522372 -0.6979585060426955 135 128 122
-0.025240189708245698 0.10473934872720503 -0.7014483348505183 124 116 108
-0.025420180827545213 0.1048223277067656 -0.7048046705420927 117 110 101
-0.02739125167594185 0.10749820261576766 -0.7070268923320895 110 102 93
-0.028905010547179345 0.1095124248503636 -0.7095311601148421 105 95 84
-0.028821423280940128 0.1092139954252369 -0.7130511376706284 100 87 77
-0.03016999583877801 0.11098942461165988 -0.7156533078203267 98 83 72
-0.030372123662055852 0.11110471503543452 -0.7189904528271995 96 78 65
-0.030070464175767277 0.11049021504952425 -0.7226558130000958 93 73 60
-0.030512450022887053 0.11095276136636507 -0.7258406857780398 89 70 54
-0.030670510581433857 0.11100396862871152 -0.7292113663452445 90 68 53
-0.03082875939782958 0.1110553687075802 -0.7325834855148255 86 64 48
-0.04326455873043235 0.12889796413196353 -0.7278428043732166 83 61 45
-0.04407395498034354 0.12989476093707844 -0.7307489006212577 82 60 45
-0.03705562278642551 0.11954619109542604 -0.7388730549312269 83 58 44
-0.05387715452913053 0.14375243449092745 -0.731071074796966 82 55 41
-0.05479715798573017 0.14491120324398982 -0.7338710028338771 80 54 39
-0.05363178227467256 0.1430466230257508 -0.7380774548796598 77 52 36
-0.059558263282937625 0.15146484207354077 -0.737478388003425 77 51 35
-0.0580859593691079 0.14915528604837422 -0.7418917806868301 77 51 36
-0.0560555498334289 0.14603571634547885 -0.7466988177146617 77 51 36
-0.057704088550108154 0.14825161944469983 -0.7489894769744602 78 52 35
-0.047619871342249785 0.13344800835292697 -0.7593802254273945 79 53 36
-0.04962970698917687 0.1361870263150817 -0.7614406371820457 80 54 37
-0.05320848006429585 0.14120297270389964 -0.7623977413699765 79 53 36
-0.056767508318915624 0.14619124806493294 -0.7633495069656375 78 52 35
-0.06499238794408357 0.15795181679037856 -0.7610015351361339 78 52 35
-0.06364692789864866 0.15582436752784096 -0.7653643430706467 80 54 39
-0.061057998868197585 0.1518914029242891 -0.7706196515356168 78 52 37
-0.05474990498443112 0.14255833550757266 -0.7785420536241838 77 51 36
-0.057353853267742005 0.14616231863397475 -0.7801308146811419 79 53 38
-0.05992830108391375 0.1497241480950663 -0.7817274426500554 80 54 39
-0.06376880704717736 0.1551251987664619 -0.7823976438592029 78 52 37
-0.06766310141025618 0.16060543707356822 -0.783007998107423 78 53 38
-0.0612399922991465 0.15110078977171904 -0.7911024106380801 82 59 44
-0.051767833846021356 0.13716480687776342 -0.8014657884373996 86 63 49
-0.04543067016570612 0.12778027866553437 -0.8095898406763123 88 65 51
-0.03918273264733922 0.11852328235188646 -0.8176894094671366 90 67 53
-0.03617331866633476 0.11397016267690388 -0.8234343410397932 91 68 54
-0.03433763115632801 0.11112171802591725 -0.8283285106822238 92 69 56
-0.037921973379545226 0.11615021408682052 -0.8291943997909005 93 70 57
-0.040071655646592 0.11909429512445092 -0.8311152375591001 98 75 61
-0.04049716393880927 0.11953240726543621 -0.8343218794377081 101 78 64
-0.04265616618642965 0.12249085331685615 -0.8362197614045488 102 79 65
-0.04018748981832969 0.11872092246328947 -0.8416149080711951 104 81 67
-0.036682045030744834 0.11344239695899018 -0.847816889123045 99 76 62
-0.03654068811419668 0.11305528047338384 -0.8514722381883727 97 74 60
-0.03500680163984513 0.11064250767286087 -0.8561994805146379 97 74 60
-0.03585172254062037 0.11168954498962354 -0.8591062882798771 98 73 60
-0.012531572860234173 0.07758022786075916 -0.880700138827079 97 71 58
-0.019070638303369088 0.08690872805793791 -0.8792547492529136 95 69 56
-0.0785477245646608 0.17327260323757943 -0.8365020443857593 97 71 58
-0.08228006384495926 0.17852863963040663 -0.8370145356994108 97 71 58
-0.08510835071720918 0.18246989806717676 -0.8382168507532236 99 73 60
-0.08910944958069658 0.18811911183474891 -0.8384790118044965 98 72 59
-0.09468825780911577 0.19606628675215654 -0.8374694576443905 97 70 57
-0.09715713491832423 0.1994871846710625 -0.8389003885790135 100 71 57
-0.10249198695042191 0.20708192050945423 -0.8380310530654629 99 69 52
-0.10254082383497004 0.20698034953632505 -0.841366508641546 96 66 46
-0.10573330303373456 0.2114571627472932 -0.8421755605266682 93 59 36
-0.10840872180186194 0.2151817190340566 -0.8433847682122828 92 51 25
-0.11020628805928889 0.217628189454116 -0.8452913777698997 92 50 21
-0.11002164360902719 0.2171872080568216 -0.8488021497195004 93 52 21
-0.11135392263079566 0.21895629980655812 -0.8510775460244762 94 52 20
-0.11025224903472483 0.21717887038694225 -0.8553427155809307 90 52 21
-0.11149365114140328 0.21881572741849992 -0.8576888407901535 94 58 29
-0.11280356295799202 0.2205527097638971 -0.8599731049209307 98 64 36
-0.10823035029062639 0.21371412397473485 -0.8671302981626187 98 66 40
-0.10994887405891945 0.21604645009522902 -0.8690814215596043 94 65 42
-0.11332386559927818 0.22079436951212944 -0.8696403025657596 90 63 42
-0.11270848334388389 0.21972453917146656 -0.8735270328298861 84 58 42
-0.11249260758739066 0.21923700262136775 -0.8770838138917288 81 58 41
-0.11166028903724268 0.21785018406900242 -0.8811652740015138 81 58 43
-0.1098574884000354 0.2150473614909703 -0.8860774544909173 76 55 38
-0.10986077577838127 0.21487860102769563 -0.889466154088868 74 51 35
-0.10531204250403078 0.20806837332134037 -0.8967461996622723 74 49 34
-0.10343866939760342 0.20516030062695284 -0.9017633382754384 71 45 30
-0.10236650620705556 0.2034207085902814 -0.9061052611568662 69 42 27
-0.10133381028030097 0.2017382429461404 -0.9104223742541165 70 44 29
-0.09929709307700058 0.19858981381341256 -0.915618914222386 76 53 37
-0.09573028351389799 0.19320698022441302 -0.9221620934975631 82 59 42
-0.095391714660051 0.19253594736442498 -0.9259114067199969 84 60 42
-0.09356690595214671 0.18969459231154467 -0.9309679018503594 86 61 41
-0.09338572381980433 0.18925266631496115 -0.9345928864884097 89 63 43
-0.09651532494245935 0.1936457466910377 -0.9352992193850119 91 64 43
-0.09709480386568174 0.19431499818288717 -0.9382473398078681 91 64 42
-0.10011304614931493 0.19854676067655944 -0.9390262724938244 90 62 40
-0.09941073233001871 0.1973439171563665 -0.9431080566118131 92 63 40
-0.1015335524663818 0.20026848133427108 -0.9446673767127763 90 60 36
-0.10056003408609962 0.19866908001092715 -0.9489979302997914 89 59 39
-0.09877695254993023 0.19588612544095205 -0.95406721853005 94 66 46
-0.0969147325998492 0.1929867924757736 -0.9592220246303312 95 70 50
-0.08092133498413256 0.16943065030275406 -0.9772231680886945 98 76 59
-0.07879735345378666 0.16614486930007377 -0.9826903422539719 102 80 67
-0.04621617821313463 0.11832791790262467 -1.0160244662943172 102 80 66
-0.04698829838703046 0.1192702706853838 -1.0189635551901903 99 77 63
-0.07917469331406168 0.16615264417750147 -0.9929741459065221 98 75 61
-0.10023199702187738 0.19676850867752943 -0.977065180919546 96 73 59
-0.10911329491592044 0.20958107893588038 -0.9723137697923502 94 70 56
-0.11064560961407052 0.21164574162955085 -0.9743455510485902 94 68 53
-0.12139622687770149 0.22719755332381797 -0.9677640580011606 93 68 53
-0.1240113813223429 0.2308488852632673 -0.9687374842369262 93 68 53
-0.12763736707747186 0.23598016559334828 -0.9687465404067884 98 74 60
-0.1305957604158674 0.24013545989896296 -0.9693645679423972 100 77 63
-0.13394028343988032 0.24485677329093944 -0.9696007237259867 102 78 64
-0.13156153375676677 0.24120096236594746 -0.9752528467755359 101 77 63
-0.13322675978681572 0.2434647349805392 -0.9770695831353999 97 74 60
-0.13471279116616633 0.24546654977824633 -0.979049474043716 97 72 57
-0.1361391528089293 0.2473813459305729 -0.9810795847097731 96 70 54
-0.1383116426912106 0.25038920368769063 -0.9823849170022372 98 72 57
-0.14479293427652615 0.25970869607637653 -0.9795177535742057 99 73 58
-0.14727981755220135 0.26317897859584727 -0.9804816292924673 100 74 59
-0.14659527114985133 0.2620037523689936 -0.9845151148456743 100 73 59
-0.1411013955141363 0.25378162259702125 -0.9932465205333812 103 75 61
-0.14176303819005254 0.25457752534037836 -0.995992047996971 88 58 40
-0.14229417446281983 0.25518225786046345 -0.9988639799134196 91 54 30
-0.14474469035045295 0.25860023188683096 -0.9998442481837583 92 54 24
-0.12610513380259952 0.2311040983285169 -1.0216552582773448 95 53 21
-0.14869539320507258 0.26404503402099155 -1.0027071048099088 94 51 18
-0.14956990567634848 0.26515419812884367 -1.0052182661769735 93 48 15
-0.15610182238748355 0.27455922221390494 -1.0020798014676016 92 46 12
-0.15579216870330037 0.2739330568514685 -1.0057520291895625 92 46 12
-0.1537045284430336 0.2706989277901364 -1.011214918298546 91 45 11
-0.14170909359792783 0.2529307938629624 -1.0266792787778571 92 46 12
-0.14606669852131066 0.2591485997194898 -1.0256900156951438 91 45 9
-0.14816375251185543 0.26205110028446565 -1.026967895392382 91 45 9
-0.154259693965268 0.27082191114839027 -1.0241653661682832 92 46 10
-0.15454903095723083 0.27107337425874156 -1.0272533941852116 93 49 13
-0.15489148530126995 0.2714027626715998 -1.0302876842223556 91 50 16
-0.15576270470368175 0.272508280142088 -1.032779031983011 93 53 23
-0.15754901657587495 0.2749573257249863 -1.0343240677789538 94 57 29
-0.15907085002050667 0.2770185371505163 -1.0361334208050073 93 58 32
-0.1606017550468325 0.2790934484359578 -1.0379259462068062 91 57 31
-0.16126126051885942 0.2798890790096257 -1.0406176855544904 89 57 31
-0.15946549589540954 0.27707878571319056 -1.0458704413466329 90 58 34
-0.15719712158738733 0.2735735645452084 -1.0516324064202949 89 58 34
-0.15078972734186144 0.2639871469928402 -1.061759319872768 87 57 33
-0.14588235286899506 0.256602252017686 -1.0703504564218465 84 56 32
-0.1473192919883347 0.2585376300102197 -1.0722709043617058 83 55 31
-0.16045777760730162 0.27766907604132485 -1.0617780575297993 82 54 32
-0.1588225021068203 0.2750919159972473 -1.06691360442916 81 54 34
-0.1574027730563457 0.27283089570097463 -1.0718325638631103 80 53 35
-0.1554229023244327 0.2697458375212247 -1.0773629082038503 70 47 33
-0.1529455406630857 0.26592856579493057 -1.0834429518095354 54 35 25
-0.15034269645699436 0.26192581701009604 -1.0896770886742893 47 29 19
-0.1504824525686714 0.26195515495841565 -1.0929688932028452 49 29 19
-0.15192206987142942 0.2638961237840969 -1.0948541575015664 65 40 28
-0.15129761493737615 0.2628014477144678 -1.098975488820681 74 44 27
-0.15297236342256465 0.26508866470450065 -1.100597447314901 84 49 26
-0.15355022714145852 0.26576255989321 -1.1034101540926604 87 50 24
-0.15547255095386092 0.2684147399494077 -1.1047472509811596 91 54 25
-0.15725635328719936 0.27086359751688277 -1.106226556866518 96 60 26
-0.15728947412247515 0.2707364007613912 -1.1096281272224235 95 59 27
-0.15795935413428888 0.2715463263722464 -1.1123274431500836 93 57 26
-0.15892177103366212 0.27278698087640235 -1.1147002132816397 91 56 27
-0.16020328251309063 0.27449761343575874 -1.1167139426615744 91 56 29
-0.1593263515829137 0.2730304357557335 -1.1211319146648095 91 57 31
-0.16217895956124723 0.27705487455107364 -1.1213814108508406 90 56 31
-0.16474569299115177 0.2806591321638524 -1.1219355918587013 87 55 32
-0.16079251393322647 0.27466079983677294 -1.1298209029756645 87 57 33
-0.15879191469561588 0.271537314894551 -1.1355288839371993 87 56 34
-0.18181258116631643 0.3051029272112785 -1.1162771574395056 84 56 35
-0.18412444225354593 0.30833650053553147 -1.1170261929568541 85 57 38
-0.18743702816513358 0.3130455856913187 -1.1166180485454122 84 58 41
-0.1862471265482452 0.3111192202799012 -1.1213535680835778 76 56 40
-0.1859119029281484 0.3104522160773442 -1.1251166724533106 90 75 62
-0.1828063094949517 0.3057006138421558 -1.1320802486379111 117 110 98
-0.1589550132237877 0.2703588881291227 -1.1630674317290166 152 148 141
-0.1602223282523633 0.2720497777630967 -1.165074343851262 174 173 169
-0.1651268692460881 0.2791052049579373 -1.1628430435324653 183 184 179
-0.16592261581795575 0.2801017676562725 -1.1653762181826737 190 190 188
-0.16588578773615395 0.27987028802792013 -1.1688810905500786 194 194 192
-0.1386967251440245 0.23958004743580102 -1.2042587736335546 197 197 195
-0.13958451375892794 0.24070784758052138 -1.2067729301265748 198 198 196
-0.08967684557016753 0.16687795936010752 -1.2692487722136145 200 199 197
-0.08965976250287971 0.16666182875803898 -1.2729997753586233 202 201 199
-0.08969235082213173 0.1665188618286905 -1.2766947866989016 203 202 200
-0.09024637416135313 0.16714550219733665 -1.279771578848994 204 203 201
-0.2812905198621874 0.44884881836536406 -1.05847643695186 205 204 202
-0.2851477478682431 0.454386576112068 -1.0569376823204202 205 204 202
-0.12979063020198836 0.22385616561229227 -1.2652149469261726 208 207 205
-0.1322206017759464 0.22726186029687964 -1.2658669936029177 209 208 206
-0.029518347875886405 0.15810157542872486 0.12264294488144342 183 183 183
-0.027930751906733955 0.15572202211448177 0.1198800166628117 183 183 183
-0.020223163600550723 0.14473092612220262 0.11756261267560028 182 184 183
-0.018504804977370656 0.14216560728687952 0.11477427083066333 183 182 179
-0.018367384389678165 0.14182459298408767 0.11186570830746381 174 167 161
-0.02456888993618986 0.15040493696184892 0.10853028052273002 128 107 94
-0.014932579563469384 0.1366943950263043 0.10624438396641422 126 96 81
-0.018090672170259753 0.1409915673940662 0.1031159860460836 124 92 76
-0.020660415970606943 0.14446116684507862 0.10003639726425886 118 83 56
-0.030367341699980316 0.15797988794832674 0.09656126620441206 88 52 24
-0.03146213095105933 0.15937469194713744 0.0936016538751166 76 41 20
-0.03190275545514468 0.15984850019239336 0.0906795883781039 75 41 16
-0.03185928753607992 0.15964057690562017 0.08778175249183107 75 41 14
-0.031112074438935447 0.15844137375293982 0.08491482027214005 76 42 15
-0.031431106845794005 0.1587437459034875 0.08199484928614624 77 43 16
