ply
format ascii 1.0
element vertex 684
property float x
property float y
property float z
property uchar diffuse_red
property uchar diffuse_green
property uchar diffuse_blue
end_header
0.01238638895132587 0.241360053947981 -0.6992318970686585 66 31 8
0.012318002917063756 0.2413035992477114 -0.7025101676405873 64 29 7
0.011972209376969405 0.24279904546247 -0.7051882619007883 65 30 10
0.012156296549865657 0.24132940103104786 -0.7090188406134128 67 32 11
0.011857841248542517 0.24256004294094413 -0.7117991957796057 70 35 15
0.011713034429072833 0.2429306946291382 -0.7149153628982855 69 34 14
0.010792357950475062 0.24764649932088262 -0.7163162024846041 69 34 14
0.01116422159542679 0.24512372440023827 -0.7205737395750336 69 35 15
0.010774895890395302 0.24686451952480787 -0.7231434718231202 65 33 12
0.010196518720454118 0.24966537934073263 -0.7252850362727388 62 31 10
0.01015752748753861 0.24944367025129024 -0.7286332325201765 59 28 8
0.010000389640917179 0.2498840475794476 -0.7317169292339395 59 28 8
0.01068229978730095 0.2456187756566876 -0.7367077200148502 59 28 8
0.00964285365607883 0.2510073242857599 -0.737786740421779 59 28 9
0.008906474104574395 0.25469765713157944 -0.7395430708397912 57 25 8
0.009176034793551405 0.2527439417000494 -0.7436046680567625 58 25 8
0.008970310491348669 0.253457064610511 -0.7465759240127383 58 25 6
0.008917183636527073 0.25331346234866375 -0.7499011238826212 62 30 9
0.008300622929950614 0.25633383789204967 -0.7519139897811995 63 31 10
0.0075165621383206024 0.26029628476978495 -0.7535252460759849 65 33 12
0.007504362532608982 0.25992345403997774 -0.7569410932396263 65 33 12
0.007776969246391381 0.2579495717756697 -0.7610336798743466 66 34 13
0.007038630903444646 0.26165738775151637 -0.762734849924615 64 32 11
0.006729810278780966 0.26295164882227795 -0.7654488232713683 62 29 10
0.006442900878600971 0.2641230323382822 -0.7682125399504276 61 28 10
0.006227488594466334 0.26489251630710536 -0.771145950920776 59 27 10
0.00551338468239582 0.2684680571529219 -0.77287380242573 58 27 9
0.004890333879336808 0.27153257986579016 -0.774811445402129 58 27 9
0.004207878116231023 0.27493269462292086 -0.7765951008791853 56 25 8
0.0038542690589284806 0.2764825505159678 -0.7791728807456401 56 23 8
0.005236532600430312 0.2682565781958244 -0.7860122383399075 56 23 8
0.004760394078515882 0.2704953180563767 -0.788298254054337 56 23 8
0.004111597279267281 0.2737077141461144 -0.7901502073710759 56 24 9
0.004044605331723614 0.2736423694514123 -0.7934400088159401 56 24 9
0.003801769852089968 0.2745680095718497 -0.7962926858857289 56 24 9
0.0031709754579267203 0.2776813663611222 -0.7981705426480687 57 25 10
0.002747817218743835 0.2796248900131102 -0.800562040368808 57 24 9
0.0034380855933231896 0.2752879615573129 -0.8057652224895175 59 24 10
0.002788268074042706 0.2785102682847635 -0.8075821867772746 61 25 9
0.002272930946607181 0.28097484884667817 -0.8097322634311347 67 30 14
0.0016454777196046703 0.28407326701610736 -0.8115880609336497 65 29 13
0.0011045804940139174 0.2866841523194951 -0.8136569759036884 63 27 11
0.0006056046927206821 0.2890592517451379 -0.8158264596263181 64 28 12
0.00022324533314051556 0.290776423563463 -0.8182914817050501 67 30 14
-0.000536980657290527 0.2946293445298038 -0.8197684641184132 63 26 10
-0.0011559444004905876 0.29768543265654057 -0.8216023385128126 63 26 10
-0.0013867872145197878 0.29854854333633574 -0.824445366226764 63 26 10
-0.0023168041273452754 0.30336542015127077 -0.8254450079612805 64 27 10
-0.0023749752681584656 0.3032531480473258 -0.8287350164782723 65 28 10
-0.0019404336266310926 0.3003530950693223 -0.8333360492451114 64 27 9
-0.0025426338183116744 0.3033180560860214 -0.835185485702951 65 28 10
-0.0024560196880105307 0.3023854193387966 -0.8388698431563777 69 31 11
-0.0028817100176456965 0.30435246898741736 -0.8411828102867428 75 34 10
-0.003894688084319659 0.3096459094657298 -0.8419057709028519 80 38 11
-0.0035119823547188136 0.30703622921300644 -0.8463916350104066 83 39 9
-0.003967389010580927 0.3091733975219869 -0.8486100567527571 87 45 16
-0.004425998308653527 0.3113294847001522 -0.8508137272235786 90 52 22
-0.004643478293399502 0.3121195653219312 -0.8536721986687802 91 56 27
-0.0037216574492023036 0.3064503454381485 -0.8596644570380255 91 55 28
-0.004619265978337117 0.3110961246907842 -0.860654576256649 90 55 28
-0.004748486505867722 0.3113853028424395 -0.863759818209969 90 56 29
-0.004565323790274838 0.3099019781884055 -0.8677355197814522 87 54 30
-0.00467437297287502 0.3100760129209394 -0.8709023434089742 84 54 31
-0.004774736204729461 0.3102005657520097 -0.8740949055904838 76 49 29
-0.004909058826518851 0.3105177350921371 -0.8771934127327164 72 44 29
-0.0049540839778503334 0.31032765526842176 -0.880545148317004 73 45 31
-0.004818276573067819 0.3091099808667082 -0.8844126954991178 72 44 30
-0.0033057030696164377 0.3000686686079971 -0.8922078439964037 71 44 27
-0.003047791398302295 0.29815342059444927 -0.8964526141807152 64 37 20
-0.0030584403426204484 0.29776368079593857 -0.8999360770852809 59 32 15
-0.002847879229546227 0.2961156540967883 -0.9040602348864432 59 32 15
-0.0006358819776853021 0.2830833261661696 -0.9139791106297689 60 33 16
-0.0006635702756142489 0.2827857684879769 -0.9174502224806487 62 33 17
-0.0035941472023015807 0.29900612906472557 -0.9124690882063983 66 37 19
-0.0034436202119494455 0.29769743296439083 -0.9164361895269805 69 40 22
-0.0032821392594493508 0.29632546960141476 -0.920442500735725 71 43 22
-0.003158322744713886 0.29516704835846025 -0.9243451921521274 69 41 20
-0.004004738400620548 0.2995341161192452 -0.9253861571585416 72 41 21
-0.002837705498918555 0.29243189205229414 -0.9323866610432751 75 44 23
-0.0031539220111227763 0.29377846630447446 -0.9349992687413266 79 47 26
-0.0035418320650678105 0.2955340918344704 -0.9373945197743971 79 44 23
-0.003906557871155406 0.29715812767155325 -0.939854680542212 73 38 16
-0.004499552194943666 0.30008448003846744 -0.9416234251470371 65 32 8
-0.0048195639903525385 0.30145483718595933 -0.944207913783526 65 32 10
-0.005219307839406027 0.3032805268678226 -0.9465474198885598 64 31 12
-0.004986028955362865 0.30149413311870665 -0.9508087353923713 63 32 11
-0.0051332333065073135 0.3018785760676401 -0.9539167596019715 70 39 22
-0.005605214679924482 0.30411738565390833 -0.9560297295721173 74 45 34
-0.006660569230075554 0.3096888606751244 -0.9563412897872949 76 52 39
-0.00640004844186513 0.3077455854741664 -0.960696522249774 85 63 50
-0.007184835963254553 0.3117741194413061 -0.9618221815645059 88 68 55
-0.008381024215447883 0.318155764912462 -0.961654978692108 93 73 62
-0.008757398982176173 0.31985345350445105 -0.9640237188408418 93 75 63
-0.00934438947422947 0.32275610008602795 -0.9657283366274918 94 76 66
-0.010141234738330604 0.3268602504926488 -0.9667642129406586 92 74 64
-0.011015109754461305 0.33140687857030715 -0.9675432953756663 90 71 62
-0.011395350831739665 0.33313060254433113 -0.9698692850378743 88 69 60
-0.011815200000658718 0.3350816375208059 -0.9720648529043968 87 67 56
-0.01210601490136521 0.33629459040921095 -0.9746662158893226 91 71 60
-0.012527835543128897 0.3382581426473513 -0.9768459039264082 93 73 62
-0.012798682640673707 0.33935757556247337 -0.9795046249912557 92 72 61
-0.013236080479178729 0.3414115924681225 -0.9816246927612238 91 71 60
-0.013676039998654323 0.34348105037841337 -0.9837305541966436 92 72 61
-0.014224156248339944 0.34617130271867613 -0.9854796325209095 94 74 63
-0.014776255966429785 0.34888547653994917 -0.9872073190190868 99 77 66
-0.015424225441616417 0.3521506082202439 -0.9886133865616813 96 75 66
-0.01610835456395374 0.355624557815986 -0.9898902611092171 91 69 56
-0.016539534146149507 0.35764845420495417 -0.9919873659240399 86 58 41
-0.017108579260568316 0.3604644296796955 -0.9936237304319585 82 48 26
-0.01753964011342289 0.36248934483248235 -0.9957079579789583 79 38 14
-0.017922987218552403 0.3642410042698582 -0.9979448205961259 82 38 12
-0.018288308635446306 0.36588973618364456 -1.000236964749875 82 38 11
-0.018562400378984295 0.36701485909945053 -1.0028298346536748 81 37 8
-0.018487678969866066 0.36613562015744805 -1.006590958793674 82 38 9
-0.018835206258693067 0.36768298636174457 -1.0089358045006573 84 40 11
-0.018935868107679915 0.3678113907166683 -1.0121107000285203 86 42 13
-0.019108742246104846 0.36835491798004777 -1.0150423805741342 92 48 18
-0.01895001004936981 0.3669907502991836 -1.0191019133003187 93 50 18
-0.019161653559157554 0.36775690167524155 -1.0219049463413528 93 50 17
-0.019610457311499407 0.3698882268869256 -1.0238949797981283 94 51 17
-0.019994006939985803 0.3716446782584048 -1.0261028492425868 95 52 18
-0.020564189710753154 0.37447652758274197 -1.02766253928652 97 58 24
-0.020764098439775294 0.37517668873272336 -1.030493632394322 100 65 33
-0.020694965199821176 0.3743268023046974 -1.0342575675134982 102 69 40
-0.020625760503208152 0.37347580186870877 -1.0380272313979926 106 73 45
-0.020505158775379544 0.3723278134078885 -1.0419819020824397 105 74 45
-0.020542182022854336 0.3720878492712376 -1.0453909013391758 107 76 48
-0.020268291605380042 0.370054277030456 -1.0498960492731166 105 74 46
-0.020167303517215785 0.36901687471907707 -1.0538015617678667 98 67 39
-0.02006617014058299 0.3679778316980874 -1.0577138498165135 98 67 39
-0.0200243685041148 0.36728044700992535 -1.061421769941848 99 68 40
-0.02063290722031351 0.370337154686441 -1.062818220987653 98 67 39
-0.0205845871450562 0.36960182853001167 -1.06655175781841 98 66 40
-0.020775170702340546 0.37024586366811235 -1.069433916448391 94 64 39
-0.020566906789432793 0.3685854477624432 -1.0737500840431262 93 62 41
-0.021036500703683455 0.3708415200991732 -1.0756292650980626 88 58 43
-0.020863781345846946 0.36938533523773165 -1.0798265129210023 73 45 34
-0.021026396808280442 0.36986716046731827 -1.0828140391122514 58 39 26
-0.020935920976693872 0.36888511172349336 -1.0867237726373837 37 19 12
-0.021051449552894806 0.36909409232041596 -1.0898867374783119 37 15 9
-0.0211997106324426 0.36949232410415517 -1.0929310008477353 44 17 10
-0.02121999557653599 0.3691497149385446 -1.0964464972709795 50 21 10
-0.021572548206714157 0.3707304338456297 -1.0987395812948075 55 24 10
-0.02222790685935848 0.3740653515053096 -1.099907644628388 63 28 8
-0.022413062809151618 0.37467790639163223 -1.1028102599727032 70 33 12
-0.023075125253605354 0.3780538687308076 -1.1039361799682066 71 34 9
-0.023254584206142598 0.3786342056174027 -1.1068538311387324 76 39 12
-0.02337528391090628 0.3788739192687375 -1.109991527859132 85 48 22
-0.021945418212127216 0.3701219499741068 -1.1189605786191734 89 53 29
-0.023171847544462065 0.37677267432894224 -1.117948305886908 95 60 35
-0.023219624145427928 0.37658816848807863 -1.1213707132185342 99 65 38
-0.023209362152257027 0.3760664674993758 -1.1250163164803566 100 66 38
-0.023370082806886988 0.37653675698396605 -1.1280152438387627 98 67 39
-0.023565634913663373 0.37720926047946524 -1.130881402302399 97 66 38
-0.0241133774885302 0.379927342876368 -1.132397785326609 91 60 32
-0.023659439789124027 0.37682733448721056 -1.1377544549164724 92 61 36
-0.0248631015943862 0.38335772466600937 -1.1367365442144426 92 64 40
-0.02496267590468674 0.3834737311855284 -1.1399630665533667 82 60 38
-0.025848810111058586 0.38816261150815545 -1.1401406900738993 63 48 33
-0.025650894188478636 0.3865493079735648 -1.1445185778760856 70 61 46
-0.0251255467843754 0.38303017793857047 -1.15018297253852 109 104 91
-0.02445447599926288 0.3786610081987501 -1.1564343773767476 150 149 142
-0.024002351425122373 0.37556355976402245 -1.161846304675485 176 172 171
-0.025636735162093128 0.38461120234347135 -1.1590562901692052 184 184 182
-0.023251128163217432 0.37025402495821447 -1.1721105072610667 191 190 188
-0.010249941112101736 0.294055770679362 -1.2272856858446224 195 194 192
-0.0247364122904877 0.3779683156145668 -1.1735392409222127 198 197 195
-0.02434204525846076 0.3752017875169144 -1.1787652794767876 200 199 197
-0.025136762616746876 0.379365139340663 -1.1792508419492618 201 201 199
-0.027353158727372717 0.39182011484910806 -1.1740202355113432 201 201 199
-0.026974197617906696 0.3891440644816449 -1.1791794448041308 202 202 200
-0.034687875360723014 0.43367891040738676 -1.1517037580232203 202 202 200
-0.02580815166252762 0.3814052238164982 -1.1911891458982569 203 203 201
-0.021757053909427934 0.35490041339370487 -1.2299353393641874 205 205 205
-0.0010392680502929303 0.23329545041953098 -1.3192691318788667 206 206 206
-0.0029402005443745086 0.24389991560788 -1.3153899458289242 206 206 206
-0.008233498775272971 0.274353679767162 -1.2973708964292816 207 207 207
-0.027955616000205984 0.389248665718635 -1.219087247676782 208 208 208
-0.023605338822427924 0.3599504120049711 -1.2672193557897558 210 210 208
-0.024350849466403836 0.36384008254753886 -1.2677989235999267 211 211 209
-0.015753961008093197 0.31292047699046066 -1.3084531735515716 211 211 209
0.05204311543463732 0.1529062788750805 0.12901433736309942 183 183 183
0.0542806555376974 0.1408076085837615 0.12663796007462055 183 183 183
0.046266958925847215 0.18246695658765927 0.1218412805762651 182 182 182
0.047118383614129615 0.17763970432595344 0.11915799573685214 176 173 170
0.03988030365949075 0.2152515127306032 0.11470232627710225 138 124 114
0.04023128705954876 0.21305414175755708 0.1119449971421079 131 106 91
0.03999399754313722 0.21394324095636935 0.10906100790833456 118 89 72
0.04056935238481197 0.21056664078905954 0.10633584683698977 120 89 71
0.0403546902770919 0.21133642778314402 0.10345200265485732 131 100 82
0.04009764796818276 0.21232885734425402 0.10056132544722712 148 119 101
0.039286623040821846 0.21623110750484426 0.09757732237624797 149 124 105
0.03833757300067392 0.22085968162623826 0.09458073671319284 131 109 89
0.037925327916271206 0.22266930948627978 0.09167974002110053 125 100 81
0.03726207308383012 0.22579850855765435 0.0887454550362374 125 99 80
0.035429536995190955 0.23507455458158064 0.08565510774071891 119 92 73
0.03500036360312304 0.23697624099399237 0.08277626882358172 100 72 53
0.03438356255157931 0.23986500093071383 0.0798781609935212 81 51 28
0.033826777225735856 0.24243901749370306 0.0769940811927192 90 55 32
0.03322047844525457 0.24527424141916684 0.0741106993869845 75 34 12
0.03293479782366184 0.2464235589090868 0.07126665136224124 69 32 9
0.03291077415199126 0.24619628274805447 0.06844894892478537 65 29 7
0.03331246568644626 0.243728214554766 0.06566553277586351 62 23 6
0.03274860139308077 0.24634165566349184 0.06279810678875283 62 23 6
0.032646244734880495 0.2465260838773183 0.05996925039112002 63 25 7
0.03237828072723996 0.24758246100387699 0.05712911841494047 68 31 10
0.032211985991307986 0.24810356263859915 0.0542961421056606 91 58 37
0.03171049646894091 0.25039042664716515 0.051447577616648615 109 78 59
0.030454547448029064 0.2566530818964812 0.04857504842530002 104 72 52
0.030474960569880902 0.25619168136376763 0.0457591168304951 107 71 52
0.029911143738427272 0.2588092844757088 0.04292681403483937 143 111 93
0.029323514769689495 0.26155321018894184 0.04010043574270432 160 135 120
0.028845979764455618 0.26371747182301536 0.03728153795385479 147 118 105
0.027922397851013858 0.26823470605789024 0.034467813295250865 150 118 103
0.028458302732106103 0.26505499550998024 0.03165383062729264 136 102 84
0.02706804779223286 0.2720358489731691 0.028860168249756558 125 89 66
0.026272323125326354 0.2758819498290985 0.0260715094065826 108 69 40
0.026165675567519225 0.27609253815715157 0.023270761946111822 101 60 30
0.024758583854413783 0.2831677123097682 0.02052110723539801 105 62 32
0.024421029156320655 0.2845984987906446 0.0177399460487224 94 51 20
0.0242506700897461 0.2851467217132822 0.014952241312669735 90 46 17
0.023924662463830647 0.28651705367579167 0.0121745938717987 87 43 16
0.023710554988661238 0.2872965769018714 0.009391536473760044 90 46 19
0.02367351260252811 0.2871406441844237 0.0065952193298074585 89 46 20
0.02357493442089286 0.2873096617002525 0.0038023107602875167 92 50 24
0.023513916570973528 0.287280020279038 0.001004812436396496 94 53 27
0.023419495732377636 0.28742676951336976 -0.0017908317125080384 91 51 25
0.023318883942142217 0.2876061200736177 -0.0045868576945447825 90 51 25
0.023218283378115094 0.28778528884666593 -0.00738385947541724 99 63 35
0.02308756945378941 0.2881236261641699 -0.010178000582210259 97 64 36
0.02332221284255922 0.2865288975617295 -0.013022107093386519 88 53 28
0.023976009112390756 0.28271532992790166 -0.01593266319055269 80 42 21
0.024562572032162944 0.2792559691847839 -0.01884610412887626 76 38 20
0.02433008685487209 0.2801309271900235 -0.021640973958735987 73 38 21
0.02444284259366352 0.2791780627140792 -0.024492532740330378 69 39 20
0.02451456609514073 0.2784419393580637 -0.027341313892692003 64 37 21
0.02445695271135754 0.27839040963695005 -0.0301701289899777 51 27 15
0.02339602922707327 0.2836539792746858 -0.03280844421552215 43 21 12
0.023722740793327063 0.2815665824978508 -0.03570928497102699 34 16 11
0.024672164791916334 0.2761779437647971 -0.038747330836251835 23 10 8
0.025438095139265975 0.2717597164823957 -0.0417637337862543 17 9 7
0.023838735938436287 0.2798799619843607 -0.044265759352488145 11 7 6
0.02935156515540486 0.2502883037459109 -0.04839386013205888 9 5 4
0.02972237890105872 0.24795763612074723 -0.051379785781624 8 4 3
0.03166474063957341 0.23728900916001222 -0.054764271152767385 8 4 3
0.025688786496193772 0.2682686358330448 -0.05902964411492584 8 4 3
0.025430126658201428 0.26928004698735525 -0.061837126708652095 8 4 3
0.026177746697989793 0.26494935668211983 -0.06492538159965554 10 5 4
0.025173429744450034 0.26991954725563283 -0.0675227216520182 14 7 6
0.024068328716543762 0.2754267198033396 -0.07007647248679594 26 12 7
0.02618195478287387 0.2638378656789496 -0.07359650955379438 65 45 37
0.025539487259610187 0.2668876015900213 -0.07629068758959866 80 59 55
0.02480271887643557 0.27043943904515866 -0.07894676762804267 82 61 54
0.024596992397099504 0.2711699102721775 -0.08176845664004737 62 33 22
0.02434270173934501 0.27215863992533634 -0.08457307118195928 52 23 10
0.02396138475368559 0.27382297351784457 -0.08733228244126177 54 25 11
0.023695961837919957 0.2748714077454141 -0.09012896649645186 56 26 9
0.023568314526549367 0.27518719232393735 -0.09297389665936129 62 31 12
0.023252623520702384 0.27650334072800903 -0.0957497664094473 84 55 39
0.022211719903387703 0.28167886177839485 -0.09824853453664556 80 51 39
0.020396228779854704 0.2909787928730316 -0.10043319809695767 81 49 34
0.01965183256003151 0.2945803298587986 -0.10301387418025083 105 69 51
0.019339888866651125 0.2958805277540361 -0.10575940142638386 101 66 46
0.018298257445104542 0.30106692862401546 -0.10820211649520778 110 76 57
0.017059330967694575 0.3073060367696171 -0.11054747680910765 97 63 50
0.01656120612524333 0.3096007635029969 -0.11319220169181135 122 93 78
0.015495607989420915 0.31491999059687625 -0.11558371075189627 151 130 120
0.014810915025294372 0.318211035954245 -0.11812963127107376 144 122 110
0.015367772059111662 0.3148849455414519 -0.1212292628105681 136 107 91
0.016417419284819386 0.308929970554854 -0.12456811080632234 100 63 36
0.013464274114393937 0.324318164825592 -0.12604746225226598 86 41 9
0.01494656842730116 0.3160546842353631 -0.1296000411846858 80 36 10
0.012899394522216286 0.3266167425819225 -0.13146391253099932 74 34 12
0.012723379457750678 0.3271985494227838 -0.1342217198975621 73 36 14
0.012876966629454693 0.3260213405072322 -0.13714501071228039 74 39 18
0.013319793675184863 0.32329953112631155 -0.1402214000824409 65 32 12
0.013785217968360353 0.3204558098343015 -0.1433196049791442 65 32 13
0.01443190333580261 0.31664283404214333 -0.14652396726059627 65 36 18
0.014462495352340905 0.316118765082306 -0.14941144487664282 64 42 29
0.014515183903531681 0.3154762495481038 -0.1523141729985683 65 47 35
0.01635130838128975 0.3053040530387415 -0.1562067968938549 65 47 35
0.016830327329898948 0.30238034320275176 -0.15937102639891657 63 47 34
0.01470918148130572 0.3133539273701924 -0.16106439539884515 63 47 34
0.0155421226518061 0.3085380616478086 -0.16443298272121548 63 44 33
0.016045517624048503 0.30548231084434635 -0.16762498446420626 65 43 32
0.015437482045072781 0.30836959947330456 -0.17016682765149177 63 43 32
0.01459363762240063 0.3125192964439065 -0.1725588541632992 62 43 33
0.019503111884450537 0.2858868201650919 -0.17846001304213113 62 42 33
0.018638881694965533 0.2901424014906818 -0.18086496943562644 61 41 32
0.01688678273614598 0.29694239805278216 -0.20028860410781577 60 40 31
0.017192821716362126 0.29493249200608734 -0.20344043681191834 60 40 31
0.017278550925152937 0.2941027135173206 -0.20644677644674236 60 40 29
0.01750777753756321 0.29250292216897367 -0.20955858144403297 59 39 28
0.017481613055249395 0.2915286334445932 -0.21841258801248084 60 40 31
0.018339951768953776 0.286550031716388 -0.22201040516451773 59 39 30
0.01835748794416081 0.2860823874516271 -0.2249968135615565 58 38 29
0.018951505606015474 0.2825193602238444 -0.22842251730391275 57 37 28
0.01918595473471981 0.2808855196469374 -0.2315861213361569 57 37 28
0.01885438303183168 0.2807867210427578 -0.24629204706555274 57 37 26
0.019350365083023652 0.27774322494441617 -0.24969769410088727 57 37 26
0.02068459660159886 0.2701906790966987 -0.2538067424913515 59 38 27
0.02123135322573176 0.26687030492945674 -0.2572848887469037 60 37 27
0.0208153399601922 0.26872768130659197 -0.25996398282890704 60 36 26
0.02178439100412702 0.26313301898357433 -0.263818086904141 60 36 25
0.021526989374999722 0.26413635896784615 -0.26663699839175087 63 37 24
0.02160906238367525 0.2633125516971596 -0.26974929360336203 64 38 23
0.022446671758023076 0.2584204317759523 -0.2735289136941867 63 35 21
0.022326885140200738 0.25868172886214086 -0.2764775859593344 61 33 19
0.02218307788428079 0.2590722978944764 -0.27940560901229317 58 30 16
0.021472886974812685 0.2625140504770142 -0.28182226712173003 57 29 15
0.020767465768079904 0.26593128967967183 -0.2842338254229511 62 35 18
0.02032023158513322 0.267958229114566 -0.2868738110666922 61 34 17
0.020450323638822647 0.26687369434900055 -0.29004572007045404 62 35 18
0.021015939566326934 0.26344032682978014 -0.2936316073880753 62 35 19
0.02069114106850714 0.26480709850725404 -0.296386836218403 58 33 13
0.020549868742565536 0.26518430800647375 -0.2993147879758817 60 34 17
0.02055034249018789 0.2647967492871111 -0.30237997752422946 56 31 19
0.020188084612883503 0.2663661267656603 -0.3050949604411701 58 40 31
0.019701994564201325 0.268604270673701 -0.3076848771297885 55 36 29
0.018183209457164604 0.276417846354542 -0.30924556159874195 45 20 9
0.01912650377167229 0.27094080727052866 -0.31324462501872946 50 20 9
0.019321417706500532 0.2695028968172229 -0.3165082666213273 59 26 10
0.019143915925867568 0.2700758061732723 -0.3193993132029343 67 32 13
0.01747598131167398 0.27870104674181584 -0.32076024700546685 70 36 17
0.017946574681356492 0.2757734918573219 -0.32430879204287677 73 40 21
0.018225301450471826 0.2738815358414852 -0.3276682822347479 73 42 23
0.018546636179677868 0.2717582474574172 -0.33108055131512226 68 39 24
0.020645697129445653 0.26002149856670087 -0.33638931990512877 48 24 12
0.021138961055645993 0.25696421353754245 -0.3400188382983604 32 12 2
0.02148155466703385 0.2547204774852524 -0.3434974520151286 47 25 12
0.021449007646146045 0.2545052817351087 -0.3465768032211512 64 40 25
0.021791596868466132 0.2522596984211729 -0.3500703059199279 57 34 20
0.021430612233794263 0.25382120288191057 -0.35279450926147476 49 26 14
0.021363407996678532 0.25379266028238207 -0.35584296669187543 46 26 16
0.019824089866144867 0.2617353002962215 -0.3572382436989253 34 16 7
0.020811942420490698 0.25599369139928363 -0.3614727922982972 25 12 6
0.020546144453732852 0.25704074423690154 -0.3642962173421255 18 7 3
0.020458143912900954 0.25712465019272523 -0.36732258619219493 25 13 6
0.019991940501876665 0.25925801955702465 -0.36991169214943537 40 23 13
0.01971858209984479 0.2603467271892412 -0.37272092209793173 42 22 13
0.019445409177504487 0.2614346627430648 -0.37552851152736116 40 18 9
0.01909237892861884 0.26295588405855846 -0.37823945310707735 41 18 10
0.018810486852268028 0.2640916694393185 -0.3810321765169731 41 18 9
0.018284206101518694 0.2665535385367776 -0.383528392543256 44 21 8
0.01777575338418052 0.26891947671355393 -0.38603982079147403 50 24 12
0.01743050667717253 0.27040040693164513 -0.3887447359796432 68 40 29
0.016754969711461537 0.2736747131443039 -0.39103953380869017 66 33 23
0.01592064830995639 0.27781230938305923 -0.3931281068408815 57 23 11
0.014831256519541952 0.28333664490079913 -0.39488575794313735 63 31 16
0.01439777216515524 0.2853002535794192 -0.39745265326371126 65 33 14
0.01290342813483808 0.2930281575839103 -0.3986692662861108 65 30 14
0.011820153131241025 0.2985252641199019 -0.4003868836255822 66 31 12
0.01114578852131548 0.30180190285389885 -0.4026138981405591 88 59 42
0.011094832383521845 0.3016905645357943 -0.4056393338672209 94 71 61
0.011201383457937565 0.30072249936046047 -0.4088723678574615 102 82 70
0.011308065186580327 0.2997530978582622 -0.41211055449322365 80 47 28
0.010742241216880374 0.3024414309149186 -0.4144640869723495 69 32 9
0.010514849705098833 0.3032892531050405 -0.4172611322879755 62 27 7
0.010428978403090532 0.3033670342681295 -0.4202468702656722 65 28 9
0.009505892608276702 0.3080018736414577 -0.4221035974064376 67 30 8
0.009352325797656103 0.30844881337942287 -0.4249926020970648 68 33 9
0.009388045235669669 0.30786493805543874 -0.4281409049736979 76 43 20
0.0077948941302638936 0.3161527222424803 -0.4290486576193998 85 53 32
0.010004828036288382 0.3037247820335285 -0.43520503193100185 86 56 35
0.010940898146854047 0.2982327712029067 -0.43962654854943334 80 54 31
0.012487288042269104 0.2894118075703038 -0.4449261028443669 78 50 26
0.015025373291334902 0.2751807306599997 -0.45166008471589203 75 44 22
0.016852772616773138 0.2648184527359331 -0.45743209472926627 75 48 27
0.023249104377657235 0.22953379041101998 -0.46978847482257263 72 44 25
0.02305535405698485 0.23018210224037472 -0.4727614139435884 64 35 17
0.022800887636226837 0.2311617306247689 -0.4756458557459977 57 29 14
0.022596165297457636 0.231870081747846 -0.47860147300882416 59 31 16
0.02246984776593656 0.23215054085259174 -0.48167177950441925 49 21 7
0.022519217693635348 0.23147171430622418 -0.4850028702279201 61 33 20
0.022577810190047294 0.23074200494128966 -0.48835183697492496 59 30 15
0.02226010173614397 0.23206706500011554 -0.4911414603798 57 28 12
0.02217004426739319 0.2321487909063566 -0.494271533378776 59 30 13
0.022005295671490656 0.2326384492410907 -0.49728989996068884 61 34 15
0.022051876717856883 0.23197308553694682 -0.500630900549431 63 36 17
0.021872645571127874 0.23254162196629824 -0.5036293560802046 61 34 17
0.021823083282770404 0.2324011743368291 -0.5068279960626593 59 32 15
0.02151361770711809 0.23368182296250384 -0.5096251090672562 60 31 15
0.021500899299678813 0.23333955525259453 -0.5128835791830194 61 32 16
0.021361324570074638 0.23369097232075464 -0.5159455805172666 62 33 17
0.02147075767180504 0.2326796254577476 -0.5194021608385309 62 34 16
0.02145784864896508 0.23233726430315538 -0.522669376881429 57 30 11
0.021245155873115887 0.23308829904087613 -0.5256198213244321 57 30 11
0.02108032550314431 0.23357732993038743 -0.5286466154440125 58 31 12
0.021033065614271793 0.23342238422984088 -0.5318640089035301 67 36 18
0.020793044172163096 0.2343231532960602 -0.5347697895803957 68 37 18
0.020646818910014766 0.23471011748257903 -0.5378280167206292 73 42 21
0.020545530333651654 0.23485072870854398 -0.5409608304634103 75 44 23
0.02044420969168895 0.2349913416047117 -0.5440949770325754 74 42 21
0.02013593615529372 0.2362665241937617 -0.5468855591446845 74 41 18
0.020213586033549828 0.23542550777897098 -0.5503205281269742 71 37 12
0.02029139500864306 0.23458301770909915 -0.5537605488987414 70 35 13
0.020403269398745757 0.23355301952259844 -0.5572631131777891 75 40 18
0.02047084880301135 0.2327654220109236 -0.5606956134523796 76 41 19
0.020523386066825657 0.23205981215155796 -0.564106941421146 76 41 19
0.020428520107359332 0.23216293984983927 -0.5672685116810128 77 42 20
0.02044942262713345 0.23163013744316446 -0.570632277448211 74 39 17
0.020532436049402938 0.230755711056787 -0.5741080364202414 72 37 15
0.020762225036695923 0.22907430105576673 -0.5778459404625438 74 39 17
0.02081458869454947 0.22836687989921248 -0.5812789748923491 77 42 20
0.020325444547869376 0.23063517713753476 -0.5837570742763077 76 41 19
0.020181529086367285 0.23100634701633516 -0.5868440626032334 73 38 16
0.01981644875035408 0.23259355211874894 -0.5895356200690732 74 39 17
0.019885213184129478 0.23179512354113588 -0.5930045908806825 78 43 19
0.01989156073035274 0.23133946537277428 -0.5963652879094453 77 42 18
0.019553546830342234 0.2327781425353265 -0.599102914434872 70 33 8
0.019455384064843317 0.23289719242634271 -0.6022761402331934 77 40 13
0.0192251894978386 0.2337428507840889 -0.6052080832098994 78 41 14
0.018950638610283232 0.23483286330799713 -0.6080569866819345 81 44 15
0.01936050232012702 0.23215395515728549 -0.6121756789226485 84 45 16
0.019537461973592567 0.23075654092532416 -0.6158706841898094 86 47 18
0.019472699651693553 0.23069005049831942 -0.6191187049205954 86 47 18
0.020063930172267885 0.22700825912593336 -0.6236068098875551 87 48 19
0.01976856429261966 0.2282115128251688 -0.6264280998415157 86 47 18
0.019054928608076345 0.2317210667716469 -0.6284496523138099 85 46 17
0.018970629754057056 0.23176149536503093 -0.6316667156165443 86 47 16
0.019063083504492723 0.23082679285792987 -0.6352259823729389 87 47 18
0.018921946445581674 0.23118012506078034 -0.6383383256549651 82 42 13
0.018905211695368955 0.23084690619406312 -0.6416933714530606 85 45 15
0.018652594939276016 0.23181520588716997 -0.6445903434862308 88 48 19
0.018405045803860584 0.23275571610935608 -0.6474957876595682 88 48 19
0.01833222249203226 0.23273160294887968 -0.6507448756192667 87 46 17
0.017745894177496484 0.23554332855898924 -0.6529769456769824 84 44 15
0.01763970061961863 0.23570368248841217 -0.6561585142046723 83 46 19
0.01753347615107874 0.23586403450021226 -0.6593413956342958 76 39 13
0.017322892641109037 0.2366009752545623 -0.6623154846970776 73 36 10
0.017188305297831313 0.23691789822487885 -0.6654426971654949 75 38 11
0.016899525824793916 0.2380872731423083 -0.6682571729024852 74 37 10
0.016618740333957577 0.2392127159989882 -0.6710857710153233 72 35 10
0.01649766738116412 0.23945494377768892 -0.6742402410444914 71 33 10
0.016653041632658447 0.23816748337636023 -0.6779661429860545 71 35 11
0.01686609286521875 0.23656000837080016 -0.6818181584604543 70 34 10
0.016323271217547244 0.2391356019616492 -0.6841034860644136 69 33 10
0.016082375754049524 0.24004045737106833 -0.6870134299182068 72 36 13
0.01594982688711215 0.2403454651046873 -0.6901499153255436 70 34 12
0.015895503103807808 0.24021706673468235 -0.6934525284933106 64 28 6
0.015785158391966276 0.24039873927101 -0.6966386613024581 63 28 6
0.015673338088326612 0.24058842371535194 -0.6998229627486993 64 29 8
0.015546014385117244 0.24086387932408676 -0.7029753378272853 63 28 8
0.01505240057323481 0.24316995944986325 -0.7053403123180324 64 29 9
0.01497307370094525 0.24317946770877738 -0.7085947852711812 65 30 11
0.014324963013487044 0.2463435497475462 -0.7106156370277482 66 31 11
0.01406238951930814 0.24736991005952935 -0.7134684163151872 67 32 12
0.014250238390999627 0.24589704304655943 -0.7173069151401009 67 32 12
0.013337565781168157 0.25053156075894434 -0.7187290547545516 66 33 12
0.012714856187710847 0.2535581647746268 -0.7207779265540702 64 32 11
0.012783138945570375 0.25274889184727345 -0.7243534423447824 61 30 9
0.013058487316972615 0.2507889304161148 -0.7283961009343947 59 28 8
0.01313427908145227 0.2499364484743431 -0.7320003428394696 59 28 8
0.01354015309434824 0.24724917067285052 -0.7363531483283663 59 28 8
0.013078605872504687 0.24938149357954997 -0.7387551164310489 57 26 8
0.01258037544034583 0.2517184674668214 -0.7410679746395539 56 25 7
0.01285437086175811 0.24976231722106718 -0.7451370922795533 58 25 8
0.012356406312736046 0.2520984651396408 -0.7474453635949492 58 25 8
0.011859332325459482 0.2544304753322272 -0.7497491863868249 58 25 7
0.011363227733506075 0.2567579070176827 -0.7520487599456287 59 26 8
0.010519147342622496 0.2610228311212057 -0.7535334517233159 63 30 11
0.010946808952464193 0.25820988831384983 -0.7579719377651013 65 32 13
0.011222332635542443 0.25624252634132033 -0.7620661471411863 65 32 13
0.01030285523091681 0.2609294266886503 -0.7633569730300539 61 30 10
0.009679189028379224 0.26397036368207877 -0.7653319089337718 59 28 10
0.009189546871129418 0.266265672892502 -0.7676158919451951 58 26 10
0.00842376121918267 0.2701007942420558 -0.7692351036490331 57 25 9
0.008045992826619101 0.2717744270403915 -0.7717713197847289 57 25 9
0.007556661116903559 0.2740706327386879 -0.774035133834797 56 24 8
0.007531843770930476 0.27377701794178444 -0.7774142293141157 55 23 7
0.006769763117870101 0.27759573257860337 -0.7790085063611402 55 22 7
0.005984967858446245 0.2815426981598357 -0.7805354341301162 55 22 7
0.005368793177450121 0.28455017670572047 -0.782462212891652 55 22 7
0.0057764469297893195 0.2818435603157446 -0.7868942451480214 56 23 8
0.007036462493287061 0.27437627026885 -0.7934402369751271 56 24 9
0.006668579406471416 0.2759967655653826 -0.7959844551919403 56 24 9
0.0059600976593822096 0.2795203769191896 -0.7976777431572163 56 24 9
0.005872185326557762 0.2795780052782684 -0.8009095861544645 56 23 8
0.006051707736859535 0.27814079869441594 -0.8048137647001647 58 23 9
0.005411941866929133 0.28128248338058137 -0.8066625882810671 61 25 9
0.0051755805175059295 0.2821698255510915 -0.8095215992836732 63 26 11
0.004138477793338622 0.28753554428154887 -0.8103467773854347 62 26 11
0.003672357066473342 0.28970949856400463 -0.8126093447547785 60 24 10
0.0032416072993013793 0.29168630635285964 -0.8149563727688418 62 26 11
0.0027347786455616703 0.29408955923635494 -0.8171025867580677 62 26 11
0.002254010170260813 0.296347801897104 -0.8193091107158901 58 22 8
0.001615369956281608 0.29949078887517766 -0.8211003123722822 60 24 9
0.001806612141012371 0.2979873024083855 -0.8250400986477976 61 24 10
0.001124236595584631 0.30137663212007537 -0.8267063619636538 63 26 10
0.0014785694679370145 0.298958574691631 -0.8310798063628413 64 27 10
0.0010878960558267717 0.300714412088062 -0.8335034063870838 65 28 9
0.0008065165557027236 0.3018581544819339 -0.8362112716357368 66 29 10
0.00031213043737589666 0.30419650606881055 -0.8383517777337961 69 30 9
-9.054468150325803e-05 0.3060213600702236 -0.8407298205309368 74 33 9
-0.0010621934603637154 0.3110385465619958 -0.8415816417925248 79 37 10
-0.00027617737266915493 0.30619568455881474 -0.8471350535771507 82 39 9
-0.0006739197210132407 0.3079938535960455 -0.8495184373685956 86 44 15
-0.0011968275888784088 0.31049524414427776 -0.8515584569667748 91 53 23
-0.0014524311608192265 0.3114966712671186 -0.8543171124970818 91 56 27
-0.0017389136765319328 0.3126717410534904 -0.8569898286309524 91 55 28
-0.0018066959604544006 0.3126185498460423 -0.860258762533548 90 55 29
-0.0024545106559479488 0.3158242191725818 -0.8619361418415384 89 55 29
-0.002138051976342939 0.31361172117938363 -0.8662632425213085 87 53 29
-0.002018789849906777 0.3125064719329512 -0.8700546876626712 84 52 30
-0.0018291940689797864 0.3110049658953142 -0.8740478255912965 77 49 30
-0.001515926693235279 0.30880693601927955 -0.8783937276576113 74 46 31
-0.0014719176468031142 0.3081223344078082 -0.8819958406409503 74 46 32
-0.0018920493509307808 0.31004882135621525 -0.8842976879814042 72 44 30
-0.0015026244676301752 0.307419596820675 -0.8888789114309632 71 44 27
5.87989662832987e-05 0.29819101540008097 -0.8967921076002323 62 35 18
7.22366470464024e-05 0.2976743507748649 -0.9003407877967826 59 32 15
0.00017912185519495388 0.29663086072741407 -0.9041601981969192 59 32 15
0.0019837601909635343 0.28602215414036636 -0.9128493623107188 59 32 15
8.733318228871037e-05 0.2962634162230994 -0.9109384717343497 62 33 17
0.0006230697651365795 0.29280093151466247 -0.9160104823138301 66 37 19
-0.0001378836264545845 0.2966468001206263 -0.9173412833358917 70 41 23
0.0003557635437889846 0.29341957062535695 -0.9223075193162826 72 44 23
-0.0003981551478635624 0.2972272295643203 -0.9236471617358286 71 43 22
-0.0004634400651972251 0.29715139309125044 -0.9269915183338499 73 42 22
0.00021425440810547355 0.29288259140457973 -0.9325226145186963 76 45 24
-0.00021905636974102471 0.29488243805388725 -0.9347937585047842 81 49 28
-0.00042861023076204083 0.2956197061020285 -0.9377220173025799 79 44 23
-0.0008195082578965861 0.2973811383629468 -0.940110510008253 75 40 18
-0.0011799298550070614 0.2989710108796828 -0.9425852591052324 68 36 12
-0.0015161621040780844 0.30042472112681656 -0.9451284238636172 67 35 14
-0.0020234583084323896 0.3028455868765995 -0.947154062318415 62 31 12
-0.0019765351071600497 0.3021345966947162 -0.9508438988953402 60 31 11
-0.0018506481664003968 0.3009765445054002 -0.954777559156915 66 37 21
-0.0021786746836526157 0.302384685470299 -0.9573389897391654 74 45 34
-0.0037174085782073936 0.31064181395419516 -0.9562063227471969 78 54 41
-0.004202644145912426 0.31294194507028283 -0.9582669323175462 82 60 47
-0.00490070163113682 0.3164473749246948 -0.9596673371379019 84 64 52
-0.005752071947878988 0.3208221135596119 -0.9605839068865336 89 69 58
-0.005971407018099405 0.32162003108552617 -0.9634399961404108 89 71 60
-0.0065408982376450354 0.3244011951914416 -0.9652085191163229 95 77 67
-0.00717982876105161 0.3275768171982567 -0.9667521239262051 93 75 65
-0.007922655255130272 0.3313424276132356 -0.9679608313983787 101 84 74
-0.008294042532698154 0.3330044155618966 -0.9703218630881955 98 81 71
-0.008581608184889424 0.3341917628368753 -0.9729423172551472 93 74 64
-0.008969573257514681 0.335948736085283 -0.9752431788242707 93 73 63
-0.009319565667721536 0.33749093128739793 -0.977659633096842 94 74 65
-0.010349336003350102 0.34289013950598135 -0.9779104098974094 94 74 63
-0.010281957023561963 0.3420658487464957 -0.9816434127247617 91 71 61
-0.010746118530927239 0.3442579083457219 -0.983679608114036 93 73 62
-0.011243984617716266 0.34664213369493435 -0.9856010359446713 93 72 61
-0.011548184902083786 0.34792748315020483 -0.9881396908001723 97 75 64
-0.012562283466066852 0.35324553910519635 -0.9883785579041661 94 74 65
-0.012811041894538924 0.35421762151173175 -0.9910834449308471 93 70 57
-0.013775032682463613 0.3592545535558631 -0.9914566016594968 89 59 42
-0.013937255317609098 0.3597361690837131 -0.9944329508236766 84 49 28
-0.014443163051095671 0.36217186917828714 -0.9962822153317312 79 39 14
-0.015346373097160266 0.36686802834634846 -0.9968164307053969 82 38 12
-0.015106791224873305 0.36506540449490077 -1.0011081237636585 82 38 11
-0.015160291977475714 0.36492925845021773 -1.0044378595954278 81 37 8
-0.015584982916185448 0.3669053636799058 -1.0065361290873653 81 37 8
-0.01583004493965942 0.3678595969420272 -1.0092279243970022 85 41 12
-0.0157715305035138 0.3670854195892382 -1.0129341459585153 88 44 15
-0.015928983999260942 0.36754066259089013 -1.0159202182967464 90 46 17
-0.01591196726644405 0.3670019101095191 -1.0194944746319234 90 47 15
-0.01618203787790423 0.3680985724112194 -1.0221023609017719 92 49 16
-0.016610224301727507 0.37009675075028364 -1.0241716634831521 93 50 16
-0.016974979912042613 0.37173402379613874 -1.0264510338211137 96 56 21
-0.01774075413941397 0.3756587265047044 -1.027356672832849 95 58 23
-0.017758451013096012 0.3753180166998409 -1.030811738805564 98 62 29
-0.017680426616694698 0.37443073459005916 -1.034599273510437 102 68 38
-0.017708960942844926 0.3741508703233107 -1.038024950592557 104 71 41
-0.017737481069630464 0.3738705212074853 -1.0414538911183864 104 73 44
-0.01776604370923996 0.3735900103324484 -1.044885903992221 109 78 50
-0.01758580816754671 0.3721166025550977 -1.0490483169008347 106 75 47
-0.01746595583019374 0.3709871400854695 -1.0530077289847648 103 72 44
-0.017405167198308515 0.37019434077460767 -1.0567667153363343 100 69 41
-0.01728485044656338 0.3690606442524008 -1.0607403354533622 101 70 42
-0.017618481937254998 0.37052130930039945 -1.0631189575501399 97 65 39
-0.017666212904619574 0.3703475530342264 -1.0665058644495746 95 63 38
-0.018099167419803778 0.3723768508264865 -1.0685276129715864 94 63 38
-0.017645120602166598 0.3693321399453019 -1.0737033813303147 93 63 42
-0.017845878185999187 0.37003287572818966 -1.0765531774893027 88 59 43
-0.017684544752709096 0.3686610371314609 -1.080700585953378 71 44 33
-0.017990705728765405 0.3699649161184565 -1.083174050782507 55 37 23
-0.018242337470228326 0.37095689399549236 -1.0858411865861093 38 19 12
-0.01880961872084879 0.3737572943297973 -1.0873638086820785 39 15 10
-0.017952197864262484 0.3683954079457058 -1.0940512125276285 43 18 9
-0.018186296982119567 0.36928644710997405 -1.0967858253773677 50 22 10
-0.01836519010955276 0.36986118118040345 -1.099720755790904 57 25 10
-0.01865697183427788 0.3710832708906263 -1.1022416420467172 64 29 8
-0.01888805003481831 0.37195753092983014 -1.1049830026583822 70 33 12
-0.019102885642228555 0.3727387774256852 -1.1077829095076963 71 33 9
-0.019379646609149023 0.3738755179420869 -1.1103526245441606 75 38 11
-0.02067658236779008 0.38086847829537485 -1.1091323507037822 84 47 22
-0.020632390889009682 0.3801645540797707 -1.112880618555059 87 51 27
-0.020215841990446914 0.37732154033321624 -1.118024992144993 90 55 30
-0.02028913788020453 0.37729071709127515 -1.121347333197263 95 61 34
-0.02037163383729277 0.37731246972154264 -1.1246373764241946 103 70 42
-0.020447923892915613 0.3772982935300509 -1.1279528980335831 103 72 44
-0.020498225499691523 0.37713443284892256 -1.1313689493306247 102 71 43
-0.021218491851063427 0.380822761218114 -1.132245763579252 98 67 39
-0.020983380018028512 0.3790175203773679 -1.1367459419516048 96 65 40
-0.02188854873113747 0.38377147749432816 -1.1369022945391467 93 66 42
-0.022343443094082975 0.38593636465569325 -1.138765753281655 83 61 39
-0.022682346570736638 0.3874344157224273 -1.141068091293732 63 48 32
-0.02274508790273265 0.3873428911933447 -1.1444305489464421 72 62 47
-0.02226435758384702 0.3841210676217705 -1.1498960047997266 109 104 91
-0.021592231821866138 0.3797947375732247 -1.156118818956412 151 150 142
-0.021187968104675815 0.3770093783094097 -1.1613199813753576 175 171 169
-0.022478444657203386 0.3839902553383384 -1.1599247351881234 185 185 183
-0.016842066680142997 0.35103995293931023 -1.1856019913404676 191 190 188
-0.0036151652563207372 0.2743003752174701 -1.2412023074094414 195 194 192
-0.020184532755954554 0.3693902471220969 -1.179845971685473 198 197 195
-0.020914407874769333 0.37314079502808195 -1.1806308791271192 200 199 197
-0.01440223885031925 0.33462790724428015 -1.2138219751500088 201 201 199
-0.023145995666860507 0.38464473316433495 -1.1827388594123316 202 202 200
-0.023662426948840003 0.38716924548612364 -1.1843229344684003 202 202 200
-0.02705250565063156 0.4062962358566893 -1.174382981966331 203 203 201
-0.030302192952717993 0.42462162865577124 -1.164930308912941 203 203 201
0.002805904532703624 0.23030077907412966 -1.3218935299071481 206 206 206
0.0022833050058744713 0.23282403222328327 -1.3237465727547677 206 206 206
-0.00488250405449444 0.27381725772973786 -1.2982512510262876 207 207 207
-0.02658779476104935 0.39904778545431996 -1.2125740316991551 208 208 208
-0.020246481665816295 0.358078532993936 -1.2724910623645465 211 211 209
-0.011270248495115239 0.30547529053477396 -1.3144033751655453 211 211 209
0.05349233357639172 0.16129140035420708 0.1285737460020872 183 183 183
0.05674088948172265 0.1440359155255203 0.12644464426163346 183 183 183
0.05657757030913167 0.1445247852014616 0.12347705129337525 182 182 182
0.05359243595587144 0.1596971682905028 0.11988029634232099 179 178 175
0.04309850709468954 0.21395445083102688 0.11470971989493778 142 130 121
0.04355028697874009 0.21125374576229172 0.1119697014156037 134 110 96
0.04324171362429673 0.2125105762758016 0.1090681431384854 126 97 81
0.04389363051057685 0.20876608250523737 0.10635356993128786 128 98 79
0.043803121288833485 0.208886806170332 0.10348930574603825 135 104 85
0.04357031410108232 0.2097486466878182 0.1005986687307203 142 113 95
0.04236496857778098 0.21567768931164139 0.09754422092497222 146 118 100
0.04124334176427102 0.22117242505783521 0.09451923359583866 134 109 89
0.040375028345344836 0.22534868417703224 0.09154794399621694 129 101 82
0.03936199413018804 0.23028069926857186 0.08856623963033289 128 101 82
0.03835357791896999 0.23519023982859366 0.08559819652227717 111 85 65
0.037622017310538956 0.23865760748151849 0.08267941483954791 100 71 52
0.03697820141661792 0.24166838769205826 0.07978018355316381 89 57 35
0.03670251711345258 0.2427596154912553 0.0769309262375985 80 46 21
0.03647072912679029 0.24362201548353407 0.07408812494854568 68 28 6
0.03612327235851604 0.2450881819974228 0.07123476640623706 62 24 4
0.0359300108630578 0.24574985442488842 0.06839850669269514 62 25 7
0.036175153631452725 0.24412285608202278 0.06559987794512767 57 19 3
0.035845630421713216 0.24549571678347676 0.06275062121013844 54 16 1
0.035208199858981375 0.24847693554217493 0.059882574749699255 61 22 5
0.0346669172976358 0.2509568337941518 0.05702778361233764 68 31 9
0.03404864208512158 0.2538396932258907 0.05417470146685761 91 58 37
0.03369977881503558 0.2553156481553216 0.05134108288061471 98 67 47
0.032647542929712295 0.26046800357777655 0.04848341716952967 100 67 47
0.033449428162828636 0.25593006616124864 0.04569612731702211 102 68 49
0.033861190359398975 0.2534299309737348 0.04288494519582541 120 89 73
0.03265960424896062 0.25936519733736507 0.040040724313529834 157 132 117
0.03207799575298619 0.26205988049241025 0.03721710511463936 147 118 104
0.03148519673887921 0.2648139066108985 0.034400023086757284 148 118 104
0.03127193193954257 0.26558300772714327 0.03158642563085287 143 111 97
0.030938940926367328 0.266978737408131 0.02877556778230954 135 101 84
0.029273020109186414 0.275351353598362 0.02599957251748156 111 73 49
0.027803687591817082 0.28269773712206314 0.023240842817491288 98 55 30
0.027295206071751066 0.28501569300319496 0.020464337006260585 92 47 21
0.026827511565994326 0.2871207218022937 0.017691330472103778 84 40 13
0.026612307727167224 0.28790383006490644 0.014909109330107757 83 37 10
0.02669674333267979 0.2871172801381633 0.012108732612257533 84 38 12
0.02655051866120365 0.2875388688095898 0.009320927755248239 84 39 14
0.026647670311287897 0.2866849466860347 0.006513614662339122 85 40 14
0.026837697241046468 0.2853436932025547 0.003694136138973625 86 42 15
0.026817892945402273 0.28510184244082365 0.0008890279153200217 81 39 12
0.02667470967504064 0.2855066768560649 -0.0019056352873686594 80 39 12
0.02661050800910899 0.2854972425936861 -0.004709341882609935 80 40 14
0.026555649398432545 0.2854386075516393 -0.007515703751222069 79 40 14
0.026550432086363686 0.2851193146350437 -0.010330046562318826 78 39 14
0.02662174777828357 0.2843981013585755 -0.013157171148774821 74 36 16
0.026557458125584257 0.2843881662703944 -0.015968681976233447 68 32 16
0.02698035037626758 0.2818205537573293 -0.018855022360910585 62 31 17
0.027252003344089608 0.28004588165985184 -0.02172671807123551 58 32 19
0.0271255111820201 0.2803612215622599 -0.02453910653983113 55 32 20
0.02690002832443674 0.2811964381847789 -0.02733481921861211 49 29 18
0.02686474269587713 0.2810325821802298 -0.030164194941430134 41 21 13
0.02714691359917426 0.2792004145799991 -0.03305599538481911 36 17 11
0.028374453275965994 0.27239904354013494 -0.03614229819224343 30 14 9
0.02889026614064734 0.26933607210504573 -0.039104063857797196 22 11 8
0.030576285254687932 0.2601195082511613 -0.04232738727214832 14 7 6
0.030577773823548794 0.2597572231851997 -0.04520598937855128 11 7 6
0.0333956655250963 0.24458206665686527 -0.04873573241824126 9 5 4
0.033180439331237856 0.2453563415532055 -0.051590631957886296 8 4 3
0.028129422034371708 0.2708665517950674 -0.058994666701313356 8 4 3
