ply
format ascii 1.0
element vertex 698
property float x
property float y
property float z
property uchar diffuse_red
property uchar diffuse_green
property uchar diffuse_blue
end_header
0.11258755570183224 0.1693189743039104 -0.6150896911572212 61 28 13
0.10692384869662913 0.16934333587104322 -0.6199410039252105 61 28 11
0.11016284224768763 0.16952679423798803 -0.622073568869078 60 29 11
0.10854921173334042 0.16962389550661097 -0.6256970573914208 58 29 11
0.1083340157944292 0.16974593811564964 -0.6288922535864235 57 29 12
0.10865225726815059 0.16987743603810132 -0.6319226184917969 57 29 13
0.108183759747115 0.16999514972691754 -0.6352000846646245 56 28 11
0.1082604103120813 0.17012248704238042 -0.6383081249624714 54 26 10
0.11328425309220447 0.17033591863886113 -0.6398478168101609 53 24 9
0.11420302938424753 0.17047759993696346 -0.6426811509879152 51 22 8
0.11756337875705175 0.17066136342528776 -0.6447303286092647 48 19 5
0.11625193027887537 0.1707643746187817 -0.6482742071941044 50 20 8
0.11287240576550256 0.17083216037352064 -0.6524927096035457 48 18 7
0.11829443119833577 0.17105068712233096 -0.6538605716672358 48 18 7
0.11165422339995351 0.17106341330481634 -0.6591546561051712 49 19 8
0.11549420007767283 0.17125460186385305 -0.6610288701443592 48 20 8
0.11495417556777679 0.17137141452277171 -0.6643375564863576 48 20 8
0.10815907452705421 0.17138317951047782 -0.669723859579187 47 19 7
0.10802337742707192 0.17150739925780034 -0.6729135826361698 46 18 6
0.11992720695909077 0.1718325302757976 -0.6720725611082138 47 19 7
0.11871901996659995 0.17193827067384534 -0.6756068771893488 47 19 7
0.11759731010460456 0.1720456441644375 -0.6791169644452738 47 19 7
0.11079369992881287 0.17231266387873417 -0.6908550672235183 47 19 7
0.12400795579389645 0.17265458922326157 -0.6894491992802259 47 19 7
0.12425833135946851 0.17278447191316912 -0.6924902854002138 48 20 8
0.1236438083119611 0.17290038815851105 -0.6958325342417269 48 20 8
0.12362310025309686 0.17302598772934186 -0.6989703589323479 47 19 7
0.12115557791292791 0.17311240821050086 -0.7029684378324247 47 19 7
0.11898851108152005 0.17320399244709794 -0.7068696519040598 49 21 9
0.12756733206425916 0.17346677712409933 -0.7069712897445879 50 22 10
0.1289691813383592 0.17361483273447217 -0.7096009563612111 50 22 10
0.12340436360153795 0.17453734493800127 -0.7367054188736428 49 21 9
0.1274381158614694 0.17472538219999023 -0.7383560336156698 50 22 10
0.12718203704964726 0.1748478071767579 -0.7415913823258622 51 23 11
0.12632403841353537 0.174961211646852 -0.7450537079695262 51 23 11
0.1299503112902236 0.1755212514082337 -0.756257456726617 46 18 6
0.13644109429459528 0.17574366045250686 -0.7569206529789064 45 19 6
0.13940785556596394 0.17591337764906465 -0.7589156982469194 45 19 6
0.14023540578400273 0.1760513946771003 -0.7617263278271342 45 19 6
0.14928233070470842 0.17668540164710966 -0.7707053378253603 45 18 5
0.15506227961899316 0.17689368351084805 -0.7715502091114796 46 19 6
0.15869431336273215 0.17707061374321617 -0.773225853952225 46 19 6
0.161037381150477 0.17722881079625724 -0.7754020595174873 47 19 7
0.1607622741875529 0.17734974569969172 -0.7786146303787137 48 20 8
0.16239670174056337 0.1774976197649152 -0.7810654354684872 49 21 9
0.16436855638754477 0.17765004680045687 -0.7833764769798127 50 22 10
0.16398534137290643 0.17776944393318503 -0.7866318615509197 52 24 12
0.16539201041915302 0.17791375757336766 -0.7891648928273136 53 25 12
0.1635443247699241 0.17801301482201676 -0.7930174327918541 52 24 11
0.1566180216098993 0.17804280257806354 -0.7989501204701602 51 23 11
0.15309449028241917 0.17812006411485554 -0.80351213529749 51 23 11
0.14888766010473495 0.1781885406410038 -0.8083679857369191 51 23 11
0.16880000678982474 0.17870888717346145 -0.8063764075139763 51 23 11
0.1674606662777246 0.1788157338223895 -0.8100365411446477 51 21 10
0.16812160185812208 0.17894948423398202 -0.8128660060870293 51 21 10
0.1645549609464858 0.17902707942567408 -0.8174686316862949 52 22 11
0.170427499397928 0.17922985258411353 -0.8181071529071186 51 22 10
0.174854659748066 0.17941289981494823 -0.8193388077340523 53 25 12
0.1772999583674698 0.17956949377299514 -0.8213985260321386 55 27 13
0.18104691521479738 0.17974274036239826 -0.8228964483554814 57 29 15
0.18107207118242213 0.17986736808888124 -0.8259757325912158 57 29 15
0.18120596737203004 0.17999343709011562 -0.8290093304116056 62 34 18
0.18117176264832144 0.18011737965213906 -0.8321160807884252 67 39 22
0.18603395888504518 0.18030376512164747 -0.8331046039959615 63 34 18
0.1872106756104206 0.18044283105208994 -0.8356795615162464 57 28 14
0.18959395082838992 0.18059699992386372 -0.8377254889977875 58 29 13
0.18823294842745392 0.1807039300298399 -0.8414039357786474 60 30 12
0.18521985569360683 0.18079047213890556 -0.845814016081198 62 30 12
0.1851935703768099 0.18091452759468998 -0.8489176362507779 64 30 11
0.18590457661153922 0.1810477324102733 -0.8516960034896305 69 33 12
0.18668839764840048 0.18118178127061205 -0.8544407685679622 74 37 14
0.18789381055650078 0.1813209185602472 -0.8569959883992793 79 39 14
0.18879774595999194 0.18145627872113207 -0.8596833095715944 85 49 22
0.18948514268569305 0.18158894780508367 -0.8624660574445325 91 60 36
0.18937339645757925 0.18171197120707178 -0.8656080859725487 94 66 45
0.1917865187048507 0.18186521288137852 -0.8676085897610204 92 64 42
0.18919463250786656 0.18195872800103266 -0.8718762628051216 89 61 39
0.18711619708068075 0.18205869800687113 -0.8759194990820345 85 57 35
0.18684584072660668 0.18218022523917268 -0.879143233532535 83 55 34
0.18534143852352397 0.18228742235568307 -0.8829358152668865 83 55 34
0.18580596540018837 0.18241772662684663 -0.8858268465546376 82 54 33
0.18605294107398024 0.18254550227886532 -0.8888181021316922 80 52 31
0.18456375237898553 0.18265336301165272 -0.892615776261667 77 47 26
0.18303729279994804 0.1827610424520776 -0.8964368831163162 76 45 25
0.1819848825075958 0.18287434852980586 -0.9000425002939872 82 51 31
0.1811948378421377 0.18299079912116778 -0.9035296094162126 74 43 23
0.18068238510703077 0.18311051235282305 -0.9068897328669826 72 41 21
0.1842044810523168 0.18327529671819548 -0.9083458545750582 87 55 34
0.1847795501642912 0.18340701293582742 -0.9111891195211327 93 64 42
0.1742482596033995 0.1834164254468914 -0.9193177147511866 92 64 42
0.17372403406318238 0.1835367933173306 -0.9227029372684529 90 62 42
0.1733943732967354 0.18365939279925036 -0.9259977835289078 86 55 38
0.1741255392403951 0.1837935474575923 -0.9287846506787418 80 48 33
0.18119289791380877 0.1839957066817848 -0.928512232760458 71 41 27
0.17820914155276124 0.18408967818735744 -0.9330850101755618 57 29 17
0.17786610155447097 0.18421210513991434 -0.9363855970191882 49 22 12
0.1777817005115042 0.18433734957030892 -0.9395623396063052 43 18 10
0.177774478804214 0.18446345907677206 -0.9427027310534405 42 17 10
0.17891121774609098 0.18460151829510774 -0.9452826312301127 42 17 10
0.17816800499420676 0.1847200351581042 -0.9487859993822777 43 18 12
0.18129068043400415 0.18487840334905964 -0.9503820392959863 44 19 13
0.18788571112860122 0.1850718273617588 -0.950246544126637 51 28 15
0.1881365326964392 0.1852001027414555 -0.9532473395086588 60 38 25
0.1895589021011796 0.18534018598621618 -0.9556634371465376 69 48 36
0.19538289078207216 0.18552414632039055 -0.9558706816813483 79 61 51
0.19384696229904896 0.18563425220037466 -0.9597592060199143 81 67 58
0.19967228742699394 0.18581724275015454 -0.9599413406729617 90 75 69
0.20158965123248734 0.18596119740453154 -0.962082613969483 102 87 84
0.20310483863170675 0.18610102469108256 -0.9644227692220723 96 81 77
0.20342928623018808 0.18622918479055375 -0.9673655062955641 93 78 73
0.20160589335582252 0.18633673335259573 -0.97140595076198 101 86 80
0.20656527538631875 0.18650921002272064 -0.9719758590192662 111 96 89
0.20947743629944943 0.18666169128244448 -0.9735833634390242 107 90 83
0.21282706370394533 0.18681793397740898 -0.974956434492579 98 81 73
0.21591374168960034 0.18697131654151905 -0.9764555207517698 105 86 79
0.21753975646599844 0.18711080215732873 -0.9787041024403198 105 86 79
0.22062255568357486 0.18726350304717854 -0.9801891504967765 107 88 81
0.22288819268922985 0.1874083760355952 -0.9820921755649411 110 91 84
0.2253245959760114 0.18755453379479606 -0.9838991268481952 113 94 87
0.2269778605491341 0.18769336725676375 -0.9861110691727419 118 98 89
0.22852090284594034 0.1878310383734082 -0.9883767428645958 90 68 59
0.23008533801272574 0.18796873465158273 -0.9906270052396363 84 60 49
0.233785727437421 0.18812502870830572 -0.9917384101496249 81 52 38
0.23443680770997966 0.18825428345937942 -0.9944635045661492 76 42 23
0.23769416389972203 0.18840603807543055 -0.9957941752894909 74 37 14
0.2392708652000556 0.18854297236149212 -0.9980163000677347 73 35 12
0.23938842988702103 0.18866731433551054 -1.0010192080640428 69 31 9
0.24268890096389653 0.18881856797704255 -1.0023051046131004 68 30 9
0.23948155511293562 0.18891489481557075 -1.0071040438211334 69 31 10
0.24172019176882392 0.189056959150864 -1.0089574884666002 70 32 11
0.24407027858207345 0.18919968250573865 -1.0107437690232204 72 34 11
0.24549747515904558 0.18933458712883722 -1.013027511808595 70 32 10
0.2474352229240809 0.1894734808947372 -1.0150276951133914 69 31 10
0.24746575913419194 0.18959682529279775 -1.0180710436582363 70 32 10
0.2478623796495068 0.18972312791308357 -1.0209135021037195 72 34 11
0.249123709605369 0.18985625407924492 -1.0232773730962021 75 37 12
0.2493801260603438 0.18998138082764193 -1.0261957019989167 76 39 13
0.2496444638060879 0.19010657885372811 -1.0291098647411356 78 41 15
0.25163881741436933 0.19024510230430441 -1.031058408678559 82 45 21
0.25023691177057134 0.19035748751487724 -1.0349031272789508 88 54 31
0.24960229946223392 0.19047591027400934 -1.0383227455584714 89 57 33
0.24939925695407034 0.19059769810248023 -1.0415024975011131 94 62 37
0.2528580687524935 0.19074674597856933 -1.0426148630430276 98 66 41
0.2523953878986205 0.19086651888702255 -1.0459391593409355 100 68 44
0.2503367957979963 0.1909747689789369 -1.0501733564733469 99 67 43
0.24882620795041882 0.19108730164382445 -1.0541032124845724 98 66 41
0.24985126119954634 0.19121821858614685 -1.0565892849336034 97 65 41
0.2509228964537554 0.19134937019970066 -1.0590462716843216 97 65 42
0.24626270646279702 0.19144021509611273 -1.0647980349651511 97 65 43
0.24831633952389387 0.19157837647753434 -1.0666931403008797 94 64 43
0.24573157837107987 0.19168440149576627 -1.071266457883998 92 64 42
0.24374279365442897 0.19179488365477962 -1.0755038124023275 89 61 41
0.24778110246803528 0.1919463086067748 -1.0762408597162891 81 52 34
0.23973008178811744 0.19201656684103888 -1.084022735851863 68 41 23
0.24285464103700288 0.19216176997298262 -1.0852900911431211 61 41 25
0.2458067404366316 0.19230546284670716 -1.0866491843439094 42 25 15
0.24808797718120662 0.19244445805069907 -1.0883943984760749 33 15 9
0.25789912730562875 0.19287841189298804 -1.0918273647193566 43 20 9
0.2517899201432336 0.19296418264825016 -1.0985392208432587 48 21 8
0.25022327515780385 0.1930786506679317 -1.1025592104780786 54 24 6
0.2525855807798079 0.19321716453350155 -1.1042316869911812 60 26 7
0.2500412807222312 0.19332603261359754 -1.108845349744285 65 29 6
0.25195281661635016 0.19346165773932472 -1.1107839266594173 73 37 10
0.25139367139488533 0.1935826181328571 -1.114210055771929 81 46 19
0.2517523873419386 0.19370900472806468 -1.1170830162978347 83 51 26
0.2528148802534359 0.19383940554650148 -1.1195281923103815 84 51 26
0.2544634507206991 0.19397301116502347 -1.12161369363852 87 53 28
0.2531412136248159 0.19408988244114603 -1.1255102098995897 91 57 31
0.25332594113742024 0.19421527390700993 -1.1284888598905807 93 59 32
0.2545587942855413 0.19434638054777081 -1.1308238743238745 93 62 34
0.25379899794239336 0.19446667251624636 -1.1343838017423282 92 62 34
0.25317708790720433 0.19458784507347948 -1.1378622556744191 91 63 35
0.25169063935009206 0.19470463048909106 -1.1418797359236985 93 64 38
0.2497846999503528 0.1948195033730942 -1.1461641366029984 91 64 43
0.24843583720518647 0.19493751996309508 -1.1501090838960335 75 52 35
0.24764217833737667 0.19505855546169376 -1.1537128793393734 66 49 33
0.2536404881600839 0.1952133668384976 -1.1530648279876397 81 69 53
0.25886138863187846 0.1953635994316473 -1.1528857239472028 119 112 101
0.04809233936220976 0.13508208570258756 0.11279100631249535 125 102 90
0.06008091212834982 0.13561230392135612 0.10903160344720347 139 107 88
0.06515440550750594 0.1359041845977393 0.10575554994841198 131 95 71
0.0698584212874522 0.13618286606543545 0.10251692300115575 109 73 44
0.07159576778977048 0.13635972248891537 0.09947504397076412 83 46 22
0.0736683826546914 0.13654784231900163 0.09641702223296642 66 32 12
0.0766538862017552 0.13676682261507764 0.09331025789850085 59 26 9
0.0745922177910274 0.13681403038865358 0.09050172755515354 60 28 8
0.07458716691279378 0.13693126625097837 0.08757081521515325 61 29 8
0.07504760882890768 0.137064300766394 0.0846134872041964 62 30 9
0.07378051730217938 0.13713894123436887 0.081748255955418 62 30 9
0.07456631473441108 0.1372830243344815 0.07877231148410058 66 34 13
0.0753234915063433 0.13742609033067274 0.07579913285225387 67 35 14
0.07663640366069402 0.13758778770068117 0.07280016166191955 68 36 15
0.0775334425523881 0.1377354140331361 0.06982370314783413 68 36 15
0.076168349069417 0.13780719971333352 0.066952265223399 66 34 13
0.07631077518400205 0.13792959493666634 0.06400913795954144 64 32 11
0.07606107819173506 0.1380389249658133 0.061082188084640554 65 33 12
0.07572180438105626 0.13814534011741017 0.05815719258243108 68 36 15
0.0770784555103604 0.13830824039187015 0.05516276925454702 71 36 16
0.07747839805439177 0.1384392570624024 0.05220798861575439 68 33 13
0.07787831901120856 0.13857026546210882 0.049253397400337115 67 32 12
0.07632532185981936 0.13863666285378942 0.0463679288331816 63 28 8
0.07883558239400569 0.13883745778999615 0.04333945842632926 63 28 8
0.07757727239200826 0.1389137765871389 0.0404392684872814 63 27 9
0.0772927469335698 0.13902232466699424 0.03750430572528962 62 26 10
0.07517371592580849 0.13907069767104294 0.03462133376854049 59 26 7
0.07381931468869667 0.13914443004476829 0.03170974774944457 57 24 5
0.07535773980277526 0.1393130258483573 0.028716838396555738 55 22 5
0.07662019581506706 0.13947246429483112 0.0257343734583763 55 21 7
0.0780930304219736 0.13963865137944884 0.0227497450605535 56 22 10
0.08130797404762419 0.13986139772214662 0.019730350713585677 55 22 8
0.07653140831535632 0.13982420333628934 0.016882636042321597 54 21 6
0.08394316937889976 0.14018281842632083 0.013789100908043542 55 22 7
0.08260591555903977 0.14025742971239724 0.010869128501528828 55 22 7
0.08059563452377497 0.14031049910158594 0.007954883055970401 56 23 8
0.07942242060704609 0.14039084040654543 0.0050215431358535765 59 26 10
0.08056374819488912 0.14054585624140833 0.002053730337074851 60 27 10
0.08136781465115105 0.1406899411887551 -0.0009078169166400855 59 26 11
0.0811243108751885 0.14080037942044707 -0.0038575379533626972 51 17 4
0.08285181377146929 0.14097397026524344 -0.006825670577868415 49 17 4
0.08262409412757625 0.14108493370486222 -0.009776025193075915 51 19 6
0.08075142650278322 0.14114351451768434 -0.012719073248608432 52 20 7
0.07981665592575427 0.14123220951117352 -0.01567246068436059 46 15 2
0.08094056280847324 0.1413864525003928 -0.018634751224015353 46 16 5
0.08034793178692189 0.1414861769853395 -0.021593009117435568 47 18 7
0.07980107224965931 0.14158746155506177 -0.02455402965395615 44 16 4
0.07916434183131357 0.14168601366356534 -0.027517882520786408 45 17 6
0.07602067867292812 0.14170565012019629 -0.030493481228578256 45 17 6
0.07345034356255707 0.14174374497021394 -0.03347664524017992 42 14 3
0.0741417429633946 0.1418846257353992 -0.03644727026696899 43 16 5
0.075391424259853 0.14204296364950988 -0.03941235881547946 45 18 7
0.07494023427642074 0.14214797987399033 -0.04239090857946373 45 18 7
0.07688519171104993 0.14232791096152694 -0.045345414452708205 43 19 7
0.0738242807387874 0.142351641450896 -0.048357801904841055 39 16 3
0.07432652422160646 0.14248661199183893 -0.051330416906591785 41 17 5
0.08019341404370899 0.14278810540184547 -0.054219210106609086 45 20 8
0.07987081175513712 0.14289715624477065 -0.05719682810802251 49 22 11
0.09958150988574677 0.14362579554379204 -0.059804979291740584 47 20 9
0.11028724894406962 0.14407417310391132 -0.06253533972858315 52 30 18
0.11842653286531923 0.14444224440854034 -0.06528978599757504 96 74 63
0.12800856135111063 0.14485372826866777 -0.0679874516763953 63 38 29
0.13317979229587382 0.14512876054998913 -0.070765596413115 98 73 63
0.1410350813684791 0.14548540048714295 -0.07345917024509706 133 111 100
0.14489236950670367 0.14571894480777456 -0.07624031556766998 128 104 94
0.14329290544440895 0.14578562340175116 -0.07916954099852888 98 73 61
0.1398682893228977 0.14579697521072618 -0.08216042361873165 60 29 15
0.14474276009030015 0.14606091244488498 -0.0848961846769428 52 21 8
0.1458663693947778 0.1462105730345637 -0.08774430595559135 52 23 10
0.14982282345122339 0.14644585837807764 -0.09049051804775989 54 22 9
0.14687179085127908 0.14647210399776295 -0.09347882951704956 66 38 25
0.15040718190641267 0.14669423859807462 -0.09622960803286727 90 65 55
0.15525414230106813 0.14695543423455257 -0.09891867162967617 98 75 64
0.16066134605141819 0.14723289941347015 -0.10157099816362754 89 63 50
0.1660398314596973 0.14750888851719987 -0.10420917737410755 95 66 52
0.1723512323212821 0.1478121557754535 -0.10679082993402131 107 76 63
0.17696102946678008 0.14806392845146893 -0.1094321384647525 112 76 64
0.17863299514958556 0.1482277070736968 -0.11219920567013753 127 96 83
0.17674375556862082 0.14828550298989351 -0.11513575958711084 156 134 122
0.1829510454492534 0.1485836591860188 -0.11767211825458018 136 110 96
0.1896603199462909 0.14889595598978506 -0.12016464758271417 124 94 76
0.19624329784703706 0.1492037470290851 -0.12264453468406714 102 64 42
0.19984201118877254 0.1494228264622427 -0.12526897560820516 89 47 22
0.20110653911022403 0.149572857319088 -0.12801493193819108 80 40 16
0.19570044005820367 0.14952699117350063 -0.13114385053323133 72 34 13
0.1971595313585494 0.14968289631457782 -0.13388264451451057 68 32 11
0.19784376471254222 0.14981601511715775 -0.13666514922819617 69 34 14
0.2003260355186316 0.15000153350213574 -0.1393343525760366 68 35 16
0.20281232528800267 0.15018690551046604 -0.14199672411536948 67 35 19
0.20571847515524758 0.15038420860446447 -0.14462503017666262 65 36 22
0.20367696390523055 0.15043779035262064 -0.14757675755735153 65 39 28
0.20307592383077394 0.15053332347621937 -0.15043702174125415 63 43 32
0.197599740464422 0.15048825896242543 -0.15364136200036524 64 45 37
0.18433946465872497 0.15090558001403814 -0.1745436918865006 62 43 36
0.18332695604166602 0.15099130113433007 -0.17748429242190156 61 42 35
0.16249627783005574 0.15249123626321562 -0.2314003410318675 54 36 26
0.1507062723702411 0.1525216632446306 -0.24148106182319096 54 36 26
0.15154778251385206 0.1526617991004862 -0.24431441310605811 55 35 26
0.13974581037489744 0.15246097598074737 -0.24863118762486264 53 33 24
0.1486883868607486 0.15281968809352714 -0.2505168953188165 52 32 23
0.15569266573302448 0.15324256654589757 -0.2555369862539707 52 32 23
0.1549613166524714 0.15334031890894925 -0.25855567733062035 51 31 22
0.15076141863549866 0.1533457524048213 -0.262011734216 51 31 22
0.1491346204474352 0.15342016911187525 -0.26515576007538333 51 31 22
0.1479610112697994 0.15350685078561296 -0.26824770659851194 53 33 24
0.1462865598162148 0.15358046184164528 -0.27140929278368126 55 35 26
0.14564678959415506 0.15368164320709102 -0.27444119111573273 52 32 22
0.14292178298720187 0.15372800959058228 -0.27775314481638225 49 29 18
0.13949945789461132 0.1537564265372583 -0.28116826565104397 49 29 18
0.14024033903661745 0.1538944715841772 -0.2840289740813073 48 28 17
0.14125102751652818 0.1540395239713941 -0.2868513208867215 44 24 15
0.1419974818330279 0.1541775965690535 -0.2897083110462086 40 20 11
0.14259670588031886 0.15431178466283524 -0.2925847194010909 46 26 17
0.14581933015273296 0.1545140779343494 -0.2950874086147743 48 28 19
0.14722330458883282 0.15466888928576403 -0.2978424698893299 44 24 16
0.1484594852879401 0.15481923028562167 -0.300618580346644 61 43 36
0.15442716597043432 0.15509147134711138 -0.30269737286163023 60 46 38
0.15997807837401634 0.1553522914347047 -0.30482052197675197 70 53 43
0.1552438433248743 0.15534851450510354 -0.30846907303805243 48 23 10
0.1582604638477973 0.15554379618519878 -0.31095957516576417 54 24 8
0.14311083284843526 0.15527479814856388 -0.3162209204602436 52 25 11
0.1612528773718509 0.15585588769310027 -0.3163854978912174 53 27 14
0.15028112864340196 0.15569484792106417 -0.3210391387917289 54 28 15
0.13987048695046506 0.15554943904214383 -0.3256394152454524 53 27 14
0.13927854032247544 0.15565368335630628 -0.3287099744516302 56 31 18
0.145591574516214 0.15593224149191656 -0.3306734459403469 52 29 18
0.1308089618118101 0.15567916786701902 -0.33604219971121113 34 14 8
0.13308409131376572 0.1558561849583337 -0.3386629232983909 22 9 5
0.129715083692939 0.15589162455473546 -0.3422112197804925 32 16 9
0.12362075450694811 0.15585945030912318 -0.34622608027632745 46 26 16
0.12524153501840485 0.15602031129956764 -0.3489607722353751 44 24 14
0.12332695650366243 0.1560931437193043 -0.35229276135186266 40 21 13
0.12798061960907015 0.1563290953423098 -0.3545044002532647 42 20 13
0.11951379374359933 0.15624004659664456 -0.3589750035952088 43 22 11
0.14395903018274953 0.15696393732324698 -0.3577215156530512 35 16 9
0.1446423611813435 0.15710016707811417 -0.3605824020248114 22 10 6
0.1445852060772879 0.1572181800272291 -0.3635739083307188 24 11 5
0.14570776763740811 0.15736512068639188 -0.3663549519619498 41 26 16
0.14673862779975688 0.1575097235680199 -0.3691501288163624 39 21 9
0.14611504690337387 0.15761394604257145 -0.3722451525580755 43 23 12
0.13983415813608474 0.15758086100745736 -0.3763847666423406 41 21 10
0.1432197275562882 0.15778281614297346 -0.3787501908730181 43 23 12
0.14532445296147511 0.15795343536050152 -0.3813459047095998 50 26 15
0.1429268648625486 0.1580153081834218 -0.38478613901566466 51 26 14
0.1407524517638598 0.1580828886027664 -0.38819242932727294 60 33 22
0.13842515773410874 0.1581471174436359 -0.3916359102544994 54 27 16
0.13691754780374613 0.15823128367706107 -0.3949291142782563 49 21 9
0.14923253991832802 0.1586453982759586 -0.3955318012591303 51 23 11
0.16182864663413749 0.15906469785736405 -0.39604169006989476 52 23 15
0.16620061161509317 0.15928731586610914 -0.39814314913047844 51 21 11
0.17322460386532734 0.15957218740384022 -0.39970216405818915 58 23 10
0.17525769839169003 0.1597384208590155 -0.40224501339599156 71 38 23
0.1763265856148472 0.15988174312652229 -0.4049781544716509 77 53 39
0.18319509749758114 0.1601611289757044 -0.4065231347584163 106 88 75
0.17832424896467589 0.16016482795287962 -0.41046633532203913 81 56 40
0.17935887494931776 0.16030707974097344 -0.4131998373751821 66 29 8
0.18680686947618397 0.16059859818107802 -0.4145895867447352 63 26 7
0.18680296974539423 0.16071614862494518 -0.4175274428632259 63 26 7
0.18476589436638616 0.16078664772007858 -0.42089802301029733 66 29 10
0.18748139748781284 0.16096722583501644 -0.4232594957184567 67 30 11
0.18751623882742807 0.16108575049294352 -0.4261910457744035 68 30 10
0.18664667100642143 0.16118353468817453 -0.4293198061420215 68 30 12
0.1862404645942483 0.16129208546805388 -0.4323510362452328 73 41 23
0.18486362870275566 0.16137855255554642 -0.43559829471242933 73 45 29
0.17496525422530806 0.16127107872481372 -0.4407406662431482 81 54 37
0.15750562647359165 0.1609930959302241 -0.4476039612925524 74 43 28
0.1422177420693762 0.16076656611908152 -0.4540348733989158 71 39 24
0.13812789564651715 0.16079502608994675 -0.4579788050930411 67 37 20
0.10273102308785786 0.16024209672223885 -0.4721587977220654 65 36 18
0.10491704824617154 0.1604145673103365 -0.474736458115634 65 36 19
0.10608125792076141 0.1605639753663378 -0.47754617631092083 68 40 21
0.106916336384889 0.16070594678661385 -0.48043043926143364 68 40 20
0.1077813756917325 0.16084852138108655 -0.48330607431459993 62 33 17
0.10724186960437435 0.1609599160621431 -0.4865136910587644 57 29 15
0.10908964574612875 0.16112415455427256 -0.4891532451489856 50 22 9
0.11102561304884725 0.16129014471066716 -0.49176680823255364 47 19 6
0.11085897120055464 0.16140975510772015 -0.49488475583452685 47 19 6
0.11236393318270071 0.1615660358564722 -0.497596662291812 49 21 9
0.11295224004531834 0.16170215360638535 -0.5005298776173552 50 22 10
0.11251786897325847 0.16181597440812423 -0.5037149462155283 50 22 10
0.11177515726119273 0.16192320005125638 -0.5069791310994884 51 23 9
0.11358362535756392 0.1620857834006337 -0.509608439382077 52 24 10
0.11180110260305412 0.1621706817575572 -0.5131372654070698 53 25 11
0.11283023451143767 0.1623163508222217 -0.5159604270085208 53 25 11
0.10916767990922463 0.16236127541841558 -0.5199776024519629 52 25 10
0.11078610255353674 0.16251967330660722 -0.5226526645288789 52 24 9
0.11246326410597679 0.1626791616160928 -0.5253085116603416 53 25 10
0.1140309212118928 0.16283615159568843 -0.5279885585927556 54 26 10
0.1155934884320643 0.16299287764364143 -0.5306660402089678 56 27 11
0.11044825490277417 0.16300767023055834 -0.5351031311050316 59 29 13
0.11335694525577097 0.16319287875092334 -0.537427474665219 60 28 13
0.11317711421289967 0.1633128738432401 -0.5405654538630447 62 31 13
0.1120906878428942 0.16341394661442832 -0.5439477635933366 62 31 13
0.11164152720713916 0.16352850850901648 -0.5471630268739645 63 32 14
0.11055029314172224 0.16362980485699502 -0.5505547193621446 66 34 16
0.10650044892692685 0.16366988148513317 -0.5547570479686945 67 34 15
0.10527850525657408 0.1637690281297415 -0.5581984087119305 68 35 16
0.11616395451689232 0.1641181043585524 -0.5583075274455375 68 35 16
0.1142228114514606 0.16420208918264295 -0.5619389500180475 66 33 14
0.11340586076688036 0.1643094099074438 -0.5652642014213148 63 30 11
0.1114533437104033 0.16439367395824905 -0.5689115873695748 63 30 11
0.11240951597907886 0.16453748329589515 -0.5717460001632353 64 32 12
0.11049365606209141 0.16462289268870967 -0.5753929999800619 65 34 14
0.1131068468980703 0.1648002713685916 -0.577755482584375 62 31 11
0.11075044067794007 0.16487707933466356 -0.5815360307276025 62 31 11
0.11200718536377502 0.1650269103616258 -0.5842831514502441 60 29 11
0.1117301423255154 0.16514587089344518 -0.5874721567154633 61 30 12
0.11037190949920767 0.16524330154138586 -0.590978424812994 60 29 11
0.11147603197284564 0.16539000657800215 -0.5937681636601263 59 28 10
0.11237449546412281 0.16553253000959564 -0.596616096499747 59 27 9
0.10893700440848245 0.165589155095182 -0.6007474538864476 59 26 9
0.10913068426530022 0.1657179087442086 -0.6038088052988282 58 25 10
0.10801710892028632 0.16582097323254125 -0.6072623041356623 57 24 9
0.10791867985225267 0.16594412349795187 -0.610414699904538 58 25 10
0.10756696792006595 0.166062382074449 -0.6136452126971785 60 27 12
0.10734161946236351 0.1661831907729753 -0.6168394901303967 61 28 13
0.1077179748536635 0.16631575117333228 -0.619851459444823 60 27 10
0.10921947456614808 0.16647007308517892 -0.6225171986769976 60 29 11
0.1098516490941 0.16660748519997456 -0.625448047806409 58 29 11
0.10850201655411447 0.16670677766578954 -0.6289939988722967 58 28 11
0.11327933955205272 0.16692362997726393 -0.6306310384932751 58 27 11
0.11327743254866304 0.16704868864028322 -0.633754769929732 58 27 11
0.11325596627212076 0.16717341973434313 -0.6368857866512865 57 26 10
0.11126636384745248 0.1672608849149493 -0.6406424116197489 55 26 10
0.11005322700967579 0.16736332145956487 -0.6441589456411505 54 25 9
0.11856809609469918 0.1676491333427892 -0.64456276269548 53 24 9
0.11731396348313076 0.16775057490854062 -0.6480868669132126 54 25 11
0.11285769346280594 0.16779234067684096 -0.6526526835194609 48 18 7
0.11590942997529917 0.16797464560574107 -0.6547914447185725 46 16 5
0.11523298389973757 0.16808736299146707 -0.6581403478004979 49 19 8
0.11212863285201026 0.1681552791275123 -0.6622902207122646 50 22 10
0.10997379758105623 0.1682411520810637 -0.6661377257128975 50 22 10
0.11100145561249833 0.1683858349053952 -0.6689374300003184 49 21 9
0.11118513819915869 0.16851497370570098 -0.6720163008850324 49 21 9
0.11146453489330355 0.1686458799650072 -0.6750636275177636 50 22 10
0.11125443481963246 0.16876789385386817 -0.6782759385781202 49 21 9
0.11139468757496881 0.16889632758491693 -0.6813715419090156 48 20 8
0.1114135423249176 0.16902259607552814 -0.6845090639236034 48 20 8
0.11273635829448521 0.169172364284658 -0.6872023809338735 48 20 8
0.12434980779773869 0.16950646134932226 -0.6863619779231669 47 19 7
0.12367059856542559 0.16961955332806083 -0.6897224176501274 47 19 7
0.1262866694858954 0.16979141719922877 -0.6919449401641932 50 22 10
0.12687821929853743 0.16992709125435584 -0.6948645143242423 50 22 10
0.1250881844245677 0.17002066181079303 -0.698615790137975 49 21 9
0.12385164991276568 0.17012425098071482 -0.702179598690584 49 21 9
0.12248031129798628 0.17022568142009786 -0.7057960872007945 50 22 10
0.12790407290431544 0.17044604783809594 -0.7070097913707105 51 23 11
0.12929637106734937 0.17059558465887686 -0.7096423994883321 52 24 12
0.1244350302273607 0.17139092216397106 -0.7333421890426245 50 22 10
0.12522785763014008 0.17153019517712395 -0.7361924866940307 50 22 10
0.12739397155298238 0.17169250779080886 -0.7385322840058112 51 23 9
0.14121790372869852 0.17204990256094246 -0.7365259443295323 51 23 9
0.12764897955863624 0.17194837441170152 -0.7447186617041753 51 23 9
0.1261431423425238 0.17217519650163435 -0.7515720208372066 49 21 9
0.1368834022436002 0.1724783832601842 -0.7506502451609729 48 20 8
0.13697760305152196 0.17260531806947896 -0.7537448345810339 47 19 7
0.14763258702843854 0.17290508789104636 -0.7528051698288102 46 20 7
0.14482685291800754 0.17298413599121026 -0.7569968801518334 45 19 6
0.1423800165827864 0.17306942112824658 -0.7610605632523001 45 19 6
0.14551355920430817 0.17362055853839917 -0.7723429480788314 44 18 5
0.15137126451942046 0.1738389030138798 -0.7731631000595531 43 17 4
0.15480523984436476 0.17401813481847125 -0.7749229426410403 43 17 4
0.15791187803925114 0.17419179769160945 -0.7768025408351443 45 19 6
0.15994894232008272 0.17434829682404182 -0.7790992239013564 47 19 7
0.16403088288282197 0.17453655972820384 -0.7805722617455327 48 20 8
0.1652653879175603 0.1746799776874915 -0.7831768558290377 50 22 10
0.16598620598250635 0.174815310101546 -0.7859857021666914 51 23 11
0.1597547847276114 0.1749678149243112 -0.7947196576913773 51 23 10
0.15584773619153902 0.1750326297146867 -0.7994267080200853 51 23 11
0.15192295484363966 0.17509773240888174 -0.8041549655876759 51 23 11
0.16315914238163326 0.17564273458762805 -0.8088782952785851 51 23 11
0.16259015941575172 0.1757588543785589 -0.8122271836339728 51 21 10
0.16529629426045975 0.17592395558015134 -0.8142096650659194 50 20 9
0.16606258287224374 0.17605993184194102 -0.8169986371239606 50 20 9
0.1700028893954263 0.1762427869062968 -0.8184486371149374 51 21 10
0.17380379951452346 0.17642311486860635 -0.8199457509077664 51 23 11
0.175309723371064 0.17656935196117085 -0.8224061462564699 58 30 16
0.18014313909736474 0.17676398106949545 -0.8234440133173545 59 31 17
0.18006556879555313 0.17688669214787356 -0.8265689535464407 56 28 14
0.18190299647663202 0.17703714375852359 -0.8288724847454132 56 29 13
0.18288626337709168 0.1771751044903115 -0.8315394600286246 58 29 12
0.18426168642804436 0.17731859740444728 -0.8340345168493662 58 29 13
0.18594128885916975 0.17746629021404622 -0.836393946925378 58 29 14
0.18715389428552237 0.17760717714677124 -0.8389526648586805 58 29 13
0.18814285091235167 0.1777447885385243 -0.8416064202433816 61 31 13
0.18544373501969463 0.17783045632166242 -0.8458791065975941 63 31 13
0.18548550980098444 0.17795488333004564 -0.8489525336486823 65 32 13
0.18738834494868722 0.17810527071859353 -0.8512027508843697 71 35 14
0.18899723806048857 0.17825137581424874 -0.853578444166763 75 36 13
0.18897536893875722 0.17837481439006914 -0.8566775102689167 80 39 14
0.1898507967350393 0.17851061976140226 -0.8593759313476504 84 46 20
0.19111554782749285 0.17865167288560557 -0.8618975725073142 89 56 32
0.19128394579897812 0.1787776956574889 -0.8649107322847327 92 62 41
0.1885938897777776 0.17886506410509026 -0.869218714895274 90 61 40
0.18655866937479185 0.1789616509717562 -0.8732391377361529 87 59 37
0.19011294928133998 0.17913343938631576 -0.8747180363107744 84 56 34
0.1890923841729838 0.17924381150146057 -0.8782804447899409 83 55 34
0.1879003237139926 0.1793520889591887 -0.8819261406708602 86 58 37
0.18793708719597096 0.1794767880002805 -0.8850103212013759 85 57 36
0.18111307856846137 0.1795114320258632 -0.8912702499596866 83 55 34
0.18098145093722434 0.1796344669700762 -0.894446013114167 83 52 32
0.18244455576743634 0.17977829390314395 -0.8968800886035031 81 50 30
0.18108114576360446 0.17988541781325332 -0.9006324524297592 82 51 31
0.18065759612587978 0.18000486010013664 -0.9039493121049578 75 44 24
0.18050693792390632 0.1801278965037711 -0.9071401571036285 75 43 24
0.18023525052880643 0.18024945698169595 -0.910389838688319 88 55 34
0.18003660600919574 0.1803720238307736 -0.9136068983300104 94 65 43
0.17513289004207275 0.18043538310212243 -0.9190655668997488 90 62 40
0.17502658919797345 0.18055956425244066 -0.9222499231765611 88 60 40
0.17655229489050925 0.18070414861064113 -0.9246534168854944 85 53 37
0.17229340197198595 0.18077685266301632 -0.9298355963003965 81 49 34
0.18140943841853446 0.1810151099622954 -0.9285768842872939 73 43 29
0.17951350010001327 0.18111713095257842 -0.9326228606207165 63 34 22
0.1771548148910237 0.1812138058167996 -0.9369012089531314 52 24 13
0.17751700986809996 0.18134384952826804 -0.9398615415313734 43 19 10
0.17655220498697655 0.18145788043077915 -0.9434712120011896 42 17 10
0.17833564750110897 0.18160505826032322 -0.9457356899564762 42 17 10
0.1911376769542837 0.18188350223925195 -0.9425661666661697 42 17 11
0.19041132968192936 0.18199977988139093 -0.946043406835328 42 18 11
0.1896505149864654 0.18211579329394176 -0.9495412998821704 45 24 11
0.18668297249020838 0.18220606940273312 -0.9541412538345407 62 42 28
0.18835884854629364 0.18235094340464875 -0.9564332553912513 65 45 32
0.18966776829637083 0.1824913827940997 -0.9589046546370517 83 64 54
0.19217424986999382 0.18264549799923038 -0.9607707030600333 92 77 69
0.19867068146563113 0.18284505275764937 -0.9606167779913439 94 79 73
0.19974164157398475 0.1829819607855369 -0.9631881418835773 99 84 81
0.2011668666788584 0.1831227828591485 -0.9655771452210741 93 78 74
0.20216842381523592 0.18325868799017137 -0.9681783401187251 98 83 78
0.20274189562580747 0.18338971207099605 -0.9709961149938983 98 83 76
0.20770921518351784 0.18356958822918176 -0.9715597955810564 104 89 82
0.2102919195006104 0.18372247144883835 -0.9733348251082055 102 85 78
0.21308110381077816 0.1838773215562346 -0.9749957187642184 93 76 68
0.21497016049211742 0.18402200838084085 -0.9771145084403098 104 86 78
0.21805610282978252 0.1841794796386537 -0.978606227545301 101 82 75
0.22009269314851193 0.18432525853135218 -0.9806356430285522 109 90 83
0.22335250880313368 0.1844839228821545 -0.9820196862079654 104 85 78
0.22450637072704732 0.18461975510166387 -0.9844986499153588 104 85 78
0.2260513276964127 0.1847596169372318 -0.9867690208804963 104 84 75
0.23012874611477324 0.18492595519814145 -0.9876982616383273 106 83 73
0.23234356664039924 0.18507232011454955 -0.9896014005394114 87 63 53
0.23443217433772898 0.18521712002784485 -0.9915652502516138 81 52 38
0.23470819780118368 0.18534298212439415 -0.9944893107937247 75 40 23
0.23695571201409904 0.18548905815321048 -0.9963593899534728 73 36 15
0.24263047720721753 0.18566977083066252 -0.9963846546099874 70 32 10
0.23559006450812098 0.1857211562551631 -1.0032336375921134 67 29 8
0.24249494298372098 0.18591364164807211 -1.0025803035777752 66 28 9
0.24209814728578866 0.18603237412198032 -1.0058582905716726 66 27 9
0.2429075514107674 0.186163159847481 -1.0084835885592554 66 27 8
0.2441847493970415 0.18629848532365453 -1.0108523924281756 66 28 7
0.2457107873366183 0.18643611500594243 -1.0130819925152443 66 28 7
0.24790772216508072 0.18658009566566364 -1.0149397461693932 67 29 8
0.248372513564181 0.18670712448611582 -1.0177436968938915 71 33 10
0.2484719769217232 0.18683063762197688 -1.0207487000362414 72 34 11
0.24848194080463626 0.18695333108845183 -1.0238039967796275 74 37 11
0.25192148076529947 0.1871084325908748 -1.024957001109122 76 39 13
0.2520165427477335 0.1872317769695119 -1.0279612707361203 81 44 18
0.25122762869384896 0.18734693085274523 -1.0314599198257848 84 49 24
0.2508161306276936 0.18746572119910399 -1.034750975235427 89 57 33
0.2503249813970437 0.18758388197182652 -1.0380892841999292 93 61 37
0.2504228818251746 0.187707512922195 -1.0410984643466985 97 65 40
0.25110748267418365 0.18783647275670246 -1.0437768454192535 99 67 42
0.2514304266941021 0.1879621431494368 -1.0466590248749812 101 69 46
0.25299331296560307 0.18809884154211248 -1.0488362423377517 100 68 45
0.2498387971463089 0.18819373921226534 -1.053699398057682 101 69 46
0.251215629695614 0.18832879322693014 -1.0559826543563042 100 68 45
0.25227156992928795 0.1884609161649693 -1.058446427929372 97 65 42
0.25099087887731963 0.18857279584807324 -1.062252127830589 95 64 42
0.24637538616246735 0.18865637281864495 -1.067987686101631 92 63 41
0.24422986689300574 0.18876158087954673 -1.0723105476620247 89 62 40
0.24271905426982338 0.188872468542736 -1.0762734128877691 87 60 40
0.24465360435547842 0.1890123700301761 -1.0782367647838993 82 54 36
0.23575415987183468 0.18906234748607803 -1.086520331114111 69 43 25
0.24459539190468527 0.189259266007002 -1.08444681016498 63 44 27
0.25176618978153004 0.1894414190073847 -1.0833252832510414 41 25 15
0.2569814217058308 0.189606845843978 -1.0833322235940432 33 16 9
0.25776211584623887 0.18998213074256107 -1.0920844037841126 46 20 10
0.253589470213985 0.19007266137435902 -1.0976434565169566 51 22 10
0.2524790899875401 0.1901874886737568 -1.1013881005259882 57 25 8
0.25136721385308664 0.19030250162052517 -1.1051385620731362 61 28 8
0.25025328166266936 0.19041769637512326 -1.1088951881483713 68 32 9
0.2526805178536296 0.19055974496310682 -1.110522631249344 75 38 12
0.25263107860837597 0.1906830326333343 -1.113639726537696 82 47 20
0.2527846159054907 0.19080787229639629 -1.1166350974566834 84 52 27
0.2525159015792109 0.1909296444611578 -1.1198877135474539 86 53 28
0.25234396538081383 0.19105220064723813 -1.1230833916032559 89 55 30
0.25285383779427184 0.19117972407174863 -1.125864049980615 90 56 31
0.2533635321917176 0.19130722144661802 -1.1286441987386717 90 56 31
0.2541114575527005 0.19143637287019907 -1.1312772992148818 89 57 32
0.25360823209778705 0.1915567358580426 -1.1346801362047103 87 56 30
0.25299741067807113 0.19167646989686854 -1.1381523352662979 85 57 30
0.2514954341278648 0.19179023711717377 -1.1421801060022 85 56 30
0.2508700065197637 0.1919101923421265 -1.1456693747418143 82 55 34
0.24852372605966988 0.1920187440306978 -1.1502344336546875 70 48 31
0.24656727575172552 0.19213025054565241 -1.1545650665611904 64 47 31
0.25456915466674057 0.19230745222204823 -1.152662878893322 81 69 52
0.2601976956531078 0.19246817842225294 -1.1522257041560555 119 111 101
0.04445785968696867 0.13194399313266625 0.11292569782233215 127 106 96
0.05362468301829269 0.1323907926506165 0.10934863399456626 134 104 86
0.06130090480780173 0.13278324111489334 0.1058943213315979 135 100 74
0.0658032524171919 0.133061497699122 0.10266287657947391 107 69 40
0.06824492369946557 0.1332658056463947 0.09957132167248826 79 44 19
0.07101315336152708 0.1334814873319842 0.09646624896534683 74 40 19
0.07601468629686653 0.13377623081719298 0.09323668904382144 66 34 14
0.07535776985107016 0.13386971518463914 0.09034617693849101 58 27 7
0.07417311409958935 0.13394462856389128 0.08748228195368303 62 30 9
0.07395431491817792 0.13405386702080885 0.08456122616522577 64 32 11
0.07392164455973424 0.1341697401805516 0.0816286543566469 65 33 12
0.07198103064104028 0.1342184313681689 0.0787933651485967 68 36 15
0.07537795435690116 0.1344551421115481 0.07568402689346634 62 30 9
0.07584444738486895 0.1345885850213066 0.07272617040529275 64 32 11
0.07564613735288309 0.1346987063538858 0.06980002254446532 64 32 11
0.07601861828527355 0.13482886754865478 0.06684624213664675 63 31 10
0.07619496956581523 0.13495217190444186 0.06390122780876586 63 31 10
0.07584241824879068 0.1350570471725165 0.06097830485065261 64 32 11
0.07547636430624427 0.13516153383975912 0.058053892702526 65 33 12
0.07426575864687168 0.13523674589809773 0.055160920748924 65 33 12
0.07511875214168293 0.13538375266731997 0.05218449781823646 66 33 12
0.07579404620532659 0.13552454225218885 0.04921613455950323 66 33 13
0.07692114787566248 0.135680916878199 0.04623285541514015 63 29 10
0.07592383569316934 0.13576385374194827 0.04332363278051571 63 30 11
0.0770889200511024 0.13592147596471504 0.04034066958131934 64 31 12
0.07642252208107392 0.13601598644349985 0.037416541104593436 59 26 7
0.0745821214895716 0.13607029328602996 0.03452381366770965 58 25 6
0.07271551174040128 0.13612396005307675 0.031625331837224886 59 26 7
0.07441839968029308 0.13630006393841287 0.028626363804498692 62 29 10
0.07607030806833022 0.13647426371645338 0.025632728926752772 56 24 7
0.07778478110866509 0.13665044124431522 0.022641552117043058 54 22 8
0.08094986572387408 0.1368758472901638 0.019622798194507123 54 22 7
0.0652530307193221 0.13645980385309103 0.01699632279774431 54 22 7
0.06869740376636448 0.1366951354696524 0.013961038085921772 56 24 7
0.06875959812092135 0.1368155403817772 0.010993756171370044 56 24 7
0.07152310204056882 0.13702731290120912 0.007982770162633638 56 25 7
0.0783180512186681 0.137374864742896 0.004921054270462215 57 26 8
0.0789530417857369 0.13751410514573134 0.0019580062906405776 59 27 9
0.07975869692437083 0.13765904993897393 -0.0010060959629208856 59 28 11
0.08008824188801311 0.1377879544700196 -0.003964085642099173 62 30 13
0.080013468685178 0.13790330987886398 -0.006918701073015647 58 28 11
0.0802181394272219 0.13802806284220695 -0.00987647849011302 53 24 7
0.07954152570739301 0.13812340206721516 -0.012829885430801527 52 23 7
0.07915730465384768 0.13822860902666909 -0.015787471471841057 53 23 9
0.07914390431352528 0.13834624105262255 -0.018748114064555177 50 18 7
0.07823859043147317 0.1384342902982873 -0.02170899004681023 48 17 6
0.07756335707175252 0.13853011641675703 -0.02467345697842497 47 16 4
0.07969219335230693 0.1387188649858788 -0.02763512715390482 45 17 5
0.07919028541950998 0.1388204915931111 -0.0306008443358486 45 18 6
0.07803744651246713 0.1389007538028386 -0.033572386747488595 43 17 4
0.07774295260355618 0.13900944749992686 -0.036542754269835755 46 20 8
0.07747108168969619 0.1391189602262954 -0.03951483782453141 46 19 10
0.07690458670930558 0.13921888351601408 -0.04249157661061713 44 17 8
0.07718369892386229 0.13934659709533792 -0.04546165984381805 43 16 7
0.07579072846450553 0.13941968048909234 -0.048452968453566315 43 16 7
0.07524431689787739 0.1395205830308252 -0.051437553378384016 46 18 9
0.08189098741474815 0.13985577171994115 -0.054312630797041996 46 18 9
0.09193532593187402 0.14030061526752158 -0.05711063955768793 47 19 10
0.09822213015186534 0.14062241343980172 -0.059949339752126456 45 20 8
0.10766540563115846 0.14104569194434874 -0.06270665727692665 64 41 27
0.11668084786382789 0.14145405065134578 -0.0654457947296747 95 74 61
0.12540216824107484 0.14185187911035016 -0.06816557980244792 67 40 28
0.13099494448407 0.14214797258707312 -0.07093712969573492 104 82 69
0.13799943411206933 0.14248880020122648 -0.0736559246973991 139 119 109
0.14177517463231964 0.14272526034394592 -0.07644383896902043 121 99 89
0.13791498911092975 0.1427168365286745 -0.07944393730315365 98 72 60
0.14355614475183406 0.14301253679015882 -0.08216538058141921 64 32 18
0.14322408873401157 0.14311708012122215 -0.08506293039305016 53 23 10
0.1460932131072655 0.14332361278420308 -0.08785466629535157 52 20 10
0.1462718450754398 0.14344434930221675 -0.09073339757116808 55 22 11
0.14886343885923758 0.14364162988610135 -0.09352402739008939 70 42 30
0.15263309937499794 0.14387592844931957 -0.09626280041310148 95 70 58
0.15693108396082342 0.14412650376423738 -0.0989701786090801 90 64 53
0.16082625844925263 0.14436389789488052 -0.10168215362540804 90 65 53
0.16614538278072738 0.1446456778221787 -0.10432245988696058 94 67 54
0.172673524318035 0.1449648338032864 -0.1068941397559994 118 87 74
0.1790866686573976 0.14527963517662137 -0.10945229958708447 112 78 64
0.18131720686336644 0.14546281776001332 -0.1121898021721679 117 88 75
0.1820108993916626 0.14559777124623943 -0.11499652580662079 167 144 132
0.1826214669639171 0.1457300886732874 -0.11780630538569926 134 108 95
0.18959635155559004 0.1460603710059089 -0.1202853175987281 130 100 83
0.19503104802668567 0.14634202503136182 -0.12282632170819524 106 70 48
0.19809942607493605 0.14654972815732042 -0.12548164511661875 90 47 23
0.20038691124422897 0.1467329460118063 -0.12817265749436332 83 42 18
0.19482088966834077 0.14667349660458687 -0.13131244214061769 77 39 16
0.19751316205737635 0.14686918415196723 -0.1339793730452509 74 38 17
0.19728653173405356 0.14697483462254676 -0.136816978773327 78 42 23
0.20321631311303082 0.14726947385206793 -0.1392717079888543 74 39 21
0.20459792002887645 0.1474241381947934 -0.14200037888678657 70 38 22
0.20515716143382928 0.1475535373157557 -0.14477968373428846 66 38 23
0.2015490634063692 0.1475557818059056 -0.1478375647778388 66 41 29
0.201399240255017 0.14766378830738675 -0.15067034896803677 66 44 32
0.19408360722917523 0.14755412739682083 -0.15400664937896 65 45 35
0.14245110912058456 0.14960731227075694 -0.24844147015171963 53 35 25
0.1429817092630915 0.14973988225229373 -0.2513241077435717 52 34 24
0.15001118911168332 0.15005679137464709 -0.253422383105009 52 33 24
0.14858856489748534 0.15013362304813993 -0.25653234491462923 51 33 24
0.15087805097771564 0.1504326509662908 -0.262125503755321 52 33 22
0.15484173909024873 0.1506612909928535 -0.26456098217922713 54 34 23
0.15461630392391648 0.15077193227512425 -0.26752273280734157 55 35 25
0.15315674800783446 0.15084808690703788 -0.2706464422882808 57 37 27
0.14228774729769958 0.15066157994235682 -0.27501198403821453 53 33 22
0.14077506283458704 0.1507372735632588 -0.2781683321942075 49 29 18
0.14056082970034633 0.15084931071792684 -0.28115576374855095 50 30 19
0.14115058830488375 0.15098372861479425 -0.284035521448492 51 31 20
0.14246090914699433 0.1511380683120369 -0.2868153556164576 45 25 14
0.14020414831612302 0.15119372896138897 -0.2900884013838064 41 21 11
0.14241576702327807 0.15137289460852052 -0.2927409229415269 46 26 16
0.14408301507114998 0.1515368545583495 -0.2954650441209932 49 28 18
0.14711517313950825 0.15173810945559907 -0.2979888168912587 44 23 15
0.1492531738773928 0.15191454605730106 -0.3006341539335651 64 46 40
0.15236523962001922 0.15211737224459837 -0.3031308493146044 60 46 37
0.15546831983680576 0.1523196098101346 -0.3056202607710558 68 49 39
0.15593309027668872 0.15244974854100193 -0.308496701610832 50 25 11
0.1573118709197303 0.1526046731214988 -0.31123424888387813 51 23 9
0.14528452174262158 0.15239650961184104 -0.31602041487432403 50 23 11
0.1574085595808979 0.15284225703310747 -0.31711097034259256 52 26 13
0.15053443575902853 0.1527745387889175 -0.321131642660167 54 28 15
0.1421540738614862 0.15266721242376013 -0.3254122349166531 53 29 15
0.13987309255004252 0.15272458984112708 -0.32874847596288104 59 35 22
0.1435209545716962 0.15294097345951763 -0.3311393763337831 54 30 20
0.1391349684650078 0.15294242253306112 -0.33482444390482397 30 12 5
0.13772138940049647 0.15302364309295138 -0.3380369275284266 23 10 5
0.1337637014029847 0.1530374619322158 -0.34167584918213567 34 18 8
