ply
format ascii 1.0
element vertex 691
property float x
property float y
property float z
property uchar diffuse_red
property uchar diffuse_green
property uchar diffuse_blue
end_header
0.0628921014189358 0.2932719021542741 -0.9731928507193418 90 70 63
0.06628553255168054 0.29603247473901034 -0.9742571324338279 89 69 62
0.08491359923461991 0.3104905429838509 -0.9656399038739214 90 70 63
0.10103912758786122 0.32302351554100894 -0.9585384235503521 90 70 63
0.09281635453256643 0.3168620199030847 -0.9669247753000616 90 70 63
0.0940577504692167 0.3179665575753653 -0.9692807453745054 91 71 64
0.09132908691301954 0.31602404360940484 -0.9741856180241503 90 70 63
0.10418833052445345 0.3260435967187736 -0.9690457226769835 90 70 63
0.09689152670276334 0.3205957889544926 -0.976899887607491 89 69 62
0.09558406959392837 0.319744254639556 -0.9808963030404305 89 69 62
0.10076644708028742 0.3238710599144233 -0.980670794285989 88 69 62
0.10466631038751997 0.3270132381905095 -0.9812627294717036 89 71 63
0.10854595250345335 0.3301391647292702 -0.9818524426689772 90 72 63
0.09133566489462674 0.31709379928099896 -0.9963023788101983 90 72 62
0.08417066861803416 0.311753129543638 -1.0041960532332554 89 71 61
0.09379472960433533 0.31928343240678625 -1.0010039675060438 89 71 61
0.09438602241092577 0.3198887793924337 -1.0037725151719863 85 67 56
0.0967709860243712 0.32186860759824754 -1.0053442784086384 84 64 53
0.10034737910951336 0.32476091014539665 -1.0061104452545389 83 60 49
0.10268039284699505 0.3266999429263517 -1.0076963749697305 82 56 42
0.10587135074048493 0.32929575759294455 -1.0086962208510295 78 48 32
0.10681359026448277 0.3301686217812162 -1.0112012801919488 77 44 25
0.10842005342746318 0.3315500211825944 -1.0132536751356105 75 40 21
0.10957871105486404 0.3325882491541593 -1.0156044375327675 74 37 17
0.1142043796629552 0.3362806930091274 -1.0155891924654334 71 30 9
0.11509296506028448 0.3371114484499441 -1.0181094024160724 70 29 7
0.14089402602722997 0.35701037447229567 -1.0035473927607887 74 34 9
0.13444007506409844 0.3522190005203684 -1.011058579968302 75 35 10
0.1347469409669695 0.35260242274681897 -1.0139344257279828 76 34 9
0.1336599641254856 0.3519193980418044 -1.0177745196725954 76 34 9
0.13310574270578754 0.3516442055875814 -1.021250509594822 80 38 13
0.13559269092716905 0.35369536300611426 -1.0226125068681309 85 43 16
0.13735478315118801 0.355191693084736 -1.0244711592805806 89 50 21
0.13714517749155614 0.3551799683888573 -1.0277045465892953 96 57 31
0.13693537115503485 0.3551681838563833 -1.0309400195715033 98 63 35
0.1366435888685354 0.3550938234743003 -1.0342352153903112 100 66 39
0.1365260764717139 0.3551527828084846 -1.0374095119297793 104 70 43
0.1363053712122374 0.35513294858132455 -1.0406585335067908 107 73 46
0.1366788807900594 0.3555672963040184 -1.0434869370623312 105 71 44
0.1368453409781304 0.3558434164481404 -1.046462493219224 108 74 46
0.13635543010507856 0.35561810393352716 -1.0499080202980398 115 81 53
0.13533446040245295 0.35498728390643697 -1.0537378080812916 115 81 53
0.13518435752730318 0.3550218633070529 -1.056946190967224 110 76 49
0.1350501725431318 0.3550686803564849 -1.0601447808879396 104 71 44
0.1351464402598097 0.35529154018380726 -1.0631781378789584 98 66 41
0.13373164148567332 0.35436079835528733 -1.0673094991179404 97 66 43
0.13241817349088472 0.3535077507747533 -1.0713741839965643 96 67 46
0.13199929956639184 0.3533378238382029 -1.0747920575488015 90 63 44
0.1277497707278218 0.3502446858611693 -1.081019344350537 76 50 34
0.12777959035235936 0.35041780252786553 -1.084121464078895 68 43 29
0.1219596839245594 0.34612797961401887 -1.091535497391352 50 26 15
0.1241329901779797 0.3479369196195846 -1.0930678067128214 44 19 13
0.1264435756524825 0.3498501684943859 -1.094490079859494 55 27 18
0.12882622036558972 0.351817944771579 -1.095849911532549 63 31 19
0.1317005693602023 0.3541602156808573 -1.096833962746492 68 32 18
0.1250757071242507 0.34925954040755525 -1.104909356137376 75 36 15
0.13305327501540018 0.3554919813457372 -1.1020645252412262 85 41 13
0.13300542417201366 0.3556057324700235 -1.1052216467318692 90 45 15
0.13234901009027855 0.3552557524205415 -1.1088390004610345 97 56 22
0.138316322131157 0.3599532829405735 -1.1074505440459703 102 65 29
0.13865545200018534 0.36036149825612235 -1.1103063036817824 110 71 40
0.13899446179061636 0.3607696028199086 -1.1131617541645236 113 77 49
0.14004164910714342 0.3617171035085223 -1.1154766077273057 113 78 48
0.14013905486611958 0.3619410924490261 -1.1185145457374932 111 76 46
0.13273795884163853 0.35645509819989823 -1.1273053484986926 113 80 49
0.13324592476084773 0.35699252222079103 -1.1300449338259742 115 81 53
0.12682333682068117 0.3522538043834892 -1.1381298786929746 113 79 51
0.12657710629297939 0.3522177652832517 -1.1414656372000167 107 76 47
0.1270835576087118 0.3527546736909494 -1.144219634430257 103 74 47
0.126819969505492 0.35270555370785217 -1.1475715481881148 98 73 49
0.12705347059925565 0.3530347571912393 -1.1505379054121427 89 68 50
0.1184558598842315 0.34664561740142685 -1.160412480026613 77 60 44
0.1256560650706437 0.3522750032768822 -1.1579332897674637 92 78 64
0.13741627853429633 0.3613710561838195 -1.1518371699044556 124 115 104
0.14047923947998192 0.36385091644381673 -1.1525511209059114 158 152 147
0.1117465106398413 0.34215459759467914 -1.1784006079678584 176 172 170
0.13923732125140562 0.3632075662864605 -1.1597857198719925 187 183 182
0.13985839981812298 0.36383027677042273 -1.1624209288800975 190 189 187
0.14085729953963974 0.3647400639876637 -1.1647532306610002 192 191 189
0.13305884594819112 0.35896437277365967 -1.174116575630402 195 194 192
0.08456072284356594 0.32226595389688295 -1.2161464140982137 197 196 194
0.13793875316828613 0.3629745810086531 -1.1764860235086572 198 197 195
0.1381634935845536 0.3632962981788578 -1.1794421647716273 200 199 197
0.14115658749650795 0.3657206010289707 -1.180160792405621 201 200 198
0.20289215836803942 0.41275344340451525 -1.1332592555328964 201 200 198
0.20037214093981326 0.41098436083389384 -1.1383063720310527 202 202 200
-0.08379444648640799 0.1187261506851422 0.13525814706528608 184 184 186
-0.00977547558983137 0.17847076167298342 0.1255650298511485 184 184 185
-0.002623667347948444 0.184371623665319 0.12195209799643555 183 184 184
0.004140940644448532 0.18995956720386242 0.11839798331228854 184 181 180
-0.005065794107729435 0.18269171294933267 0.11619432270227023 147 134 128
0.001859425542787313 0.18840800271179814 0.11264613294477317 130 103 89
0.005674854536569518 0.1916207174634153 0.10936953315462142 128 98 80
0.008954990119726655 0.19440210013059023 0.10614776999783683 122 91 74
0.019620396893981512 0.20312434734750723 0.10237989650998552 128 95 78
0.024061055092344782 0.2068374989096291 0.09910944852695171 137 106 88
0.027118697810977976 0.2094375145583477 0.09595399166337439 148 119 100
0.029670166324657063 0.2116299453331445 0.09284447575018859 143 114 94
0.030654383105996733 0.21256168042116888 0.08985014323913602 132 102 83
0.030763976317281103 0.21279004746450902 0.08691637055025628 122 90 71
0.033759975797987396 0.21533897300382926 0.08379683484601178 109 77 57
0.03533438670405005 0.21674464022920759 0.08077622504016506 101 68 48
0.04015082307990252 0.22075591505918277 0.07756480444558198 94 59 40
0.046006823721477255 0.22560184070335737 0.07430981829804459 80 43 24
0.04717306429116458 0.22667810395797927 0.07134157910102534 81 43 24
0.04570986488692465 0.225641445684935 0.06852073755924787 78 40 21
0.04018447313057555 0.2213414939987372 0.06590809079325051 67 30 11
0.03896756183895703 0.22050367110944985 0.06305409375878179 62 25 6
0.046249625266553115 0.22649272782661584 0.059777608047643926 67 30 6
0.05047198566258139 0.23002314683531894 0.05667206668699326 91 56 31
0.05276093551151732 0.23200022558992872 0.05366911428714738 123 89 68
0.055851323789969334 0.23462045298469314 0.050639137166209096 113 77 55
0.06001907401887406 0.2381051399148143 0.04757524679820512 115 74 54
0.061508698249959845 0.23943918376193485 0.04463225437183922 123 87 69
0.06660433465497641 0.24366748721459816 0.041558057558881895 150 122 108
0.06507424807267208 0.24257715326178148 0.03873945467433644 164 140 131
0.0652245065325874 0.24283562115789803 0.035857160078295314 146 120 112
0.07243372239718322 0.24875828863962685 0.03274859451803032 141 114 103
0.07558755213004446 0.25142597260902966 0.02978856694877835 140 115 100
0.07362038946885224 0.24998491945231938 0.026984050491752582 116 89 70
0.08214247624418208 0.25695809084924437 0.023895184441185803 90 59 37
0.08604165451816499 0.2602219661127372 0.020950621833942962 84 48 24
0.0905446648148208 0.26396942139530694 0.018006374277052026 80 43 17
0.09019594171230963 0.26382566715169387 0.01517831902043009 73 35 11
0.09335122628116889 0.2664914400413935 0.012282481888893568 68 30 8
0.09096164427393448 0.26471146042929855 0.00949091442411159 67 29 8
0.09189914452575605 0.2655989193835928 0.006639767579751821 68 30 10
0.09348241439122029 0.26700383513152576 0.0037828859903152427 69 32 12
0.09397469650015314 0.2675341786477719 0.0009432264924701811 68 31 12
0.09156776858592108 0.26574128885147186 -0.001868826829265452 64 28 9
0.09046066923906639 0.2649903385765076 -0.004700429056416031 61 26 7
0.08693305676666509 0.26230047737462003 -0.007524146141529978 58 24 7
0.08626811450190913 0.26190442717065077 -0.010372163700282773 56 24 7
0.08213382555555782 0.25872976272116294 -0.013218206517724224 55 25 9
0.07658640517264684 0.25442417708421133 -0.016081425373613255 57 29 16
0.06829347013694287 0.24792112721364098 -0.018972919047657424 60 33 22
0.07742799999269984 0.25537341778387446 -0.021824482643519782 62 35 26
0.07918505641043627 0.2569177792057918 -0.024686873838491198 62 37 27
0.08131629632361649 0.25876139499518025 -0.027540489577351245 56 33 25
0.08959293968757577 0.26552346320433784 -0.030326096077619158 43 21 14
0.08676085497291329 0.26339361909688574 -0.03321209966533466 37 16 10
0.08245638300687064 0.2600861047757551 -0.036130044247843496 31 14 9
0.08320718709973525 0.26082429139317254 -0.038986372356463114 26 13 8
0.07508515048280785 0.2544637900503279 -0.04199638708235379 17 9 6
0.08970909684075347 0.26630034820774245 -0.04459589691661095 12 7 5
0.07860126039619052 0.2575526285049432 -0.047690207506446904 11 6 5
0.06865030047227039 0.24973221654331487 -0.050801045755876365 12 5 5
0.04815343253601881 0.2334804380314045 -0.05421669431628055 11 5 5
0.04217711116948869 0.22884276973087936 -0.057318089616368806 12 6 6
0.059275000650836795 0.2426537423651584 -0.0597734231678135 12 6 6
0.05727391368150475 0.24119401802987422 -0.06275526459531891 14 6 7
0.0601969516392384 0.24367056809376184 -0.0655838719384838 13 7 6
0.06610525136901345 0.24853247602450318 -0.06829835296530805 16 8 6
0.07140176781223909 0.25290445519578825 -0.07101355058264155 27 11 10
0.07617509586289181 0.2568574635848946 -0.07372955604844006 61 43 36
0.0772493485702268 0.2578543221017191 -0.0765781504892563 84 67 57
0.07835984009870518 0.25887997655050776 -0.07942201023487389 82 60 48
0.0782444619573129 0.25892630829117824 -0.08231695130045322 65 36 21
0.0764771887370489 0.2576534077381111 -0.08528977317037734 73 41 24
0.07346216534090594 0.2553844677211583 -0.08833051231008252 75 40 22
0.0701878513735828 0.25290909185803023 -0.09139679183548644 75 39 20
0.07688928330385189 0.2583988088615885 -0.09395702288720113 78 46 29
0.08341095020901794 0.26374383003651747 -0.0965021011562555 76 49 39
0.08841642500041144 0.2678774734525339 -0.0991078069696058 71 39 28
0.09131644667229272 0.2703298668952754 -0.10181698603532705 69 34 22
0.09791848410930648 0.2757360208485927 -0.10429457903345851 65 31 18
0.10237756826702481 0.2794310958916969 -0.10687990363576336 80 46 32
0.10614728155680561 0.28257539256194664 -0.10949283123545203 85 51 38
0.10972405062450026 0.28556511825954334 -0.11210479057043934 93 59 47
0.10883468770559503 0.2849918523571253 -0.11500534235590526 142 117 105
0.10914125208359896 0.28537260611932275 -0.11782720858997844 151 126 115
0.10953193056154123 0.2858204245518306 -0.12064280713180128 135 106 93
0.11775325182823557 0.2925120904080585 -0.12288387460965665 109 75 56
0.12337581341396794 0.29713036020673156 -0.12528959097249892 81 37 13
0.1226861116877365 0.2967156274079177 -0.12816153600260738 79 35 9
0.12490719356561922 0.2986212125523796 -0.13080684018120675 76 35 12
0.1271514265056114 0.300544881009964 -0.1334425908294415 74 35 12
0.12369309587670296 0.29792379739004216 -0.1365436537015323 72 34 13
0.11981920538131835 0.29497227716751406 -0.13969428931072053 72 35 16
0.1180427629108733 0.29369258914260465 -0.142678712376753 69 37 22
0.11695530789111708 0.2929621378631597 -0.14560977139163847 64 39 29
0.11581271621986729 0.2921880144213961 -0.14855096132529175 63 41 32
0.11597129380693125 0.29245044681859156 -0.15137695575329085 64 44 35
0.12008949720019031 0.29586611947055724 -0.15382875766365345 65 45 37
0.1249663668395764 0.2998851600496254 -0.1561922865680908 65 45 37
0.12855282316058741 0.30287596456266996 -0.15866486761484153 66 46 37
0.12240622950919108 0.29811800050457543 -0.16210161851630783 65 45 37
0.11782011499492549 0.2946033220229155 -0.16540344338632001 65 45 37
0.11380427422018971 0.29154341000259865 -0.1686645240235571 64 45 36
0.10099779446624237 0.2821786035820527 -0.18726936628320537 62 43 36
0.09657649056854635 0.2788007527437545 -0.1906720735534978 61 42 35
0.09508538963783014 0.27775367594777967 -0.19374179485315773 62 42 35
0.09581319033143941 0.2784710397983378 -0.19654804563750308 63 42 35
0.09128940143269364 0.2750135746900706 -0.2000021599366734 63 42 35
0.09013002853042103 0.27423121935965505 -0.2030520193558422 63 42 36
0.08790309673591773 0.27260067184842235 -0.20624358560228398 62 44 34
0.08551963867283278 0.2708461993620437 -0.20946505993583406 62 44 34
0.08594385180875788 0.271323119902396 -0.2123275035432091 62 44 34
0.08686872757728765 0.2721977731976438 -0.21512241477340668 62 44 34
0.08718778370537655 0.2725910437684714 -0.21799670747111888 62 44 35
0.08676712092499 0.2723967462720901 -0.22097232264204295 62 44 35
0.08365625863756736 0.2700660171375672 -0.22432535254840744 63 44 36
0.08280560342287169 0.2695307602166538 -0.22737215595447077 64 44 35
0.0871057628456484 0.27308551948524074 -0.2296854500913488 64 44 35
0.08637888001300434 0.27264845521858694 -0.2327127685047893 64 44 35
0.08907830932099522 0.27493146544940134 -0.23523971047759598 64 44 35
0.08025870015413741 0.26807099242977644 -0.23947455605969478 64 44 34
0.07408259794584612 0.26430115037337 -0.2640232199351005 68 41 28
0.07662636841162576 0.2664598196000094 -0.2665568927853463 69 41 29
0.07916679681411085 0.2686154070353855 -0.26908211026829326 69 41 28
0.0764496579184909 0.2666028975056163 -0.2724955623434195 69 40 26
0.07991374569915137 0.2694902122137211 -0.27485363424623116 67 39 25
0.07832017222542598 0.2683686729742414 -0.2780820556452993 67 38 24
0.07541405173751667 0.26620739663449783 -0.2815494308830552 67 38 24
0.0731093383688291 0.2645232218789757 -0.28492183198170895 67 38 24
0.07093574732548258 0.26294340640913644 -0.2882805955780977 69 40 25
0.06783468117649007 0.2606293630437085 -0.29181809210195264 64 34 20
0.059266214680835066 0.25398555610924545 -0.29637703239600127 64 32 15
0.05430998874498229 0.250204106959869 -0.30029740723242376 75 44 24
0.04734827287567654 0.24483559174861 -0.3046160112021904 63 36 21
0.040633190996534924 0.2396637115042491 -0.308916075208699 88 67 60
0.0337307760907455 0.23434484199693473 -0.31327960362178925 83 65 61
0.062051825240166905 0.2569090632597243 -0.31082876069821674 81 58 51
0.06574607654557624 0.2599765419688225 -0.31309984694288817 82 51 34
0.07233854226159576 0.26533695327311985 -0.3147829037425734 80 42 20
0.07671760139248344 0.2689447324160473 -0.3168840034519283 82 45 21
0.08016218688207108 0.27181238459655493 -0.31915769918520764 87 51 24
0.07597931754772447 0.26864539337514887 -0.3229757125884837 85 49 25
0.07359483223123038 0.26690176183762515 -0.32644056805812754 84 51 26
0.06139272366997199 0.2573938177475095 -0.3319585978107943 80 50 31
-0.018974129319925107 0.19398282545997966 -0.3518437392175788 65 39 27
-0.012629335235640561 0.199151384476299 -0.35366247503321585 37 18 9
-0.006382685263382849 0.20424119601299845 -0.3554781616580383 46 27 17
0.0056761546278272235 0.21392456259408665 -0.35601485753251144 71 48 35
0.043950390012943874 0.24432716928420017 -0.3507910168061106 66 42 29
0.0468287521781209 0.24674790498647836 -0.3532015705471529 65 42 28
0.04627292829842172 0.24645430454940648 -0.3563638264956769 63 40 27
0.045121913233038546 0.24569056872396178 -0.35966253941077314 62 39 29
0.05271061535496746 0.2518319309072608 -0.3609927030010169 60 39 27
0.0499907455680851 0.2498285697783084 -0.3646426889556812 59 39 33
0.0472604203076237 0.247817514535575 -0.3683068523981574 40 22 18
0.05475490057389566 0.2538822409618481 -0.3696124841430316 63 46 42
0.058260133417245015 0.256795393175293 -0.3718220977910069 72 56 48
0.06338623919109793 0.26098773030141587 -0.3736366065227847 77 59 48
0.06534052720679809 0.26267504716691936 -0.3761859400937343 66 42 29
0.06881142557978442 0.2655592315396461 -0.3783648765258638 62 34 21
0.06623595847801383 0.2636704574058517 -0.38199270672129887 64 35 22
0.06800063032919403 0.26520744261366547 -0.38457391507351407 69 42 29
0.07042876965627654 0.26726768190260236 -0.3869860683824632 73 48 35
0.07445537416141243 0.2705887041276042 -0.38899359897593877 65 39 25
0.07917448113783127 0.27445532856696153 -0.39081318346786165 65 38 26
0.08813704966569344 0.2816684072355779 -0.3915469499250037 67 39 28
0.08488281949271823 0.27924419226070435 -0.3953451524525801 56 32 21
0.08867988853125168 0.2823814716506102 -0.39735449463331796 58 30 19
0.09311933504924066 0.28602460648123984 -0.39918417840322307 56 26 12
0.09428432447995483 0.28708524874461616 -0.40184736867026577 66 36 22
0.09473481170785857 0.2875824459035655 -0.4046938348087003 96 72 59
0.09106432089485568 0.28483127352264015 -0.40862592023524036 99 79 67
0.09147712392871023 0.28529908490509626 -0.4114889674987903 103 77 63
0.0930118172425909 0.28665097134609624 -0.4140510981324184 84 51 31
0.09601672212877395 0.2891610727898243 -0.41621168213890275 78 39 15
0.0977755236976663 0.2906888910748552 -0.41869970951918517 79 36 11
0.10454694549940222 0.29616518347940346 -0.41981017145675836 78 36 11
0.10416535054003712 0.2960060187273462 -0.42286600273770436 79 36 10
0.10506397736592182 0.2968552416216156 -0.42556892907339683 78 35 8
0.10672555480367167 0.29830514512519607 -0.42805590851330816 83 46 22
0.10506461683937673 0.29713868989257275 -0.43147285306519606 87 55 32
0.09743714197411502 0.2912752310482748 -0.4365895507395592 88 59 36
0.00593995770813454 0.21939190905378764 -0.46569138899360535 88 63 41
0.01304963660146622 0.22513903449344003 -0.4668004058081725 94 72 56
0.014658711338060008 0.2265558817809085 -0.46947501767168337 106 86 74
0.01425801749403445 0.226390979025122 -0.47273028912355874 102 82 71
0.016237272611495115 0.22809876063962484 -0.4752894127751398 82 62 52
0.014964006215770327 0.2272474208051969 -0.4788031408293999 85 65 54
0.014090270808787747 0.2267106516885234 -0.48220409681696813 78 59 47
0.013762295669374126 0.22660335018762984 -0.48544606629834364 79 60 46
0.013683342328495919 0.2266919974828457 -0.48861527363766855 79 60 46
0.01712490294671739 0.22954897944493324 -0.490716868304917 79 58 43
0.01688366829517946 0.2295098275049119 -0.49393131695278963 87 66 52
0.01664223174008604 0.22947061285675124 -0.4971478312251135 87 66 52
0.016612819266609354 0.2295981530479725 -0.5003006949795175 90 69 54
0.01634220076678026 0.2295361749625476 -0.5035298900732302 89 67 51
0.017331878114505483 0.2304646949281684 -0.5063658789916852 88 65 49
0.016957627648898327 0.23032137049483536 -0.5096295061015164 93 67 52
0.020535264260519097 0.23328297403711495 -0.5116401527348416 95 71 56
0.019662761223631996 0.23274810751126218 -0.5150602145040353 93 68 53
0.017405301231165488 0.23112563245510387 -0.5189304008237835 92 67 52
0.01625411807895962 0.2303724706927234 -0.5224525678165307 95 71 56
0.015105777189747469 0.2296218128493831 -0.5259794843941019 91 68 54
0.013988617522101891 0.22889590911358074 -0.5295018476124149 90 67 53
0.012537005048785146 0.22790770132353297 -0.5331400513378655 94 71 57
0.011851253829536404 0.22752100668539463 -0.5365310390298534 96 73 56
0.011611722251913016 0.22748472323558758 -0.5397768823106536 104 81 63
0.011105768490065872 0.22723945266954998 -0.5431142102517738 105 81 64
0.010599336697084197 0.22699395498251645 -0.5464547876093606 107 81 65
0.010727531007635072 0.22724652630495332 -0.5495827678824544 110 86 68
0.010584930824473801 0.22728668677629693 -0.5528038593029859 111 87 70
0.008986425444821346 0.22618491921507575 -0.5565272690807669 111 87 70
0.008972676940292336 0.2263264346155036 -0.5597099783436045 114 89 71
0.009029113430329104 0.22652304224700914 -0.5628693731172584 114 89 71
0.012072903017532242 0.22906208845515327 -0.5649841111661005 112 87 69
0.011547424377448226 0.22880225916764546 -0.5683439396470913 117 92 75
0.011382538840417789 0.22882525511861834 -0.5715792893352413 118 94 75
0.010743144250785937 0.22847640640343278 -0.5749853003594941 118 93 75
0.01148489905494339 0.2292101628936951 -0.5779004147585803 118 94 77
0.009719452802706474 0.2279791321874442 -0.5817163877282716 114 90 73
0.01010722519621398 0.22843559152889062 -0.5847608582623849 118 93 77
0.008167211596072164 0.2270683777216799 -0.5886524488823007 120 96 79
0.005429053070446936 0.22507638130857957 -0.5928452123179498 120 96 79
0.002910752934774642 0.22325716775697083 -0.5969691859001462 119 94 78
0.002525729499726931 0.2231091373350047 -0.6003146484689407 120 95 79
0.0033735215661135215 0.22392657323956092 -0.6032038177287861 123 98 82
0.002673610271748568 0.22353213607674147 -0.6066698825667386 129 104 88
0.0007547545676977185 0.22218364415067962 -0.6105985534194124 130 105 90
1.2528066561573459e-05 0.2217565778614281 -0.6140909132410953 129 103 88
-0.000755763623008561 0.22130930725338321 -0.6175972680719525 126 100 85
-0.001524805910952845 0.22086164999000474 -0.6211080984105715 132 106 90
5.986790764115485e-05 0.22225586654877516 -0.6237182616549551 135 109 93
0.004741686433442076 0.2260728945030672 -0.6251260843567817 137 111 95
0.003746777273026365 0.2254483933050302 -0.628721375006736 137 111 95
0.003537929262296423 0.22543896338262498 -0.6320147893563156 136 110 94
0.004450672859262733 0.2263067808210752 -0.6348698073177762 137 110 93
0.004532173884881967 0.22652446809266016 -0.6380501946022786 138 111 93
0.0050419060275893185 0.22707701075582776 -0.6410614574797884 132 106 87
0.005427215912087495 0.22753223535086672 -0.6441213154888437 132 105 86
0.006038222456806935 0.2281638567007855 -0.6470902265704767 135 107 89
0.0006589710138426436 0.22411357432664947 -0.6524703919517153 132 104 85
0.0009037202393072999 0.22445942293685406 -0.655596935537192 128 101 81
0.006464293994479425 0.2289589507277488 -0.6565608222024922 128 99 80
0.007451958000480846 0.22988471193224108 -0.6593728912369027 124 94 74
0.008442468051341578 0.2308125543415065 -0.6621808260322638 121 90 67
0.009214485922002934 0.23156959289845605 -0.6650760143811099 119 88 63
0.00941955944616879 0.23188375478583628 -0.6682044073712616 118 85 63
0.009998021857889068 0.23248950333119228 -0.6711773048085153 116 83 62
0.010734630999649268 0.2332186694335098 -0.6740826255416479 112 81 59
0.008001363577364244 0.23123883068348672 -0.678447340274801 108 77 55
0.008894437484800413 0.2320902863630197 -0.6812896554870085 107 75 53
0.00978693860994246 0.23294117114157387 -0.6841296300292375 105 74 51
0.009261711212800477 0.23268553718413562 -0.6875728022444647 103 72 50
0.01196933268965357 0.23495265472154137 -0.6896312129657963 102 71 50
0.013973418307294441 0.2366703909091489 -0.6919830975620451 100 68 48
0.012633931067085977 0.23577944624394392 -0.6957770626775635 97 65 45
0.014550780001951542 0.23742878086096794 -0.6981595017257628 96 65 44
0.016297464870532283 0.23894507762889755 -0.7006096033410126 95 65 43
0.018238785942864447 0.24061286159907347 -0.7029680495942069 94 63 42
0.017979300207878503 0.24056431951264465 -0.7062915623801926 93 63 42
0.01831732062289381 0.24098170365933197 -0.7093521005430694 92 61 40
0.02005187809179034 0.242487694451402 -0.7117898194481146 91 60 39
0.021783409522767264 0.24399103648278148 -0.7142228375846124 90 60 39
0.023505399130405502 0.24548665263138866 -0.7166541017368894 92 61 41
0.028160896288606338 0.24926782794617908 -0.7177536728706819 90 60 40
0.02950247324625877 0.2504661912384492 -0.7203395764327524 89 58 38
0.027155977099870242 0.24879124844676348 -0.7246028747165038 88 57 37
0.02891625033180205 0.25031568107201935 -0.7269956609332637 88 57 37
0.04736639439745764 0.2648383138708311 -0.7217026029732909 87 56 36
0.04031177668425899 0.2594961156303158 -0.7281228922169135 85 56 35
0.03011444946422573 0.2517083586731656 -0.7360323228830158 84 55 35
0.03252242914711029 0.25373626755396084 -0.7381067494518 83 54 35
0.03384460310382374 0.2549185275405753 -0.7406808865196952 82 54 36
0.029923516728590505 0.25201958123557533 -0.7457172815046854 82 55 38
0.02605966136513073 0.24916600015397192 -0.7507438739347551 82 55 38
0.026456592137037396 0.24962869719989894 -0.75376545316472 83 56 39
0.025092266359843435 0.24872104758204064 -0.7576259339609674 82 55 38
0.021528691984780468 0.24610284414711625 -0.7625458883074935 81 54 37
0.02327372363530389 0.24761462915399557 -0.7649294725915331 84 57 40
0.02404258605994255 0.2483669160966254 -0.7677782433169209 83 57 40
0.026655252663207007 0.25055291680891884 -0.7697308673011602 82 55 38
0.029829888692213168 0.2531754052522788 -0.7714001099198406 81 54 38
0.01919614246719483 0.24506211255683036 -0.7798099674965301 83 57 41
0.0303735632948196 0.2539057144269628 -0.7775535281671982 87 61 46
0.03470546843523502 0.2574265237082495 -0.778627878596179 86 60 45
0.03543411328806771 0.258146274461392 -0.7814698287432695 92 66 51
0.045025178085099676 0.26575242519945946 -0.7799025050192732 83 57 41
0.04497202584227737 0.2658636962724449 -0.7831126166818843 86 60 46
0.04704892576641688 0.26762975099320335 -0.7852559025129721 91 66 53
0.054562479969699734 0.2736183460658284 -0.7846541732908902 87 62 48
0.05092300736291251 0.270943533365277 -0.7896612640775527 95 70 56
0.04696483152754734 0.2680220067605372 -0.7948463086060482 82 58 45
0.03716764678860912 0.2605676300582117 -0.8030252398666172 89 67 55
0.03520508399837074 0.2591976526350939 -0.8072359962471286 96 76 64
0.029254905933621317 0.2547327337549484 -0.8135051935601874 95 74 61
0.01716681548404355 0.2455051117645678 -0.8229671758386857 90 69 58
0.025986739097182514 0.2525056168286914 -0.8216490724253895 91 68 59
0.04527369088288059 0.26762631384503166 -0.8148512016078103 90 67 58
0.062112027862561175 0.2808434594950484 -0.8092529046998366 89 66 57
0.06448224376676877 0.28283363654496696 -0.8111710883391778 84 63 53
0.06750825229508463 0.28533205837651776 -0.8127352824908567 82 62 52
0.06772122511129977 0.2856482723141481 -0.8157744850238189 89 69 60
0.07110141453142102 0.2884205191684226 -0.8171335545264998 94 73 64
0.06644950925262659 0.2849644390189744 -0.8227575983461349 93 72 63
0.0686962576837283 0.2868575365445678 -0.8247133987329631 93 72 63
0.06559297974613278 0.284603149310528 -0.8295326803002948 96 75 66
0.07112262961289631 0.2890404067768358 -0.82971398279895 97 76 68
0.06984089379587859 0.2881981078014871 -0.833557900735239 95 74 64
0.0687456335501977 0.2875006069158428 -0.8373069613130565 95 73 61
0.05742222979091424 0.2788790931400286 -0.84663723988087 96 74 61
0.0409613462680332 0.26628013280445934 -0.8588271295797513 97 73 61
0.03788109004313976 0.26404851896457904 -0.8637368854453631 95 68 53
0.0196669011952997 0.2500970603650261 -0.8770052349899063 90 60 38
0.023323455750503604 0.2530849652479924 -0.8782458566558543 88 51 23
0.030072207839691237 0.25846633118101303 -0.8777543701315043 86 44 16
0.033775850606335485 0.26148901941438935 -0.8789338836519617 85 44 15
0.08449288098916259 0.30090181684697226 -0.8537833212916857 87 46 19
0.09196527252203004 0.3068352393888429 -0.852718221412518 97 54 23
0.0936761206906171 0.30830863577794315 -0.8548720253387108 97 57 27
0.0939279087239622 0.3086527899906908 -0.8578455827931857 103 67 39
0.08737983496229745 0.30373622701513747 -0.8646822847873141 104 73 46
0.08981387751462502 0.30576914671743727 -0.8664257179919094 106 74 49
0.08982158700350236 0.30592498137061186 -0.8695486243557932 106 75 51
0.08963600124907357 0.3059313802071892 -0.8727835819913801 106 75 54
0.09160665090166649 0.3076051731483978 -0.8747772876357147 100 73 51
0.09151881678880754 0.3076871073338593 -0.8779548269242456 92 65 46
0.08759613727100138 0.30480459153172135 -0.8833606951241341 88 62 44
0.08929980123579073 0.30627178095705376 -0.8855050401871944 91 64 47
0.08802955123741582 0.3054402995007058 -0.8893827368636373 92 65 46
0.0880056490271344 0.3055722343388905 -0.8925352167652386 86 59 38
0.08492053967445708 0.30333899833163985 -0.8974922270074701 85 55 34
0.0832060016987202 0.302165261695624 -0.9016529753158536 83 52 31
0.08639072103656319 0.30477632080743694 -0.9029152180295832 87 56 31
0.08079534369268487 0.30060554554753693 -0.9093929130433138 95 63 37
0.07821081797673911 0.2987610552030381 -0.9140961807160632 113 82 55
0.07302774434109933 0.29491069217557103 -0.9203695437784333 113 82 57
0.07220862366566637 0.2944305727482532 -0.9240398882406082 117 86 62
0.07268327907492672 0.2949493863993336 -0.9269335286998854 117 86 62
0.07298374187133387 0.29533370714127516 -0.9299317929958185 109 77 55
0.07929526436399302 0.30035697625088065 -0.9292748395019528 97 64 45
0.0777282764047941 0.2992996788051713 -0.9333994841710801 83 54 37
0.08076191160229547 0.30179229094247606 -0.9347149957053489 72 44 28
0.07695301657366883 0.2990057816993037 -0.9402226761692751 71 43 26
0.07870525693164354 0.30050957969286174 -0.9423191293317252 71 42 28
0.0830466563056742 0.304009915463886 -0.9428076027026179 77 50 38
0.08350560071679924 0.30451554525715113 -0.9456886964244485 79 55 43
0.08183288789848847 0.3033775638423388 -0.9498965703268781 83 62 51
0.08015582822584755 0.3022366214686668 -0.9541153018962449 86 67 57
-0.07487448648016651 0.1828873340225634 -1.0545027906410642 89 70 61
-0.05199154423215061 0.20069172618369524 -1.0436098320682785 90 70 63
-0.01631003254972591 0.22835441504200069 -1.024541705105923 91 71 64
-0.040576325327048385 0.20981880672707076 -1.0432946506597043 91 70 63
0.09764591145042581 0.31677407030268984 -0.9651755604199627 89 69 62
0.09950327032767464 0.31835520754338353 -0.9671291241790798 89 69 62
0.09647088813900163 0.3161708465621544 -0.9722248361407746 90 70 63
0.09783252152021343 0.3173701623934403 -0.9744954409931602 91 69 63
0.09911075505834946 0.31850505035593446 -0.9768153983262108 89 69 62
0.09720264848424141 0.31718717296768156 -0.9812032562644053 89 69 63
0.10122314863276584 0.32043243708781766 -0.9817319839857033 89 71 64
0.10462962481476218 0.32320443889764655 -0.9826466463047566 90 72 64
0.11150088964978307 0.32864162132979174 -0.9812724777148886 91 72 65
0.09741504937744877 0.3179551036025734 -0.9936778224102453 90 72 63
0.09297240768374339 0.31468906019294 -0.999770162871186 89 70 61
0.09664292805690201 0.31766379542375445 -1.0005025870519926 89 70 60
0.10173779627970361 0.3217331525367385 -1.0002729467234415 87 68 57
0.10534242740063633 0.3246556864596476 -1.001017220480907 84 64 53
0.10894565411092026 0.3275764564641969 -1.0017481571573361 82 59 48
0.1115863001557447 0.3297566154271534 -1.003111302188302 76 50 36
0.11328192379235329 0.3312099528609521 -1.005100969621959 76 46 29
0.1142007322963581 0.3320660230364457 -1.0076095074568905 77 44 25
0.12046476875001035 0.33702914568930264 -1.0064910678513426 77 41 20
0.11542563323433365 0.33330701413131225 -1.013034753000438 75 36 14
0.11427371285130876 0.33257204403366925 -1.0169488390664163 73 32 10
0.14077632309681876 0.35307818722853135 -1.001941868748779 69 29 5
0.1404841559560624 0.3530012308110987 -1.0052186288427725 71 33 7
0.13599288777709545 0.34970000783223404 -1.0113895167186437 75 35 9
0.13762432353778073 0.3511005869515659 -1.013350978152795 75 34 9
0.1380246556053482 0.3515558030300982 -1.0161596136897564 76 34 9
0.13694272900852972 0.3508732562453566 -1.0199978893326853 79 38 12
0.13625452475463745 0.3504931489509873 -1.0235673268410188 83 42 15
0.13572748624240158 0.3502369053778582 -1.027028045066902 86 46 18
0.13900062443202987 0.35289653761183953 -1.0278262244631529 89 49 22
0.13957835527522647 0.3534877515113908 -1.0305080584852815 91 52 26
0.1394855081482132 0.35356452825024287 -1.0336617547388787 93 57 31
0.13939251012154968 0.3536412586814997 -1.0368170064840125 94 58 32
0.1392994499749451 0.3537180109676181 -1.039973752390292 99 64 38
0.13923610709160988 0.3538176183613109 -1.0431107842948903 104 70 42
0.13984987849391456 0.3544363937595357 -1.0457654384336834 106 72 44
0.13922916779085054 0.3541088140005576 -1.0493030232325768 112 78 50
0.13877050571607985 0.3539056123977657 -1.052727868822401 109 75 47
0.1388519085649465 0.3541164257764512 -1.0557664618077467 102 69 42
0.1383387312227134 0.35387168714551287 -1.0592356070510005 100 67 42
0.13838829649959827 0.35405823772221656 -1.0622999739552372 97 66 41
0.1374012329881229 0.35345074492909356 -1.0661190593516519 95 65 42
0.13666967025842405 0.3530391998444723 -1.0697570857148284 93 65 44
0.1344171564481541 0.3514630826549545 -1.0745119459209542 89 61 42
0.13144661101328792 0.34933767210615796 -1.0798043635456 75 48 32
0.12995104310114058 0.34834218699157754 -1.084025279869974 68 42 28
0.12378708648716864 0.3437733634208882 -1.0916989185625505 56 31 20
0.12587662108554992 0.3455231408142992 -1.0932914057407883 47 22 16
0.12879974805622607 0.34791048948838277 -1.0942571930049738 57 29 20
0.13165194745941855 0.3502430121173505 -1.095264258746599 65 34 21
0.13401765726365583 0.35220278509968556 -1.096623316065956 68 33 18
0.1284986786557259 0.3481303829639422 -1.103876981457414 74 35 16
0.13572535317861234 0.353808200613286 -1.1015845936251556 85 41 15
0.1371024504747032 0.3550108945327536 -1.1036672609908191 90 44 13
0.13604654446384296 0.35435287688809675 -1.1075825314556211 93 49 15
0.14192145888558955 0.3589942967744994 -1.1062540917292973 102 62 26
0.14174293063106524 0.35900683593419913 -1.109499235087403 106 68 34
0.14123296076005087 0.3587661178989603 -1.1129986746335223 107 72 40
0.14160724107581413 0.3592013620182702 -1.1158259291935775 107 73 42
0.14235619429872107 0.35992289192096294 -1.1183656187782332 110 77 45
0.13526930026025155 0.3546572411114206 -1.1269225841937196 115 81 50
0.13502331665441744 0.354619284098759 -1.1302413295898552 115 80 53
0.13623326076183 0.3556935471770834 -1.1324374756682185 112 78 50
0.13252206298536018 0.35300908181575374 -1.1384417905081285 108 77 48
0.13442578485007556 0.354613257780753 -1.140101294991985 106 76 48
0.13284736715211864 0.3535583239840439 -1.1444662703115536 102 76 51
0.1322534610645667 0.3532553849069724 -1.148070075043682 95 73 53
0.12661672275481606 0.3491032449561058 -1.1556278342297048 76 59 43
0.13065747933132063 0.35233850339062933 -1.1556092596116418 83 69 55
0.13567538541854837 0.35631866397649214 -1.154804548885028 111 101 89
0.14173388862567798 0.36109183356633845 -1.1531572187536256 151 145 139
0.11656917684011592 0.34204297178805143 -1.1762143153146374 173 169 167
0.13902059209601955 0.35932175054055915 -1.1615650832575408 184 182 180
0.13885666000024185 0.35934690872742286 -1.1648296179934294 189 188 186
0.13827140319443076 0.3590508469463177 -1.1684323853625467 191 190 188
0.13426696703787772 0.35614782126462957 -1.1747765659621003 194 193 191
0.13739089801141385 0.3586803460819047 -1.175415933509822 196 195 193
0.13732491471645178 0.35878061444157827 -1.1786108830591258 198 197 195
0.13843214096241022 0.3597751581234855 -1.1808601340021676 199 198 196
0.14548607340055592 0.36530142904847684 -1.1782922736787793 200 199 197
0.21268899580121525 0.4168016726849132 -1.1298603126858853 202 202 200
0.2042369465686253 0.4105060876089283 -1.1397399510844228 202 202 200
0.20150826314727815 0.4085716290669689 -1.1449749918921497 202 202 201
-0.07713920635319396 0.12000900275724045 0.13472895525133163 183 183 186
-0.008565675730702396 0.1755367691673939 0.12552446837168138 184 184 185
0.0013621065963135837 0.1836962280796514 0.12166886056378415 183 184 183
0.008880488289478378 0.1899085908718849 0.11805433285481606 173 165 163
-0.001049288486376601 0.18203351526204858 0.11591634768495242 133 114 106
0.004886436515967416 0.18696727632845353 0.11245216742737973 130 99 86
0.008770439447678899 0.1902440015172649 0.1091720827110432 131 98 81
0.01294491896735539 0.19375450056236998 0.10588320883033364 133 100 83
0.02183760079265787 0.20107166427387269 0.10225282924296519 132 98 81
0.028657825766260192 0.2067150821434204 0.09880764903685689 145 114 96
0.03213289120698026 0.20965853025846273 0.09562725961724286 152 125 106
0.03471954918670153 0.21188473341887487 0.09252111228324142 143 115 96
0.03670642063929033 0.21362673122800127 0.08946456364915115 135 105 87
0.038069167136598095 0.21486505662436473 0.08645582761351445 124 93 74
0.042424000761373995 0.21851603938668535 0.08325924763757327 100 68 48
0.04210465557776494 0.21839738329379615 0.08036939373205469 88 54 35
0.05182768650390995 0.22637532226237134 0.07687075441917038 79 42 25
0.056353753989791935 0.23016205746668672 0.07371207319056036 73 35 16
0.05178128667576086 0.22661412488990973 0.07108480165396824 73 35 14
0.05041419584385716 0.22565047378662528 0.06826385948485185 74 36 16
0.04464728223121356 0.22114142133915288 0.06566930233815571 68 31 12
0.043143125812737465 0.22006830543267092 0.06283480288017726 64 28 8
0.05128175074408685 0.226764607437 0.05952067065906257 73 36 11
0.0551550830111017 0.23002336032566112 0.05643758848470502 93 59 33
0.060227741615308264 0.23424752638722313 0.053313976355406655 125 93 72
0.060917103901929406 0.23494042602562928 0.050398759587241285 115 78 58
0.06621889903922741 0.23934777146251993 0.04729395796538427 121 81 62
0.06308495440137318 0.23696141794079637 0.04454217045311802 120 88 72
0.06651986340541477 0.23986457555799173 0.041530088141326645 163 136 126
0.0691155109186117 0.24209150125480033 0.03856014913362083 163 138 129
0.07369420876796556 0.24591429029481643 0.035531966906679105 152 125 117
0.07945231303975378 0.2506855693716411 0.032482545530962484 148 121 109
0.07989003534369088 0.2511740817850882 0.029614109389187192 135 110 95
0.09779799618806953 0.26572076869907807 0.02625418214373127 111 83 66
0.09138321240552395 0.2606940702860514 0.023600507862946804 94 60 41
0.09610520548833781 0.2646282647590079 0.020650096401861974 85 49 26
0.09569339782052037 0.2644319002849036 0.01783209817406777 78 41 15
0.09656024247445759 0.2652641145177013 0.01498532780266492 72 34 10
0.09897473610763956 0.2673408971265348 0.012112067576152484 70 32 9
0.09465917223587572 0.2640053086280287 0.009359875736794244 70 32 11
0.095211752182265 0.2645848232403525 0.006518029286269222 71 34 15
0.09737173295398924 0.26645657983159193 0.0036565684786081278 70 34 14
0.09520156936698997 0.26484708269730634 0.0008502384653406719 67 32 12
0.09375773616562484 0.26382183822608374 -0.0019719117944528575 64 29 10
0.09075785054650101 0.26154630829266906 -0.004789238653997836 62 26 8
0.08898004987002808 0.260253440668213 -0.007625425261667103 59 25 8
0.08938921749590055 0.26071819804852475 -0.010476767871612752 56 25 8
0.08623227915054414 0.2583178369317976 -0.01332211902715984 55 27 11
0.08092853306398422 0.254193498289411 -0.016181329598686824 57 29 15
0.07743650824991122 0.2515254168425511 -0.019057520277884692 59 32 20
0.08000979398841597 0.25372936081193653 -0.021922306502448138 60 35 25
0.0820955272365331 0.2555413468916717 -0.02478117411913437 60 36 26
0.08251759117173584 0.2560171266391313 -0.027646393060344058 54 32 23
0.09023797298154482 0.26235250760223067 -0.030438149547398798 45 23 16
0.09904728006024599 0.269560693657519 -0.033188337644307626 38 18 11
0.08375250705816557 0.2574191628591085 -0.036238329883254955 30 14 8
0.08391609850941617 0.25768736318185465 -0.03910490154628399 24 12 9
0.07813345274458534 0.2531836677291493 -0.042076601024913785 16 9 7
0.07072743411511627 0.24737845065103886 -0.0451031172873653 12 6 6
0.08937808131943341 0.26248058048086187 -0.04759970431670502 11 5 5
0.048375022419964164 0.2297230636591713 -0.05142042380557342 11 5 5
0.04337802745909895 0.22585511802992841 -0.0544884645931767 11 5 5
0.04255520680178275 0.22533603627043214 -0.05746302000798871 11 5 5
0.04609782128742597 0.2283180555785301 -0.06031449211658764 11 5 5
0.06370138815764036 0.24257450635714023 -0.062716630033746 13 5 6
0.06932971068379118 0.2472263020400292 -0.06544700893835931 13 7 6
0.08241865047472041 0.2578581772185128 -0.0678963396283778 16 7 5
0.08241381417282695 0.25799181067221333 -0.07077841225438392 28 13 11
0.07950717218249011 0.255799686949959 -0.07377385644731416 63 45 39
0.07748752127035356 0.2543189845747126 -0.07674534016075096 80 61 51
0.07724531350857033 0.25426299505988664 -0.07964982672460047 81 57 45
0.07786128263224913 0.25489468858711073 -0.08251797914305994 63 35 19
0.07724101124250668 0.2545359185586404 -0.08544210406448405 66 35 18
0.0728037378146384 0.25111972553853734 -0.08855415804605475 69 34 16
0.07893214750259088 0.25616698495175205 -0.09115289161297911 66 30 12
0.08084409554859544 0.2578363717104873 -0.09394911858326965 73 43 26
0.08275195520565005 0.25950217759137895 -0.09673913225174793 77 51 41
0.09063709752257144 0.2659535371294546 -0.09918756336168993 70 38 26
0.09537690757025066 0.2698853908692105 -0.10178894567555019 70 36 24
0.09988495514893776 0.27363089258643136 -0.10438685837699466 68 31 18
0.10577558562189515 0.27848222585772187 -0.10688277111369203 75 37 21
0.10909457583302365 0.2812744173474009 -0.10952091143579387 81 41 28
0.1123900823126183 0.28404724912775353 -0.11214869773225858 83 47 33
0.11389715319541133 0.285388550110249 -0.11488566581301851 150 124 115
0.11407774028448078 0.28566839006351 -0.11771003244878533 148 124 115
0.11688478841244043 0.2880492460623272 -0.12034677657003691 129 99 86
0.12348955059461016 0.293467212664572 -0.12269463055563018 94 58 39
0.12627026691910212 0.2958257106314616 -0.1253061339323278 81 36 12
0.12876145741002917 0.2979522162079131 -0.12793017629041417 82 37 11
0.12861757441924532 0.2979713831304438 -0.13075433614983317 79 37 14
0.13088966697130763 0.29992213507967636 -0.1333838020794107 76 37 14
0.12600975305918627 0.29615531243442594 -0.13659992726656764 74 36 14
0.12279197297604635 0.29371796466563715 -0.13969447740332971 71 34 15
0.12130454015174212 0.29266414721826817 -0.1426518633232246 67 37 21
0.1212158184736076 0.2927283676776468 -0.14549152505240776 63 39 28
0.1167795983583328 0.28931893688466315 -0.14872756566466463 62 42 32
0.11750333845592195 0.2900327732046798 -0.15150276950528463 64 44 35
0.11867698310934341 0.2911059161257497 -0.15423345089274781 65 45 38
0.11970578790291317 0.2920631967732671 -0.15697450389921447 65 45 38
0.1316666971161153 0.30175118390567135 -0.15863406032298677 65 45 38
0.12000260962513737 0.29257123946976593 -0.16262450218388796 65 45 38
0.1252999812889864 0.2969365144888794 -0.164922080717003 64 44 37
0.09153137032007966 0.2716354292627926 -0.2032105322019769 63 43 36
0.08984394620284357 0.27042890070414183 -0.20633457297853094 62 44 34
0.08846343106658236 0.26946738617733207 -0.20942630923527844 62 44 34
0.08893828152037545 0.2699850186134676 -0.2122799305854619 61 43 33
0.09051392076470957 0.2713799039739596 -0.21498546127273083 62 43 34
0.08826868653443651 0.26972977360367373 -0.21820412929366167 62 43 36
0.08807668473562616 0.2697160899994415 -0.22114996390598654 62 43 36
0.08638739632824773 0.26850961319481903 -0.2243064771846547 62 43 36
0.08619740463683968 0.2684978328901279 -0.22725835764660912 63 43 34
0.09111107757946144 0.2725512230426449 -0.2294796428908737 63 43 34
0.089288973266091 0.27123929607834096 -0.23266230191780132 63 43 34
0.09185264064501802 0.27342022055586257 -0.23520659119431603 64 44 35
0.08211599563537444 0.2658069095692615 -0.2395789193648498 64 44 36
0.06825870946060758 0.2549148965925422 -0.2446138598701431 64 44 35
0.07334816487700746 0.25910782516690106 -0.2468000096389298 65 45 34
0.07681821705493891 0.26201089461130156 -0.24921856096673595 67 46 34
0.07816460822727925 0.2632232456018415 -0.25195829788551566 68 46 33
0.0791276379835837 0.2642710297431341 -0.2577035061164691 68 44 32
0.08186213275164844 0.26658725607727174 -0.2602072969302366 71 43 31
0.07380746568045082 0.2603205051785984 -0.2644820138651787 70 42 30
0.07200221405919811 0.25902597918344605 -0.26774561883078685 70 42 30
0.07728026881564463 0.2633651045417878 -0.26982038757490395 70 41 28
0.07950108192732842 0.2652721860375956 -0.27239798125736514 69 40 26
0.07662093634864893 0.2631231238043232 -0.27584979118169184 68 39 25
0.07423206342437541 0.26136521295863546 -0.27922798328677 67 38 24
0.07452641169320004 0.2617407226598406 -0.282142041661797 66 37 23
0.07416898141192163 0.26159817758772186 -0.2851724524008625 63 34 20
0.07267691773106755 0.2605540247539595 -0.2884103529447823 57 28 14
0.06985284415053365 0.25845174261938064 -0.2918985168385069 60 31 18
0.06322070791531707 0.2533243921717086 -0.29610218206403305 68 38 20
0.06763833352112628 0.25697673754657524 -0.2982701309092263 72 41 21
0.06584412087442926 0.25569393347546465 -0.3015935440491027 56 29 14
0.07672741853258744 0.2644806836046576 -0.3025083202764895 88 69 59
0.07371759186795192 0.2622320623480021 -0.3060569615324393 83 66 60
0.07193495456679816 0.26095852379613615 -0.30937967177102993 86 63 54
0.07576821929737608 0.26414423697592654 -0.3116066026571211 82 51 33
0.07577502073423878 0.2642915297808578 -0.3145790064238978 81 43 20
0.08552335154828969 0.2721715345855602 -0.31559921505934463 85 49 24
0.08540758665580793 0.2722207197499139 -0.3185790811759645 86 51 24
0.078672656681893 0.267017035917768 -0.32291364817093876 84 49 23
0.06825758567182277 0.25889447409499833 -0.3280354848230354 87 53 27
0.07088881166622163 0.2611249398880833 -0.33048060395204787 83 52 32
0.06394489735698503 0.2557588817873987 -0.3349307185529232 69 44 31
0.06371618314242244 0.2557207965861593 -0.33798325575505095 36 15 9
0.056324458024237876 0.2500016517497103 -0.34257299566999894 38 19 12
0.045962880153819344 0.2419287722836677 -0.3478354294682878 66 45 32
0.04624567608917757 0.2422981861700484 -0.3508162329500619 60 37 22
0.04819691563453396 0.24399040231025465 -0.35342938496637133 67 44 31
0.04766522187817856 0.24371396389614694 -0.35658766454033225 61 37 26
0.04704206441484141 0.24336517486736017 -0.35976955901139374 61 37 27
0.047504923473076194 0.24387728003424441 -0.36270923307039593 61 38 30
0.0509769167259149 0.2467739670253689 -0.36496134236297756 61 41 34
0.04667654929706625 0.2435114864418177 -0.3689898535874217 42 23 18
0.05243285696545945 0.24821748710456218 -0.3707014392306384 54 36 32
0.05743745314708855 0.25232695600729693 -0.372567188592403 69 55 48
0.06414981348256245 0.2577882131198769 -0.37401075003903594 64 47 37
0.0651331055959915 0.25871089532480707 -0.37679296783683225 65 40 28
0.06770802809936081 0.26089383830352053 -0.379190064897586 59 31 17
0.06703974956295072 0.2605083811490342 -0.3823631551703267 59 32 19
0.07224870313452286 0.26477611824841385 -0.38410520410580906 65 39 26
0.07534539446840735 0.2673708303254497 -0.38634733812830413 71 45 32
0.07779743059611152 0.2694547484190951 -0.38873806263879485 63 37 24
0.08266597265402117 0.27345071315045566 -0.3905156841597127 62 34 22
0.09008599230365708 0.27946484143885325 -0.3916317356030553 59 31 19
0.08836327197379445 0.2782436174680445 -0.3950420543634413 74 49 37
0.09122124778181398 0.28064670531566316 -0.3972872897192356 63 36 23
0.09510403759694955 0.283859962205182 -0.39925765071272185 60 29 14
0.09821795040659208 0.2864643894116825 -0.4014134443457721 73 41 25
