ply
format ascii 1.0
element vertex 673
property float x
property float y
property float z
property uchar diffuse_red
property uchar diffuse_green
property uchar diffuse_blue
end_header
-0.1264455389615575 0.1472827064652182 -0.858058056139775 156 148 141
-0.12550506886341609 0.15197356884059432 -0.8637739036676557 171 164 158
-0.12409101676302006 0.15905096070763847 -0.8706819312412426 188 183 178
-0.12210512052506048 0.16900991756988692 -0.8790390678770468 202 200 197
-0.12020582109930207 0.17853193519610844 -0.8872162429265136 207 207 206
-0.11826036963082881 0.18828603202337146 -0.8955438360958814 211 211 210
-0.11602875765186274 0.1994816788733561 -0.9046265728262357 214 213 213
-0.11588087368379406 0.20017634922111455 -0.9084922663554266 214 214 214
-0.10638235651282404 0.24798978077580439 -0.9360376685708609 213 214 215
-0.09699251192593442 0.29525318058813566 -0.9634750552304134 214 214 214
-0.09847312941321214 0.28731590017067654 -0.9926329814884994 108 95 89
-0.09965569256723707 0.28130543347123216 -0.9931904349574511 107 93 85
-0.10506747548350807 0.2539902177423438 -0.9825744461688094 104 90 81
-0.10834181991061285 0.23744360059747105 -0.9775208797474725 103 86 77
-0.11033454924365191 0.2273537054116668 -0.9758139525836665 99 82 72
-0.11250769559027972 0.2163554999898224 -0.9735928690704089 95 77 67
-0.11315691525300606 0.21303394882581267 -0.9754080334762993 94 74 62
-0.11408282026652665 0.20831889295526917 -0.9764713879605362 91 72 58
-0.11337940485588234 0.2118106319577877 -0.9819034444812331 87 68 54
-0.11504069979255084 0.20339186825939629 -0.9809666935674215 85 64 50
-0.11477603337402321 0.20467371972976914 -0.9852177476877302 82 60 47
-0.11373998114113931 0.20984050987240782 -0.9915708414208156 80 58 45
-0.11532987864402504 0.2017819400479513 -0.9907862143551105 77 55 41
-0.11566095428960509 0.20006339821497215 -0.9934173942852029 77 54 40
-0.11615159650238514 0.19754133398508983 -0.9956065381660805 76 53 39
-0.11699015681522767 0.1932672863440444 -0.9968309999970302 75 52 38
-0.12351659989739962 0.16035046228000804 -0.9823369576294313 74 51 37
-0.1206168664666849 0.17490230207671192 -0.9938396388293675 73 50 36
-0.12067744310363708 0.174546642390022 -0.9971688921940219 73 50 36
-0.1227859753938278 0.1638786951527324 -0.9947893720629551 73 50 36
-0.1269254286689196 0.14298502432438143 -0.9866941559679998 74 51 37
-0.13225067222937179 0.11612176941739281 -0.9752001485394755 75 52 38
-0.1307195792932436 0.12378162871453274 -0.9829098132395343 75 52 38
-0.13136134790153992 0.12050095793619822 -0.9845135175641474 75 52 38
-0.13165833148812361 0.11895633959878772 -0.9870838549784564 76 53 39
-0.1326780862827937 0.11377288988333065 -0.9875969519870655 76 53 39
-0.1339111310582033 0.10751587212330074 -0.9874855401930878 77 54 40
-0.135628771559579 0.09881951489213367 -0.9859682579176962 77 54 40
-0.13627574233411074 0.09551359044875592 -0.987492423543011 77 54 40
-0.13701401288511283 0.09174819743366455 -0.9887439271131051 78 55 41
-0.1383233313835158 0.08510832621639727 -0.9883359080662186 78 55 41
-0.14171217472464923 0.06800074302455891 -0.981886590307957 78 55 41
-0.14297399970183042 0.06160084268096254 -0.9815541891553072 79 57 43
-0.14434980379291634 0.05462752189900094 -0.9808687860107623 81 60 46
-0.13570353181937947 0.09810033370145732 -1.0094390524436287 82 63 50
-0.13498966054183537 0.10164442805796557 -1.0149205797310976 82 64 52
-0.13562606762847623 0.09839208212041031 -1.0164475200814278 85 66 55
-0.13627198650332284 0.09509200522950921 -1.0179365627732337 85 66 55
-0.13545741803481057 0.09914263317345764 -1.0237345503467354 82 63 51
-0.13691975342082793 0.09173377986280137 -1.0227949727610957 82 62 48
-0.1398827318008365 0.07677301183668353 -1.0173661083948886 82 60 46
-0.13870831763450042 0.08263467008991388 -1.0242320415870314 82 59 45
-0.14127739771656297 0.06965712503721479 -1.0199160248655845 83 58 40
-0.14090532854852744 0.0714809737663529 -1.0243848856047233 81 55 34
-0.14329180489923693 0.05942323070990996 -1.0205559061729743 80 53 33
-0.14202428494451286 0.06575314582093353 -1.0277206575218045 78 51 32
-0.13990544152780152 0.07636649328429088 -1.0374883496227165 79 50 31
-0.1472417431618223 0.039403048670341015 -1.018571126876757 81 53 32
-0.14736596684663747 0.03873014954202489 -1.021498471488514 83 56 32
-0.14746945445275056 0.03816159507999067 -1.0244884484145549 87 59 34
-0.1475894256494884 0.037510110505319744 -1.0274275398822303 91 64 39
-0.14742855040328173 0.038271646934856504 -1.0312292866139305 94 69 45
-0.14730196164476642 0.038860619924432294 -1.0349297281923509 94 71 52
-0.14730370562980766 0.03880389623364028 -1.038237149002485 96 73 57
-0.14333382298611022 0.05872788232899817 -1.053862145501629 96 73 57
-0.14704961275533973 0.03998620660781782 -1.0456574969017878 94 72 55
-0.1470614601824727 0.03987855883597377 -1.0489401497150783 92 71 53
-0.14781240107201365 0.03605290004722693 -1.049912136396494 91 70 51
-0.14726905176164992 0.03873814298832948 -1.0549324289227986 91 70 51
-0.14478076347612862 0.05120668293643042 -1.0660831722238244 90 69 50
-0.148360812973248 0.03315030085977258 -1.058133491381042 90 69 51
-0.1481959952281099 0.033931340779510405 -1.061970311960799 87 67 50
-0.1479588853107957 0.03507593245187968 -1.0660410299821814 85 66 49
-0.14801040181923694 0.034768738393407425 -1.069199034610195 82 65 49
-0.1474902107973763 0.037336973204914595 -1.074182183633285 79 61 47
-0.14723302330421287 0.0385822921585042 -1.0783345326683447 70 52 38
-0.14696080224196198 0.03990312995685222 -1.0825413126302792 61 43 32
-0.14761156485687074 0.03658203608173094 -1.0837838001846136 56 38 28
-0.14660507376942597 0.041595477616469756 -1.0903651336090536 56 38 28
-0.14604833877717377 0.04434685270485528 -1.0955104960442836 58 41 30
-0.1440267972876495 0.054464236969507446 -1.105422079126353 59 41 29
-0.14649976535293519 0.04197979554123832 -1.1007424592718782 59 41 29
-0.13949127886218626 0.0771735591726655 -1.1269674260604132 60 40 29
-0.13986643981640623 0.07523769217354351 -1.1291536044914023 64 41 28
-0.13941695090144374 0.0774484432801058 -1.1340412233889774 73 48 33
-0.14016044080256843 0.07366062051649702 -1.1350120596887254 81 54 36
-0.14199296870758024 0.06439730815415709 -1.1323765722448669 86 59 38
-0.14476331012980304 0.05041927126262061 -1.1266054684701603 89 63 41
-0.1488794535598369 0.02967563046099239 -1.1163190828295548 92 67 46
-0.14894303039892628 0.02930768022368785 -1.1194453701392664 91 69 48
-0.14939731164252526 0.0269754764382798 -1.121268260577468 91 68 50
-0.14927631114982826 0.027535496883177996 -1.1250093190455852 90 67 51
-0.1447261259643146 0.05036181310357862 -1.1436149720272208 89 66 49
-0.1445066976274984 0.0514159419393965 -1.1477351239367033 88 65 47
-0.14430873045810366 0.05236210665560931 -1.151788434768821 90 67 49
-0.144521134784943 0.05124534427608782 -1.1544587753558542 91 68 50
-0.14453385201691918 0.05113237483472588 -1.1578040752873426 90 67 50
-0.14439749130599636 0.05176873068659135 -1.1616576983868443 85 65 48
-0.14451315087061378 0.051138274543808676 -1.164655954262188 85 69 54
-0.1446530818590409 0.05038583207292466 -1.1675706523475922 98 86 73
-0.14481739561616003 0.04951085330775892 -1.1704007429752534 117 108 99
-0.14550035309315923 0.046029194068685525 -1.171446478337942 142 136 128
-0.1453621587802424 0.04667469086230394 -1.1753115680910187 159 154 150
-0.1455063145482393 0.04590111291371532 -1.1782049549790545 169 167 163
-0.1454068418433661 0.046351929582639756 -1.181941456937317 176 175 173
-0.14504694427732198 0.04811145333646444 -1.1865861454613242 179 177 178
-0.14631471880027666 0.041691266167327296 -1.1855689586197602 182 181 179
-0.14559992968896615 0.04523417052616721 -1.1914545683552296 185 184 182
-0.14044796883818658 0.07107394150406884 -1.2128935539055496 188 187 185
-0.14090985161288713 0.06870313198078445 -1.214717981300872 189 188 186
-0.14122804580882142 0.067054428964795 -1.2170413154324127 192 191 189
-0.12812778254279167 0.16567048209950525 -0.09229056089312826 180 180 180
-0.12267714237238056 0.19347945198321415 -0.09808622673386853 180 180 180
-0.11999123449529034 0.20716116196501044 -0.10256475859235316 180 180 180
-0.11716493986342577 0.22155955882891312 -0.1071597519484578 180 180 180
-0.11419177449831569 0.2367077252185548 -0.11187798013453618 180 179 179
-0.12077351696886567 0.20303857307845927 -0.1115613422566956 142 138 137
-0.11993900935084184 0.20726013564150492 -0.1151460195200463 117 107 103
-0.11979028822521079 0.20797791916445774 -0.11836954867646919 113 101 94
-0.12060094832029716 0.20379441591839115 -0.12106346948634816 107 96 91
-0.12020022913825781 0.20579957007170271 -0.12442887946698986 102 89 81
-0.12409466321306545 0.18586267915613083 -0.12534590941890839 96 79 71
-0.12592233213414006 0.17648452266208497 -0.12740052036790195 91 72 61
-0.1276760521647999 0.16748449280983083 -0.12947078250513872 89 70 58
-0.12732552609956083 0.16923376154646647 -0.1327680092570074 89 69 58
-0.1258396777442803 0.17678228737771096 -0.13675759120675168 88 68 57
-0.1260026240122077 0.17590843217560415 -0.13976362357350988 87 68 56
-0.12386407017863582 0.1867904150264698 -0.14419464626391587 85 68 57
-0.12167802386060644 0.19791450460739288 -0.14869099239138994 85 70 61
-0.12279540586479834 0.19216524971525914 -0.15112365747262654 85 73 66
-0.12542033338682376 0.17871631489348966 -0.15256939885459309 94 86 82
-0.1276490306881102 0.1672916566877174 -0.15423269977823248 103 97 98
-0.12704859691037312 0.17031684965306768 -0.1577280367772795 116 112 113
-0.12611838987913948 0.17502613177037968 -0.1614545146130085 149 147 148
-0.12509644473906117 0.18020371668685622 -0.16525922130669496 177 177 176
-0.1243482069769205 0.18398323041568831 -0.16889450467413344 179 179 179
-0.12353078316019006 0.18811589421002783 -0.17259099020847757 180 180 179
-0.1238099339042806 0.18664835080413608 -0.1755345776142854 181 180 178
-0.12383093738295028 0.18649913434949003 -0.17865775122952096 180 180 180
-0.12332305164468946 0.1890507352472985 -0.182160533351292 179 180 182
-0.12277740874841397 0.19179501601753784 -0.1857001560297396 180 180 181
-0.12160295867008002 0.19775009929204493 -0.18971012651120278 180 180 180
-0.12633775253143642 0.173530613483031 -0.18936783966075127 180 180 180
-0.12447049667097895 0.18042817711608725 -0.38798613118381703 182 182 182
-0.12025807357633927 0.20186597549934 -0.39649137542608315 182 182 182
-0.11909365267250252 0.20776011506814734 -0.40122177721537083 182 182 182
-0.11795470853896613 0.21352406698243245 -0.40594050315319585 182 182 182
-0.11692539985584807 0.21872870690645108 -0.41053935319804785 183 181 182
-0.11434565338121853 0.2318387487361106 -0.41715145411936116 183 181 183
-0.11444643396088822 0.23128054722669739 -0.4203367762665197 182 181 184
-0.11449506420618596 0.23098825056112104 -0.42358983680222784 181 182 182
-0.11154257018613097 0.24599761604218598 -0.4307793412411295 183 183 182
-0.10964689127146657 0.25561809841013067 -0.4366245389408261 182 182 182
-0.11057001476448472 0.2508666897628692 -0.43875919750397596 183 181 181
-0.10940912831663696 0.2567404022498553 -0.44366492102612465 182 181 179
-0.12440517960230232 0.18024249773583412 -0.4268663195912089 184 182 182
-0.12402281745209559 0.18214846156570338 -0.4306260579380407 184 182 183
-0.12294725147838953 0.18758826091861572 -0.43533718694059004 184 182 182
-0.12124326676649508 0.19623139869674078 -0.44092827214895874 183 183 181
-0.11948632694458475 0.2051440908024682 -0.4466220898676055 183 183 182
-0.11771279055598405 0.21414097629237056 -0.45236958150109213 184 185 183
-0.1168173465101009 0.2186613409366367 -0.456923524656331 184 184 184
-0.11474185223488861 0.2291967033027296 -0.4631492524089539 184 184 184
-0.12205101825424239 0.19189503573447764 -0.45616763381369974 184 184 184
-0.12139563478417328 0.19519188943293897 -0.46037137617049845 184 184 184
-0.14697664227955454 0.06297883245240762 -0.5602911679929315 194 194 194
-0.13695048565566117 0.11394860170055936 -0.5846626715341311 196 196 196
-0.1313726554909409 0.1423074120575329 -0.5980037126545545 196 196 196
-0.12635353799882568 0.16782008371142948 -0.6104221015384718 197 197 197
-0.12448661555424984 0.17728162346447152 -0.6171512734953517 198 198 198
-0.11882095004002582 0.20608427089400042 -0.6309069896428938 198 198 198
-0.1134050669987474 0.23361385160935216 -0.6442988020630572 199 199 199
-0.11326473766851533 0.23428254797328102 -0.6479825343952677 200 200 200
-0.11398557055232084 0.23056682200315787 -0.650062797299974 200 200 200
-0.11176119081861872 0.24184564233828065 -0.6576547254681472 202 202 202
-0.11431420861190342 0.22880222249287532 -0.6562874552944805 202 202 202
-0.11436878059679267 0.22847865784531907 -0.6596055064526378 203 203 203
-0.11101220498505157 0.24552044490615682 -0.6694076727739389 203 203 203
-0.11313067521760617 0.2346898843424169 -0.6688155851600818 204 204 204
-0.1296057137739102 0.15077711893138815 -0.6406558532234145 204 204 204
-0.13602706200480125 0.11804565436340733 -0.6315826010579626 205 205 205
-0.13701993155613318 0.11294827949608677 -0.632904491365944 206 206 207
-0.2036289138926578 -0.22729655966066822 -0.5926094448883233 216 216 216
-0.18687382064950125 -0.14210983263561608 -0.6326495920980149 218 218 218
-0.1829708758901418 -0.12229652838750106 -0.6442322454795659 218 218 218
-0.18423898011719908 -0.12878490422340155 -0.6442715165545244 219 219 219
-0.09773872826669606 0.310731128250024 -0.8712547349732651 218 218 218
-0.09885367995366343 0.30501287735417815 -0.8722985329618234 218 218 218
-0.10404910505400944 0.2785461818339591 -0.8637694267172834 218 219 219
-0.10577698425164274 0.2697122999507248 -0.8633011739557741 218 219 219
-0.11286907928815317 0.23360370702421482 -0.8501493083385009 218 218 218
-0.11360517921541329 0.22981394103628938 -0.8519252524255738 217 218 218
-0.11449337955561431 0.22525098646441447 -0.8533283904115916 217 218 217
-0.11527678095863225 0.22122104672305662 -0.8549675304930848 212 213 211
-0.11679070330282386 0.21347717757573306 -0.854845502760757 209 207 206
-0.11682109251465247 0.21327600178825618 -0.8582633683795168 200 199 195
-0.11743749316279697 0.21009556839379212 -0.860268963590097 191 190 186
-0.1170977683015255 0.2117760259452504 -0.864579624417526 185 182 178
-0.11685521957803688 0.21296236843360122 -0.8686617513042645 182 179 174
-0.11742676654291748 0.21001011056624722 -0.8707648761994704 182 179 174
-0.11729399275654205 0.21063835567903363 -0.8745829117570911 183 180 174
-0.12639260178268183 0.1643402256128212 -0.8557356143091788 186 183 178
-0.12622562329073034 0.16514332256089598 -0.8595645416041315 193 191 187
-0.1250722733938191 0.17096019571523008 -0.8658375117603049 198 197 193
-0.1242126851139658 0.17528358813089065 -0.8714031964007426 204 204 202
-0.12272700808553091 0.18278908896261545 -0.8785450907386357 211 211 209
-0.12157703382432114 0.18858792283919362 -0.884875568540527 214 213 211
-0.11982756399190461 0.19743348515525572 -0.8927317325129218 214 214 213
-0.1178915020981592 0.2072269721909693 -0.9010900441483038 214 215 214
-0.11848528488182984 0.20416228735366845 -0.9030932857994002 215 215 215
-0.11624229469280381 0.21551501433428094 -0.9122788399435559 216 214 215
-0.11608661163436425 0.21625914421985992 -0.9161958392686576 213 214 217
-0.10899884338211568 0.2522324204587645 -0.9378125207551393 212 214 217
-0.10007793241159606 0.29751990597464795 -0.9642517562610294 213 214 215
-0.10179780859204765 0.28829011978287405 -0.99645575560307 102 89 80
-0.10680251038336169 0.2628140212756688 -0.9868180985860412 100 86 77
-0.10945849910645891 0.2492717482856943 -0.9833593239692686 100 83 74
-0.11242428414732941 0.23415619891507453 -0.9790256736675841 97 80 70
-0.11334058953835001 0.22945324571157413 -0.9801452131795749 95 77 67
-0.11445047371110342 0.2237670793165523 -0.980728436578268 94 74 62
-0.11496359364389647 0.22111273765541764 -0.9829068805887291 93 74 60
-0.11420872767610528 0.22489975582451602 -0.9885171362174692 89 70 56
-0.11501269854623807 0.22076800139432634 -0.9899003105464534 85 64 51
-0.11536815145528306 0.21891474273459086 -0.9924953409592463 81 59 46
-0.11725162934856544 0.20929985859950934 -0.9909000793544142 80 58 44
-0.11865726674366053 0.2021125630612286 -0.9905859734586439 79 57 43
-0.12005980964522979 0.19494129960933532 -0.9902569021407026 77 54 40
-0.1262851629701809 0.16327434118705011 -0.9765645223354626 76 53 39
-0.12524115935846633 0.16853048317612473 -0.9829344046358002 76 53 39
-0.1250718362990832 0.16934388792342558 -0.9868895361421405 75 52 38
-0.12462331306693476 0.17157524380067757 -0.991629034247482 74 51 37
-0.12313915755973696 0.17906615700554873 -0.9992797482504611 74 51 37
-0.12380411806962772 0.17564219345737833 -1.0009180547295944 74 51 37
-0.12527906348048184 0.16810487580002392 -1.0002621378468952 75 52 38
-0.12939900158318765 0.14713566488627544 -0.9920996211349915 76 53 39
-0.13649030554137942 0.11098733226101187 -0.9822226153106004 76 53 39
-0.13635203480299624 0.11164403419553358 -0.9860157141343233 76 53 39
-0.1349521414025343 0.11870689950766083 -0.9934381447416516 76 53 39
-0.13690777023792775 0.10873127390256282 -0.9912149547711565 75 52 38
-0.13781125351083492 0.10409838761335809 -0.9920004314107516 76 53 39
-0.13863643250774316 0.09986328007564245 -0.9929983209231156 77 54 40
-0.1391139201992041 0.09739367629665047 -0.994994508554641 77 54 40
-0.14342481731309628 0.07546133873960731 -0.9857958250295775 78 55 41
-0.14426847097194545 0.07113334681017724 -0.9866714076273901 78 56 42
-0.13744080547551135 0.1057521945497647 -1.0100603084283628 80 58 45
-0.13723145383004193 0.10676953825410579 -1.0140793511711754 80 60 47
-0.1370365505239282 0.10771346118072384 -1.0180610328526656 82 63 49
-0.13811288466539712 0.10220380825888364 -1.018280366606124 83 64 52
-0.139198362711927 0.09664797597755764 -1.0184546379314439 83 63 51
-0.13852232170342743 0.10003440983843542 -1.0238630745462296 81 62 48
-0.1393087723880302 0.09599676858793377 -1.0249114304579208 81 60 44
-0.14535064199603998 0.06528240783848983 -1.0101823196324196 82 58 42
-0.1480107508442927 0.05173514248347749 -1.005520391614554 82 57 42
-0.14851478681040908 0.049132361669900856 -1.0073184778674478 83 58 40
-0.1442670293439708 0.07064840706573734 -1.023492013626676 82 56 34
-0.14443881909200176 0.06973159953431544 -1.0263265871730485 79 52 31
-0.14373621034310552 0.07325279431066656 -1.0318221140474357 79 51 32
-0.1428422779941828 0.07774483178075703 -1.0379162262652994 79 51 30
-0.15079805267226534 0.03732237716033188 -1.0169203370597397 80 52 29
-0.15035104599208712 0.039546819301796654 -1.0215966206842362 83 56 29
-0.1502033143329809 0.04025231729074896 -1.0253603812479408 87 60 35
-0.15015584134533133 0.04044896035860268 -1.0288185029912096 92 67 42
-0.15029041312742358 0.039721741872706634 -1.0317147642550406 92 68 44
-0.15010487442668544 0.04061897420598015 -1.0356051696762059 92 69 51
-0.15026008698337656 0.03978700016002326 -1.038438129684476 94 71 55
-0.14999121094975398 0.04110702795155202 -1.0425957937300854 96 73 57
-0.15029260925838872 0.03953325376078669 -1.04497158651435 94 73 56
-0.15025684012704987 0.03967036443753433 -1.048403781600716 93 72 54
-0.14902308874030362 0.04588601915994632 -1.0556166468548 92 71 52
-0.15048695253878538 0.03841395707694893 -1.054320518708965 92 71 52
-0.14958436081961135 0.042949071854031046 -1.0605062942893597 91 70 51
-0.15018240271679395 0.039870266092773096 -1.0619359308696419 90 69 51
-0.15017155734583215 0.03988078848802437 -1.0652988557274798 87 68 51
-0.15010150977335673 0.04019164423735774 -1.0688529324703007 84 66 49
-0.14988632720457967 0.04123877251325554 -1.0728755268359011 81 63 48
-0.14929170548499682 0.0442107813550742 -1.0781245994383009 73 56 42
-0.1495973409026793 0.04261559045179937 -1.08048086405149 61 45 32
-0.14931858005168921 0.0439850436856728 -1.0847243184387252 58 40 30
-0.14996546994415844 0.04065877823752789 -1.0859703065849402 59 41 31
-0.14870809304779684 0.04699235912592967 -1.0934035214747064 59 41 30
-0.1459649603171314 0.060862171819884014 -1.1057103944889053 59 41 29
-0.14541705508104016 0.06359617469204054 -1.110884376065404 60 42 28
-0.14561670537846952 0.06253819811209502 -1.1136164441083076 62 43 30
-0.1424793487958614 0.07840613316960898 -1.1273292488452262 63 41 28
-0.14240678191412326 0.07872850322250502 -1.1309861581952543 70 44 30
-0.14261449413469177 0.0776292785489246 -1.1337183635257262 79 52 35
-0.14331215451006846 0.07404516147296966 -1.1348222978012144 87 57 38
-0.14506942975698864 0.06508716310653481 -1.1323886186016316 89 63 40
-0.14726524712053266 0.05390548275128054 -1.128460706906313 93 67 45
-0.15156359154898855 0.032061486037394754 -1.1174581443322635 93 70 49
-0.15167424777083238 0.03145561216199813 -1.1204300731697512 92 70 49
-0.15241702063341286 0.027644160220796743 -1.1212745746418744 91 68 50
-0.1524160622086221 0.02760438307548488 -1.1246162689948906 91 68 52
-0.14708888747847787 0.05457353720546479 -1.1459791839765014 91 68 51
-0.14724339487249977 0.053744722269173095 -1.1488456973455412 90 67 49
-0.1473820210379013 0.05299645348116713 -1.1517649450223695 91 68 50
-0.14729921028055 0.053371010611918346 -1.1554384911088809 90 67 49
-0.14658945658134082 0.05692441041998772 -1.1612593445667403 87 66 48
-0.14658888792555247 0.05688181291440825 -1.164662833343004 84 67 50
-0.14685839114501856 0.05546987456723723 -1.1671392349880088 91 79 64
-0.14700454907281685 0.0546833525049486 -1.1700374974887415 110 101 89
-0.14722143538445903 0.05353825570528775 -1.1726901117355533 135 127 118
-0.14801877999383256 0.0494503645175321 -1.1733282142645844 154 149 143
-0.14777016321171693 0.05066537061958398 -1.1775884680837265 165 162 158
-0.14760429128080027 0.051460812017158075 -1.181566541770592 171 171 166
-0.14814578686334867 0.04867021845916997 -1.1830776237242648 176 177 174
-0.14822535896898467 0.048221384463142725 -1.1861985420060948 178 178 178
-0.14794703360488948 0.04958680811991137 -1.1905767353589962 181 181 179
-0.1478045837215083 0.050263376634700874 -1.1944831182914823 185 184 181
-0.14917309553266653 0.04328087538753597 -1.193058140021332 187 186 184
-0.1427133017494372 0.07597913502795278 -1.219325721617727 190 189 187
-0.14323894688092276 0.07326855205997912 -1.2209178158434995 192 191 189
-0.12314208101638188 0.20742003665674275 -0.09626980855275127 180 180 180
-0.12622051812334345 0.19152446185088104 -0.09785073343401299 180 180 180
-0.12533757382656063 0.1960343722664311 -0.1014127816530124 180 180 180
-0.12241055812013768 0.21107281284033286 -0.10605366123594247 180 180 180
-0.11974271889547189 0.22477570693641158 -0.11060587178529008 179 179 180
-0.11673435531576351 0.24023198611063484 -0.11538479523077483 175 174 174
-0.12471437631060636 0.19909129476660165 -0.11423285819233994 135 130 127
-0.124282480870299 0.20127743056220648 -0.11759997033502106 115 107 101
-0.12420384082356606 0.20164407031982598 -0.12077743523884002 110 101 93
-0.12367723017306383 0.2043178465989135 -0.12421210724061821 101 90 82
-0.12279492587217625 0.2088233852293957 -0.12786159618301238 98 83 73
-0.12508601591814777 0.19698552753247736 -0.12967212314942034 95 78 67
-0.12798541108445813 0.18201534971194755 -0.13108680508619291 96 79 69
-0.12912471660364433 0.17610996640964613 -0.13351308763815226 94 77 66
-0.12862640983378906 0.1786381267383966 -0.1369188894707535 91 73 63
-0.12842037900538322 0.1796610457389926 -0.14015384718036838 90 72 64
-0.1262878250153843 0.19060468934429634 -0.14459679283244567 90 74 67
-0.12618266666993744 0.1911078632247234 -0.147792774807807 89 76 71
-0.1272840930028411 0.18539783576434965 -0.15021871701031622 97 87 83
-0.12805153502674368 0.18140778867811008 -0.15284493880937156 110 104 100
-0.12902541972943143 0.17635486550262808 -0.15532453055496862 132 129 127
-0.12803007103358793 0.18144186731859047 -0.15909913837766665 169 169 167
-0.12719508364469942 0.1857029577265202 -0.16278324092753985 181 181 180
-0.12660053190141385 0.18872589049368266 -0.16631842828544546 180 180 180
-0.12578180558897942 0.19290291621344968 -0.17001906737074862 180 180 180
-0.1249038473802441 0.1973847297478133 -0.17377559816318514 180 180 180
-0.12413957353482433 0.2012810385325542 -0.17746750634138891 180 180 180
-0.12466687383267103 0.1985275219757047 -0.18025172884722646 180 180 180
-0.12541762520741395 0.19462367962341146 -0.18286756572685034 180 180 180
-0.12437279869360575 0.19996412890022233 -0.18678266117036538 180 180 180
-0.12457248435725557 0.19634381992337877 -0.3982447826466357 182 182 182
-0.12212156894863971 0.2089054613609857 -0.40463585278759673 182 182 182
-0.12064118446773517 0.21647665313155892 -0.40981867428369867 182 182 182
-0.12019425420450006 0.2187341823291594 -0.41368737525127663 182 182 182
-0.12093235669463939 0.21489906411890722 -0.4160182458053262 182 182 182
-0.11519381788527824 0.24436138641354438 -0.42684583431250045 182 182 182
-0.11584245914702274 0.24098579526760755 -0.429327317652794 182 182 182
-0.11424930378325497 0.2491352459272746 -0.4347816809692944 182 182 182
-0.11520241886810278 0.24419440642393064 -0.43685557169525413 182 182 182
-0.1222240969583683 0.20805691014493208 -0.4307404790762064 182 182 182
-0.12741778899914766 0.18131782812606298 -0.426986958380069 183 183 183
-0.12493709818531618 0.19403013749891884 -0.4336139953438944 183 183 183
-0.12483833490798359 0.19449781072364297 -0.43701567103513006 183 183 183
-0.12370322528957109 0.20029259572890531 -0.4418511485950146 183 183 183
-0.12310191969508551 0.2033432623015972 -0.4459656957561723 183 183 183
-0.12208194265005373 0.20854580590954708 -0.45067678874962874 184 184 184
-0.12181753946464105 0.2098644650890921 -0.45434434540281143 184 184 184
-0.12379955185734184 0.1996366853385561 -0.4548411602324881 184 184 184
-0.12290784565450377 0.20417964570537078 -0.45939397336404353 184 184 184
-0.14690133954637882 0.07913673530603003 -0.5657539112933849 194 194 194
-0.14209815956543861 0.1037625266715339 -0.5776157890561744 195 195 195
-0.13690828572089414 0.1303729318928843 -0.590265832673939 196 196 196
-0.13082211808780536 0.16158452747262284 -0.6046466664309322 196 196 196
-0.13377015969128897 0.14640682130969612 -0.6025224671468833 197 197 197
-0.12691384603810452 0.18157116287823644 -0.6184603265467606 198 198 198
-0.11994965480190423 0.21728794011262434 -0.6347176734265753 198 198 198
-0.11759320030924886 0.22934531614916037 -0.6425053359697986 199 199 199
-0.11716018521124258 0.23152669225025604 -0.6467323443886532 199 199 199
-0.11709018348815911 0.2318441827350104 -0.6502852641449144 200 200 200
-0.11676322963835542 0.23348085084348527 -0.6543266248167079 201 201 201
-0.11764530562830142 0.22891031065480733 -0.6560793515839175 202 202 202
-0.11718932201974838 0.23120935189142822 -0.660370746274923 203 203 203
-0.11178253289430097 0.25892451019688334 -0.6741578101187503 203 203 203
-0.11208882986604711 0.2573095156268973 -0.677043497279191 204 204 204
-0.1290255902543488 0.17032132429612212 -0.647772817124819 204 204 204
-0.1280154260893533 0.1754661535586312 -0.6530640624786246 205 205 205
-0.1255503301408893 0.1880794018079529 -0.6612122660923029 206 206 206
-0.20608758467985755 -0.22643109940275813 -0.5927540424733537 216 217 216
-0.1899563141163626 -0.14371552741620475 -0.6316998067939905 218 218 218
-0.18974194404143682 -0.14268574429842318 -0.6378851542453561 219 218 218
-0.10471079014810476 0.29299482768499696 -0.8700939723661008 218 218 219
-0.10804347473422847 0.27585982766282874 -0.8658148595201476 219 219 219
-0.11461471425504953 0.24211791922359568 -0.8537756421824885 219 219 219
-0.11587874467187226 0.23559269745877645 -0.8542920594288157 219 219 219
-0.11876762516725818 0.22073569993061848 -0.8508943288662252 218 219 219
-0.11954197519105456 0.2167221296401534 -0.8525325834917273 217 218 218
-0.12088758814307299 0.20977946595861452 -0.852779785963418 218 218 218
-0.12346277041193861 0.1965323951147333 -0.8500258897026491 217 217 217
-0.12370735090978174 0.19523589021356502 -0.8528949550010261 217 217 216
-0.12402485311159153 0.19356552520001247 -0.855583300458888 216 216 215
-0.12468111096770863 0.19015833319994857 -0.8574378893131779 215 215 212
-0.1245147475150432 0.1909689402031392 -0.8613045206815982 214 214 211
-0.12379458261198398 0.19461883654626827 -0.8665418941955244 214 214 211
-0.1244385129675404 0.1912749775053478 -0.868416302530058 214 214 213
-0.1237299626711116 0.1948651248563464 -0.8736414147902704 215 215 215
-0.122517245314488 0.20103980311545264 -0.8801378818006896 215 215 216
-0.12044952881157424 0.21159741401752416 -0.888797106447928 216 216 218
-0.12085375278104632 0.20948224010940528 -0.8912866657104197 215 215 217
-0.11885128981384721 0.219704667874828 -0.8998361506315371 215 216 217
-0.11765869771016216 0.2257750419221447 -0.9063745475077815 215 216 217
-0.11614316765358607 0.23350056072404135 -0.9137554116847845 214 215 217
-0.12424596553950755 0.1919219054729325 -0.8966672103003117 215 215 216
-0.12415281929395136 0.19235674819549778 -0.900384156919239 215 215 215
-0.12469802320003387 0.189519489435192 -0.9024671077510348 214 214 215
-0.1198755775528727 0.21419529736332954 -0.9183567010176906 214 214 214
-0.10356336052461865 0.29776190987883994 -0.9640077447857848 214 214 214
-0.10730106523453127 0.27811282246647406 -0.9944464678201556 100 83 75
-0.1089871026154384 0.2694283292444014 -0.9935657423856177 98 80 71
-0.11073918997455583 0.26040573514137044 -0.9924781621902276 95 75 64
-0.11318663672455737 0.24782044501414238 -0.9894778012143031 93 73 62
-0.11486602605578926 0.2391711584658505 -0.9885218817272561 92 72 60
-0.11609399979621297 0.2328352012136605 -0.9887679439439676 91 72 58
-0.11753293494134405 0.2254185857435742 -0.9884166149653181 90 69 54
-0.11858725620215534 0.21997288128362663 -0.9890963767670922 84 65 50
-0.12069698768523132 0.20911998841657858 -0.9868533834818528 80 60 47
-0.1228533631228923 0.198028565421964 -0.9844452136159481 79 60 46
-0.12412865154728461 0.1914516587657913 -0.9844412176293996 78 58 44
-0.12540980563201826 0.18484496304179188 -0.9843995499601732 78 56 42
-0.12880112551571735 0.16742801434951715 -0.9784513380646958 77 55 41
-0.1275753930296335 0.1736647438190327 -0.9853617366208164 76 54 40
-0.12956649006006946 0.1634218675883549 -0.9832663727484718 76 53 39
-0.12751351470723898 0.17389611620039988 -0.9925246653761698 75 52 38
-0.1265842221243657 0.17861368830780572 -0.9986472189221485 74 51 37
-0.12732255542035253 0.17478860158711504 -1.0000620493399621 74 51 37
-0.12870655806011447 0.16765628124595156 -0.9996294517076145 75 52 38
-0.13243578298828818 0.14851133811013634 -0.9924845748799379 76 53 39
-0.13984585231137797 0.11043008877276742 -0.9815312657513511 75 53 39
-0.1359376035810303 0.13040592817223545 -0.9962163904858121 75 52 38
-0.13704990782652587 0.12466693457016349 -0.9964273948350829 74 51 37
-0.1378120243333713 0.12072169897276575 -0.9976376098254155 76 51 37
-0.13697196173852372 0.1249821956039994 -1.0035067756576892 75 52 38
-0.1371425625192571 0.12406647233576487 -1.0064369638846309 77 54 40
-0.13866682117764179 0.11621829155631402 -1.0053944164260102 76 53 39
-0.14017897622324213 0.10843241552090002 -1.0043613682792385 77 54 40
-0.13984432648212625 0.11010447095348289 -1.0087539155098295 78 55 41
-0.13799730639836288 0.11952121647332858 -1.0176321713601875 78 55 41
-0.13934578445898776 0.1125738780205836 -1.0170548050553774 79 57 44
-0.14214417744226532 0.09820219191371614 -1.0121349527830472 80 58 44
-0.143233909635918 0.09258051811605571 -1.0122716291503133 81 59 46
-0.14397379752640177 0.08875045007080426 -1.0134386235687525 80 58 44
-0.14250420769978606 0.0962339367646359 -1.021236437607261 80 57 41
-0.14346247791592084 0.09128573395490491 -1.0217411570387311 81 55 39
-0.14930659229143864 0.061321343871126796 -1.007451651661006 82 55 38
-0.15258714082119257 0.04448386327562065 -1.0008344989037583 82 55 37
-0.15201876813714624 0.04735339119277239 -1.005871147773745 82 55 36
-0.1481906522562262 0.06691213855657216 -1.0208687949273147 81 54 34
-0.147473905057189 0.07054064698125687 -1.0264132645111728 79 52 31
-0.14667352206076267 0.07459715916166722 -1.0322291778838857 78 51 30
-0.14662899080076724 0.07478388664257343 -1.0357336067429774 79 51 29
-0.15292456672412985 0.04251308857088043 -1.0196577835666543 83 54 30
-0.15349890756422996 0.03953228942022391 -1.021191731338181 85 57 30
-0.15259402040589304 0.04412401714260081 -1.0273126522446034 86 60 35
-0.15251841818981082 0.044470367129515714 -1.0308674925877146 89 64 40
-0.1527024740060552 0.04348750659300098 -1.0336137314496072 89 65 43
-0.15236328481773753 0.045183071451164736 -1.0379982419528027 90 67 50
-0.15260772698732916 0.043891096538244107 -1.0405557570523596 91 69 53
-0.15166323251646144 0.048684856282973005 -1.0468588764536657 92 71 54
-0.15156498258841197 0.049146887316061136 -1.0505050131112579 93 72 55
-0.15112094778177332 0.05137873615728561 -1.055251062460296 93 72 53
-0.14927268728710286 0.060797670201036325 -1.064472864559617 92 71 52
-0.1486575186607368 0.06390501248709322 -1.0697971024208888 92 71 52
-0.15348486690098267 0.03915716117710685 -1.0577245101706914 92 71 52
-0.15369414647023544 0.03804533329977838 -1.060379539142537 90 70 53
-0.1525680475786585 0.043767757045268196 -1.0673284974446058 88 69 54
-0.15195419331263366 0.046868391037140134 -1.072647007771055 86 68 53
-0.15168977220541918 0.04818061124430009 -1.076847724824392 79 62 47
-0.15184585106466403 0.0473408531312275 -1.0796903834984632 68 52 37
-0.15187252325577122 0.04716333255724109 -1.0829528181300994 57 41 30
-0.1516775024994486 0.0481202578253858 -1.0869397757887127 56 38 28
-0.1517502664939755 0.047706828064354556 -1.090055533724342 59 41 29
-0.15028289570208364 0.05517430579681634 -1.0982259812552781 60 43 31
-0.14962394111173924 0.05850483680942323 -1.103764544218014 63 45 31
-0.1484700647827869 0.06436761474900476 -1.1109502661897555 65 45 33
-0.14789343404413466 0.06727652732594991 -1.116248460856101 67 45 32
-0.14586048773942423 0.0776366345920109 -1.1263921929762206 69 45 30
-0.14613801793419515 0.07617480201095189 -1.1288856376361573 74 48 29
-0.14621310501301354 0.07574878203393867 -1.1320511522235088 82 54 33
-0.14711405996314933 0.0710974277953827 -1.132452971133521 89 60 39
-0.14862840652747084 0.06330807455182594 -1.1307811689529315 93 66 46
-0.15346585649400388 0.03851803242910726 -1.1178999373022185 94 68 48
-0.15434623076067544 0.03397304048872943 -1.1182835541290568 94 71 48
-0.15119848614037207 0.0500351899518825 -1.1322826077766774 92 70 49
-0.15629612307489726 0.02391600452930656 -1.1183646123979438 91 69 48
-0.15593202814514778 0.02573772246757583 -1.122936183301701 91 69 49
-0.15132301249952607 0.04927395827816344 -1.1419983016843913 91 69 48
-0.14874945074994658 0.06239712243502313 -1.1541845273605251 91 68 48
-0.14899800841382807 0.06108395292881394 -1.1567395970625962 91 68 51
-0.15153313379756664 0.04807481243411818 -1.1514267703277195 89 67 52
-0.1491229850999447 0.06036120744979118 -1.1631240678979875 84 66 50
-0.1490234722308178 0.060828441395416294 -1.166877170105095 88 73 58
-0.1494922320786666 0.058389059631854034 -1.168663197640082 102 91 80
-0.14980483239516526 0.056748464883682265 -1.1709850133750184 122 115 106
-0.15019189994815935 0.05472705784313908 -1.1730429698527025 144 139 134
-0.15055105201454166 0.05284849113392115 -1.1751928626115495 159 156 152
-0.15024199883743927 0.054387385037933555 -1.1796796245709444 168 167 163
-0.1500660256789106 0.05524559368854809 -1.1837060730693028 175 174 171
-0.15026172838177299 0.054202968228545145 -1.186427761721478 179 178 176
-0.15045729565107496 0.05316106076345997 -1.1891478558954947 181 180 178
-0.15012004556322095 0.054843918847392814 -1.1937532897403746 184 183 181
-0.1428464586050842 0.0919971680335041 -1.2230023450481828 187 186 184
-0.1458750471403725 0.0764674645448146 -1.2157026412046528 189 188 186
-0.14592709260467654 0.07615896254370574 -1.2189753305372573 191 190 188
-0.14547033083389604 0.07845217542574306 -1.2240700916235374 193 192 190
-0.1308641853174775 0.18381187065830865 -0.09705190876550168 180 180 180
-0.12842149305556202 0.19646278568513265 -0.10141011766212875 180 180 180
-0.12643990836375166 0.20671867601412097 -0.10556731178340335 180 180 180
-0.12568485510365657 0.21060482160058758 -0.10910481341224208 179 180 180
-0.12283677150768658 0.22535972900678045 -0.11378717614547577 179 179 179
-0.12927840375735428 0.1918743107111498 -0.11342069399528705 175 173 170
-0.12861673131556972 0.19527556127878348 -0.11690566050279283 133 128 125
-0.12824615359412436 0.19716512840459802 -0.1202382860103285 113 105 101
-0.1280601037532546 0.19809644393943543 -0.12347255956987901 110 100 94
-0.1275379148268035 0.20077309893918588 -0.12690648478562 104 91 83
-0.1278182067850805 0.19928286880626558 -0.12987753231948213 100 85 77
-0.12654768407775488 0.2058449346840214 -0.13377146717687227 99 84 76
-0.12722797771646563 0.20227775164031367 -0.13650662699828325 97 81 74
-0.13000278562044626 0.18783575324454094 -0.13794743128383433 94 78 71
-0.12950877360392524 0.19036597768811092 -0.1413760679462733 94 80 72
-0.1302448054726797 0.186509811691551 -0.14403966095386048 101 90 81
-0.13074508381455582 0.18387775493729133 -0.1468430061532102 108 99 93
-0.13173941091807337 0.17868080220355453 -0.14932051249541387 119 113 108
-0.13084830038122558 0.18327253981093583 -0.15301621447624658 158 154 151
-0.1305775970268072 0.1846432225483432 -0.1563169991279581 180 179 177
-0.12931354594371627 0.19117077202440375 -0.16028931134029678 180 180 180
-0.1284773436373812 0.1954769541276581 -0.16399332324963356 179 180 179
-0.12754735270556306 0.2002698532101169 -0.16777670386950194 180 180 180
-0.12717382485638098 0.20217386064179127 -0.1711900615979104 180 180 180
-0.1287188259570866 0.1941185020147917 -0.1732625579845719 180 180 180
-0.12590823103228177 0.2086733649538809 -0.178407822679829 180 180 180
-0.1263823865618329 0.20617681752548073 -0.18123824714211756 180 180 180
-0.12757301535108334 0.19750125692431003 -0.40490857503999683 182 182 182
-0.12481691276957799 0.21175375040344901 -0.41176975407821137 182 182 182
-0.12586617922045532 0.20627756714983503 -0.41367184627406983 182 182 182
-0.11738859037066245 0.2501906743493292 -0.42817295033732955 182 182 182
-0.11913550202705193 0.24109729366971092 -0.42919318115914923 182 182 182
-0.12011782481634892 0.23596786108450318 -0.43121078598932877 182 182 182
-0.12138667051463231 0.22935328498050167 -0.4328266534893739 182 182 182
-0.12288353567504781 0.221556917617765 -0.4341129638856457 182 182 182
-0.12445702374774294 0.21336362215459487 -0.43527078928227647 183 183 183
-0.12407105746476779 0.21532770431894144 -0.43909733258274325 183 183 183
-0.12584172846915598 0.20611267691929575 -0.43994874031140224 183 183 183
-0.12643848742672636 0.20298287842140014 -0.44240539587692335 183 183 183
-0.12700198620363012 0.20002557512888774 -0.44489999064262914 183 183 183
-0.12686961899026877 0.20067521626796989 -0.4483667044617905 184 184 184
-0.12715043332290402 0.19918322755250017 -0.45125161670827596 184 184 184
-0.14187488198702683 0.12116204685882012 -0.583536244244267 195 195 195
-0.1364166211151629 0.14939184038266753 -0.5967854247801756 196 196 196
-0.13007096969956886 0.18221584054609155 -0.6117677841927404 196 196 196
-0.13617795229695948 0.15055494982574127 -0.6037782423099289 197 197 197
-0.12926561731911568 0.1863120840410813 -0.6199308784879296 198 198 198
-0.1232832463034062 0.21725240391436051 -0.6344648145235804 198 198 198
-0.12074740747101789 0.2303453229739173 -0.6426256015922522 199 199 199
-0.12157744768798918 0.22600945320083926 -0.6444759346859078 199 199 199
-0.12130517966751875 0.22738129398692547 -0.6484045152090592 200 200 200
-0.11959789085709059 0.23618322423290045 -0.655074096324943 201 201 201
-0.1240583706547915 0.21305032437511587 -0.649967315176653 202 202 202
-0.12220614960853539 0.22260254951044714 -0.6569244331020505 203 203 203
-0.13011105882696378 0.1816373796862663 -0.6450666685315777 203 203 203
-0.1298266752121578 0.1830725548907624 -0.6489640696639147 204 204 204
-0.13094497802425625 0.17724559556323355 -0.6501338457832081 204 204 204
-0.12328143883829869 0.21688380576642063 -0.6684794612357937 205 205 205
-0.11977420719978167 0.23500306372270474 -0.678786311553345 206 206 206
-0.20854714003300828 -0.22556531894007062 -0.592898695782031 216 217 217
-0.19324578792872898 -0.14643015123485834 -0.6302651941002805 218 218 218
-0.1944925490381294 -0.15294357421279736 -0.6331105316989288 219 218 218
-0.10806778126072229 0.2936974450049934 -0.8737268539055038 219 219 219
-0.11772007872440826 0.24373297133069635 -0.8542006610657319 219 219 219
-0.12022188365325533 0.23075391486502458 -0.8517159621004747 219 219 219
-0.12786501779582643 0.19118404415681778 -0.8367668680339448 219 219 219
-0.12818863867609703 0.18947194760248973 -0.8394322377509433 218 218 218
-0.12822648033138903 0.18923790994688489 -0.842788947439283 218 218 218
-0.1285739801440996 0.1874023820832467 -0.8453901381846302 218 218 218
-0.1294902214131807 0.1826255631229826 -0.8465923258857545 218 218 218
-0.12992017669752348 0.1803637704172217 -0.848976283570954 218 218 218
-0.13035356471680984 0.17808429334029963 -0.8513456523822198 218 218 218
-0.1302201189195855 0.17873619288348352 -0.8551137381955278 217 217 217
-0.12647374935109879 0.1980714586021537 -0.8678727103433106 217 217 217
-0.12709228481957485 0.19483428622000737 -0.8698038129466327 217 217 217
-0.12272156403978238 0.21739702592762378 -0.8842252189494905 217 217 218
-0.1217401848421464 0.22243268357685986 -0.8902046968351656 217 217 219
-0.12089962948938845 0.2267399456041003 -0.8958480361980534 217 217 219
-0.12172132073876263 0.22245192083464688 -0.8972988772264389 216 216 218
-0.12457110382103469 0.20767743968987232 -0.8935828182087537 215 216 218
-0.12596019970281502 0.2004561009989393 -0.8935422266866252 215 216 218
-0.12671464357154488 0.1965164738660551 -0.8951024649276774 215 216 218
-0.12737953890758336 0.19303997905260245 -0.896880722340881 215 215 216
-0.12844005044493634 0.18751815468772987 -0.8976290796828148 215 215 215
-0.12878973184232695 0.1856716408320973 -0.9001982459580766 214 214 214
-0.1096500096213784 0.2840994627920814 -0.9971992534567096 99 83 76
-0.11210072425564839 0.2713915403666075 -0.9942178259374654 98 81 72
-0.11358909694053045 0.26365812126850685 -0.9938126847128339 97 78 68
-0.11507920430725417 0.2559160172898798 -0.9933775255374728 93 73 63
-0.11686973213946993 0.24662148071039391 -0.9920940129338778 92 72 61
-0.11697344288643557 0.2460453795007947 -0.9954161516923908 90 71 58
-0.11887413117411552 0.23618201879142034 -0.9937825369902451 90 68 55
-0.12025949961342178 0.22898228214467076 -0.9935418690310234 85 66 52
-0.12333478137733461 0.2130492221026335 -0.9885867503390326 81 62 48
-0.125830649911077 0.20011115208936747 -0.9851910545752837 80 61 47
-0.12786331460591172 0.1895673426116249 -0.9830458457779248 78 59 45
-0.12911213874215055 0.18307462841532948 -0.9830625059271233 79 57 43
-0.13058664683763788 0.17541589005889432 -0.9824234041638946 79 57 43
-0.13199123904948132 0.16811872651672152 -0.981956343130588 78 56 42
-0.13237794298374733 0.16608172648980504 -0.9843463625823461 77 55 41
-0.1292698795379503 0.1821035049339022 -0.9966543875877105 76 53 39
-0.1288264929469653 0.18435556371315412 -1.0014299896713033 75 52 38
-0.12832793083673213 0.18689261519501077 -1.0063729736344857 75 52 38
-0.12988127425662205 0.1788272383686147 -1.0054441507771241 75 52 38
-0.13170119379956838 0.16938477190710574 -1.0037219434063327 75 52 38
-0.14093287216819064 0.12157129367183758 -0.9874143153130838 75 53 39
-0.13982222427042784 0.12727153334756988 -0.994066428653395 75 53 39
-0.13809038767263332 0.13618086773472254 -1.0025553395694056 73 50 36
-0.13995456975091264 0.12651156090502225 -1.0005382682572415 74 48 35
-0.13928216722345213 0.1299472276032409 -1.005946136965818 73 50 36
-0.1366102293672561 0.14371262136999388 -1.01726478372837 75 52 38
-0.13746051364888873 0.13928151558081026 -1.0182142448688947 76 53 39
-0.13819623903902922 0.13544236924308425 -1.0194896707319046 76 53 39
-0.1376758171516465 0.1380924052407461 -1.0244922784484631 77 54 40
-0.13834414119947486 0.13460157260359465 -1.025956683300888 77 54 40
-0.1417926343562223 0.11674952925884496 -1.019083890289823 78 54 42
-0.14233290462393502 0.11392068303614221 -1.0208861201488255 79 56 42
-0.14399254702020498 0.10530989402415258 -1.0193069582155847 80 57 43
-0.1449481337414471 0.10033610297952883 -1.0198269065226229 80 57 42
-0.1455664357172639 0.09710464062051086 -1.0213534171098704 80 55 38
-0.14632493081515222 0.09314917274124938 -1.0224438110457963 80 54 37
-0.15254805998734633 0.060968906127923744 -1.0068539522706925 80 53 36
-0.15411736475182225 0.05282650883968691 -1.005388699369741 80 53 36
-0.15270188505934587 0.06010027176168119 -1.0130550549769757 80 53 34
-0.15195410909762247 0.06392523049639978 -1.0186940060814087 79 52 32
-0.15071076460467192 0.07030943642787821 -1.025878114308351 78 51 30
-0.14977157056140147 0.07512258320220505 -1.0321450011315938 78 52 29
-0.15521941834643693 0.04695025649945231 -1.0185961565860788 80 53 31
-0.154990004793825 0.048098118261207676 -1.0226311323048798 84 54 31
-0.15532094628494256 0.04635213104715691 -1.0249213852347894 86 58 33
-0.1548907857048494 0.048536598706935 -1.029591723076835 90 64 41
-0.15448325181495856 0.05060411672073961 -1.0342004588278517 97 72 50
-0.15404226730278636 0.052844269083729745 -1.0389237078566294 96 73 54
-0.15358485919000178 0.05516912148298388 -1.0437085843107201 94 72 56
-0.15476499247725467 0.049038115254478556 -1.0433121892554484 92 71 54
-0.15326988337874686 0.05672116707239032 -1.0514012610237322 92 71 54
-0.1531186894596716 0.057464616378440456 -1.055234244855729 92 71 54
-0.15224732632407167 0.06192652131426238 -1.0613746814941336 92 71 53
-0.1530425770630198 0.057783047705811164 -1.0621875841463932 92 71 52
-0.15558184594012558 0.04463505978984414 -1.0573775854833534 92 71 52
-0.1559278660350834 0.042811467042457904 -1.059597034054598 92 71 53
-0.15521702296735437 0.04644447375402956 -1.0652306840465837 91 71 55
-0.1551528817326837 0.046738485583425846 -1.0687809351985498 90 71 56
-0.1541649219486168 0.051801916847868223 -1.0753397753490235 86 67 53
-0.1541521816040611 0.051830407048137295 -1.0787364034648184 73 56 42
-0.15453697012277284 0.04980661480311929 -1.0808339919379588 62 46 32
-0.15461304807281714 0.04937658642141876 -1.0839390551537869 54 37 26
-0.15460275690223454 0.049392423370874766 -1.087328502881082 56 38 28
-0.1538909779368175 0.05302948834575802 -1.0930348073290324 58 40 27
-0.15196715069657357 0.06292314551076517 -1.102767341294451 62 44 33
-0.15149605680109474 0.06531733091255351 -1.107715832360674 67 46 33
-0.15106761604241725 0.06749122860248802 -1.1125327380604213 66 45 34
-0.15058520243726736 0.06994361810602276 -1.117539369139097 70 45 32
-0.14915929770369474 0.07726592708513069 -1.1257144063919162 76 50 33
-0.14944269089614823 0.07576518196676918 -1.1281808009378527 83 56 35
-0.15016022394682516 0.07202365968790767 -1.1291823374371697 87 59 37
-0.15056313830855317 0.06990614443037224 -1.1312338810616327 92 64 42
-0.15113983314052476 0.06689176132929742 -1.1326913443397792 95 68 49
-0.15228007865332155 0.06096888249515098 -1.1322270727346317 95 70 51
-0.15388587240051396 0.05264348408063199 -1.130158731263811 93 71 49
-0.15463597909393667 0.048734596708185834 -1.1309818713829474 92 70 49
-0.15566406722224424 0.04339121702100837 -1.130841321713077 92 70 49
-0.15633091791262252 0.039912302413451034 -1.1319225463980485 91 69 48
-0.15251766644132286 0.05955388038791837 -1.148407070822653 91 69 48
-0.15302742359413837 0.05688543448583311 -1.1500504496435453 91 69 49
-0.15375150667434478 0.05311105464466573 -1.1509444087468526 90 69 53
-0.153976015562609 0.051914794139365256 -1.153559264753592 87 68 53
-0.15417975782499238 0.05082572409767683 -1.156243719841905 87 71 57
