ply
format ascii 1.0
element vertex 880
property float x
property float y
property float z
property float nx
property float ny
property float nz
property uchar diffuse_red
property uchar diffuse_green
property uchar diffuse_blue
property uchar class
property uchar detection
end_header
0.1295 0.1519 -0.7335 0.781 -0.387 0.489 71 38 19 0 0
0.1381 0.1423 -0.7507 0.638 -0.724 0.260 67 34 18 0 0
0.1387 0.1418 -0.7536 0.638 -0.724 0.260 67 34 17 0 0
0.1520 0.1272 -0.7836 0.275 -0.847 0.456 64 36 19 0 0
0.1572 0.1215 -0.7962 0.718 -0.694 0.045 67 40 23 0 0
0.1637 0.1141 -0.8012 0.928 -0.332 0.166 68 41 24 0 0
0.1782 0.1024 -0.9602 0.747 -0.509 0.427 85 67 57 0 0
0.1791 0.1014 -0.9627 0.747 -0.509 0.427 87 70 60 0 0
0.1880 0.0909 -0.9614 0.668 -0.622 0.410 92 75 65 0 0
0.1906 0.0879 -0.9624 0.853 -0.522 0.008 90 73 63 0 0
0.0531 0.2079 0.1200 0.461 -0.164 0.872 182 182 181 0 0
0.0880 0.1719 -0.0234 0.779 -0.627 0.012 68 32 10 0 0
0.0871 0.1730 -0.0265 0.737 -0.612 0.286 66 31 10 0 0
0.0877 0.1724 -0.0295 0.763 -0.573 0.299 59 26 8 0 0
0.1313 0.1234 -0.0896 0.574 -0.811 0.114 65 33 15 0 0
0.1316 0.1232 -0.0925 0.574 -0.811 0.114 64 35 21 0 0
0.1303 0.1247 -0.0957 0.451 -0.781 -0.432 92 70 59 0 0
0.1339 0.1206 -0.0980 0.491 -0.562 0.665 86 68 58 0 0
0.1699 0.0802 -0.1499 0.839 -0.520 0.157 69 45 34 0 0
0.1479 0.1079 -0.2106 0.690 -0.575 -0.441 64 47 39 0 0
0.1467 0.1095 -0.2139 0.645 -0.515 -0.564 64 46 39 0 0
0.1265 0.1363 -0.3074 0.803 -0.383 -0.457 78 64 54 0 0
0.1253 0.1379 -0.3109 0.803 -0.383 -0.457 83 63 51 0 0
0.1271 0.1358 -0.3134 0.881 -0.400 0.253 68 40 21 0 0
0.1235 0.1422 -0.3765 0.693 -0.659 0.292 60 40 27 0 0
0.1322 0.1324 -0.3887 0.647 -0.640 0.416 72 43 35 0 0
0.1338 0.1306 -0.3912 0.845 -0.529 -0.078 63 35 23 0 0
0.1104 0.1636 -0.5572 0.641 -0.732 -0.231 89 63 40 0 0
0.1195 0.1573 -0.6858 0.826 -0.224 0.517 73 42 23 0 0
0.1218 0.1547 -0.6909 0.821 -0.442 0.362 72 40 21 0 0
0.1255 0.1513 -0.7182 0.862 -0.312 0.399 67 34 15 0 0
0.1285 0.1481 -0.7294 0.707 -0.707 0.009 67 35 17 0 0
0.1425 0.1338 -0.7889 0.539 -0.763 0.357 62 33 17 0 0
0.1478 0.1280 -0.8015 0.694 -0.655 0.299 65 36 18 0 0
0.1610 0.1125 -0.8016 0.974 -0.096 0.205 63 35 19 0 0
0.1665 0.1069 -0.8268 0.708 -0.702 -0.074 67 33 15 0 0
0.1679 0.1083 -0.9143 0.829 -0.558 0.039 97 69 46 0 0
0.1859 0.0887 -0.9614 0.668 -0.622 0.410 93 76 66 0 0
0.1888 0.0855 -0.9654 0.791 -0.611 0.021 88 71 63 0 0
0.1890 0.0860 -0.9915 0.700 -0.618 -0.358 97 80 70 0 0
0.2156 0.0563 -1.0320 0.969 -0.247 0.007 84 48 18 0 0
0.0520 0.2045 0.1200 0.461 -0.164 0.872 182 182 182 0 0
0.0891 0.1624 0.0841 0.327 -0.832 0.447 68 33 11 0 0
0.0933 0.1584 0.0576 0.516 -0.855 -0.057 72 36 12 0 0
0.0932 0.1586 0.0546 0.516 -0.855 -0.057 72 36 12 0 0
0.0854 0.1695 0.0006 0.779 -0.626 0.024 67 28 6 0 0
0.0850 0.1701 -0.0024 0.756 -0.652 -0.049 67 28 6 0 0
0.0852 0.1706 -0.0265 0.763 -0.573 0.299 64 29 8 0 0
0.0859 0.1700 -0.0295 0.763 -0.573 0.299 58 25 9 0 0
0.0940 0.1615 -0.0617 0.212 -0.410 0.887 49 28 20 0 0
0.1289 0.1217 -0.0897 0.666 -0.705 0.245 61 28 13 0 0
0.1603 0.0860 -0.1196 0.655 -0.591 0.470 138 111 95 0 0
0.1665 0.0797 -0.1502 0.568 -0.804 -0.174 71 48 36 0 0
0.1455 0.1063 -0.2107 0.847 -0.531 0.005 64 47 39 0 0
0.1450 0.1069 -0.2138 0.723 -0.474 -0.503 63 46 38 0 0
0.1430 0.1096 -0.2233 0.900 -0.372 -0.226 62 43 36 0 0
0.1411 0.1122 -0.2327 0.933 -0.175 -0.313 63 44 37 0 0
0.1420 0.1113 -0.2355 0.977 -0.203 -0.066 63 44 37 0 0
0.1255 0.1329 -0.3071 0.638 -0.556 -0.533 62 48 39 0 0
0.1200 0.1409 -0.3553 0.916 -0.399 0.043 57 33 21 0 0
0.1198 0.1412 -0.3584 0.769 -0.604 0.210 54 32 19 0 0
0.1210 0.1401 -0.3673 0.723 -0.559 0.406 47 31 25 0 0
0.1217 0.1395 -0.3733 0.758 -0.613 0.222 65 46 37 0 0
0.1222 0.1390 -0.3762 0.731 -0.634 0.252 65 45 33 0 0
0.1301 0.1303 -0.3888 0.647 -0.640 0.416 70 42 33 0 0
0.1309 0.1293 -0.3915 0.647 -0.640 0.416 58 30 19 0 0
0.1319 0.1283 -0.3942 0.749 -0.562 -0.352 60 32 20 0 0
0.1193 0.1525 -0.6813 0.673 -0.659 0.337 73 42 22 0 0
0.1201 0.1518 -0.6841 0.673 -0.659 0.337 72 41 21 0 0
0.1449 0.1262 -0.7889 0.861 -0.314 0.399 58 29 13 0 0
0.1715 0.0981 -0.8767 0.935 -0.309 -0.173 83 58 36 0 0
0.1717 0.0999 -0.9390 0.839 -0.405 0.363 55 27 13 0 0
0.1724 0.0991 -0.9416 0.839 -0.405 0.363 55 27 13 0 0
0.1832 0.0873 -0.9619 0.646 -0.746 0.163 95 79 70 0 0
0.1852 0.0849 -0.9634 0.579 -0.776 0.248 93 76 67 0 0
0.1854 0.0848 -0.9665 0.580 -0.815 -0.009 92 75 67 0 0
0.1913 0.0782 -0.9776 0.976 -0.186 0.112 89 72 62 0 0
0.0494 0.2029 0.1199 0.403 -0.120 0.907 182 182 182 0 0
0.0932 0.1526 0.0988 0.687 -0.682 0.250 74 38 13 0 0
0.0877 0.1595 0.0841 0.664 -0.690 0.287 67 34 11 0 0
0.0835 0.1671 0.0006 0.779 -0.626 0.024 63 27 7 0 0
0.0834 0.1673 -0.0024 0.747 -0.660 -0.079 64 27 7 0 0
0.0836 0.1681 -0.0355 0.779 -0.545 0.310 52 22 8 0 0
0.0891 0.1626 -0.0591 0.656 -0.488 0.576 55 28 16 0 0
0.0914 0.1599 -0.0618 0.581 -0.277 0.765 52 29 19 0 0
0.1683 0.0727 -0.1350 0.575 -0.780 0.247 71 35 16 0 0
0.1426 0.1053 -0.2139 0.679 -0.509 -0.529 62 45 37 0 0
0.1423 0.1058 -0.2170 0.745 -0.608 -0.275 61 44 36 0 0
0.1407 0.1077 -0.2204 0.822 -0.562 -0.089 62 43 36 0 0
0.1415 0.1069 -0.2231 0.903 -0.423 0.075 62 43 36 0 0
0.1420 0.1064 -0.2260 0.935 -0.352 0.032 61 42 35 0 0
0.1401 0.1087 -0.2295 0.888 -0.022 -0.460 62 43 36 0 0
0.1416 0.1070 -0.2321 0.955 -0.134 -0.263 62 43 36 0 0
0.1412 0.1076 -0.2352 0.976 -0.206 -0.072 62 43 36 0 0
0.1270 0.1270 -0.3212 0.538 -0.824 -0.175 70 37 19 0 0
0.1179 0.1388 -0.3584 0.769 -0.604 0.210 61 39 26 0 0
0.1201 0.1367 -0.3700 0.647 -0.755 -0.108 55 37 31 0 0
0.1199 0.1370 -0.3732 0.639 -0.755 0.146 64 45 37 0 0
0.1304 0.1252 -0.3878 0.979 -0.198 -0.050 69 40 31 0 0
0.1080 0.1561 -0.5335 0.961 -0.202 0.191 76 44 23 0 0
0.1171 0.1489 -0.6356 0.869 -0.463 -0.174 78 44 24 0 0
0.1241 0.1431 -0.7097 0.760 -0.626 0.174 70 37 18 0 0
0.1241 0.1432 -0.7130 0.806 -0.591 -0.045 68 35 16 0 0
0.1236 0.1440 -0.7166 0.736 -0.673 -0.074 66 33 14 0 0
0.1451 0.1215 -0.7938 0.997 -0.071 0.021 59 30 14 0 0
0.1810 0.0851 -0.9619 0.673 -0.717 0.184 96 81 72 0 0
0.1832 0.0827 -0.9633 0.475 -0.872 -0.120 91 74 66 0 0
0.2062 0.0574 -1.0077 0.740 -0.673 0.005 74 37 11 0 0
0.2102 0.0555 -1.0955 0.834 -0.546 -0.074 53 27 15 0 0
0.0869 0.1603 -0.0531 0.849 -0.466 0.250 51 22 10 0 0
0.0870 0.1604 -0.0591 0.640 -0.556 0.531 52 26 13 0 0
0.1571 0.0810 -0.1224 0.598 -0.691 0.405 109 75 53 0 0
0.1663 0.0708 -0.1351 0.727 -0.662 0.182 72 38 17 0 0
0.1674 0.0699 -0.1464 0.681 -0.621 0.388 68 42 30 0 0
0.1679 0.0695 -0.1520 0.734 -0.671 0.102 70 50 39 0 0
0.1463 0.0964 -0.2095 0.311 -0.912 0.266 62 44 37 0 0
0.1265 0.1221 -0.2932 0.953 -0.297 0.063 52 32 19 0 0
0.1248 0.1254 -0.3336 0.801 -0.289 -0.523 62 37 27 0 0
0.1159 0.1365 -0.3584 0.818 -0.464 0.340 55 33 20 0 0
0.1177 0.1349 -0.3733 0.745 -0.418 0.520 54 34 28 0 0
0.1187 0.1338 -0.3760 0.687 -0.660 0.303 55 34 25 0 0
0.1209 0.1313 -0.3783 0.637 -0.732 0.241 53 28 16 0 0
0.1321 0.1186 -0.3864 0.751 -0.408 -0.519 67 39 29 0 0
0.1512 0.0972 -0.4124 0.953 -0.304 0.010 99 74 57 0 0
0.1395 0.1225 -0.7732 0.716 -0.643 0.270 60 32 14 0 0
0.1378 0.1247 -0.7777 0.906 -0.415 0.078 59 31 13 0 0
0.1391 0.1232 -0.7801 0.760 -0.422 0.494 59 31 14 0 0
0.1651 0.0969 -0.8981 0.652 -0.684 -0.327 72 45 28 0 0
0.1644 0.0979 -0.9020 0.782 -0.537 -0.316 73 45 29 0 0
0.1785 0.0834 -0.9622 0.574 -0.786 0.230 91 76 68 0 0
0.1805 0.0812 -0.9638 0.487 -0.816 0.311 88 72 64 0 0
0.1862 0.0750 -0.9784 0.937 -0.340 0.083 95 78 68 0 0
0.1858 0.0759 -0.9919 0.753 -0.622 0.213 95 77 68 0 0
0.2041 0.0552 -1.0076 0.532 -0.804 0.264 72 35 9 0 0
0.0512 0.1915 0.1198 0.415 -0.737 0.533 182 182 182 0 0
0.0843 0.1586 -0.0502 0.869 -0.492 -0.043 48 20 8 0 0
0.1658 0.0668 -0.1291 0.841 -0.494 0.220 79 38 13 0 0
0.1651 0.0681 -0.1436 0.639 -0.745 0.190 74 45 29 0 0
0.1657 0.0675 -0.1463 0.613 -0.744 0.266 71 45 33 0 0
0.1454 0.0930 -0.2093 -0.011 -0.979 0.204 63 44 37 0 0
0.1452 0.0933 -0.2123 0.286 -0.856 0.430 62 43 36 0 0
0.1458 0.0927 -0.2151 0.377 -0.524 0.764 61 42 35 0 0
0.1218 0.1244 -0.3370 0.659 -0.449 -0.604 37 17 12 0 0
0.1152 0.1328 -0.3610 0.777 -0.416 0.473 49 26 14 0 0
0.1498 0.0941 -0.4030 0.901 -0.427 0.072 71 40 26 0 0
0.1502 0.0937 -0.4059 0.869 -0.477 -0.131 103 79 69 0 0
0.1499 0.0941 -0.4091 0.869 -0.477 -0.131 97 76 64 0 0
0.1566 0.0873 -0.4367 0.133 -0.990 -0.039 84 57 38 0 0
0.1055 0.1480 -0.4878 0.833 -0.506 0.224 76 45 25 0 0
0.1074 0.1460 -0.4933 0.818 -0.360 0.449 73 42 22 0 0
0.1085 0.1450 -0.4992 0.819 -0.482 0.312 70 39 19 0 0
0.1083 0.1455 -0.5057 0.765 -0.572 -0.295 66 35 15 0 0
0.1064 0.1479 -0.5130 0.793 -0.541 0.280 70 39 19 0 0
0.1070 0.1473 -0.5159 0.793 -0.541 0.280 80 49 28 0 0
0.1056 0.1492 -0.5262 0.821 -0.561 -0.103 74 43 22 0 0
0.1064 0.1492 -0.5548 0.850 -0.525 0.038 85 53 28 0 0
0.1123 0.1434 -0.5872 0.719 -0.695 0.007 83 48 23 0 0
0.1100 0.1465 -0.6014 0.874 -0.423 0.240 76 42 18 0 0
0.1159 0.1402 -0.6175 0.857 -0.498 -0.135 83 48 26 0 0
0.1160 0.1402 -0.6207 0.767 -0.641 0.015 83 48 26 0 0
0.1149 0.1417 -0.6278 0.430 -0.884 -0.183 85 50 28 0 0
0.1115 0.1462 -0.6461 0.443 -0.896 0.036 76 41 21 0 0
0.1120 0.1458 -0.6491 0.731 -0.633 0.255 73 38 18 0 0
0.1141 0.1438 -0.6642 0.856 -0.498 0.143 67 35 14 0 0
0.1149 0.1429 -0.6669 0.806 -0.571 0.155 65 33 12 0 0
0.1154 0.1428 -0.6797 0.980 -0.158 0.119 63 31 14 0 0
0.1336 0.1238 -0.7464 0.701 -0.649 0.294 56 26 13 0 0
0.1506 0.1063 -0.8128 0.969 -0.103 0.226 58 29 11 0 0
0.1735 0.0805 -0.8344 0.861 -0.476 0.178 65 32 11 0 0
0.1738 0.0802 -0.8373 0.864 -0.465 0.194 68 32 10 0 0
0.1650 0.0936 -0.9359 0.758 -0.605 0.243 54 26 15 0 0
0.1841 0.0728 -0.9783 0.889 -0.340 0.307 95 80 71 0 0
0.1848 0.0721 -0.9810 0.889 -0.340 0.307 92 76 68 0 0
0.1846 0.0724 -0.9844 0.858 -0.461 -0.226 92 74 66 0 0
0.2019 0.0536 -1.0208 0.858 -0.499 0.120 72 35 9 0 0
0.2071 0.0498 -1.0910 0.754 -0.552 0.357 47 25 14 0 0
0.2085 0.0486 -1.1028 0.786 -0.618 -0.025 63 36 16 0 0
0.2138 0.0429 -1.1170 0.585 -0.769 0.257 92 59 26 0 0
0.0476 0.1909 0.1228 0.527 -0.753 0.394 182 182 182 0 0
0.0857 0.1526 -0.0558 0.526 -0.840 0.131 51 23 9 0 0
0.1512 0.0787 -0.1083 0.608 -0.791 -0.069 117 90 79 0 0
0.1506 0.0797 -0.1200 0.710 -0.699 0.091 139 113 99 0 0
0.1613 0.0684 -0.1526 0.412 -0.891 -0.189 69 49 38 0 0
0.1364 0.0988 -0.2051 0.509 -0.851 0.134 63 44 37 0 0
0.1148 0.1271 -0.3110 0.726 -0.665 0.176 79 62 53 0 0
0.1199 0.1221 -0.3370 0.809 -0.474 -0.346 34 15 10 0 0
0.1142 0.1292 -0.3575 0.963 -0.148 0.224 52 30 17 0 0
0.1150 0.1284 -0.3603 0.692 -0.683 0.234 51 27 16 0 0
0.1488 0.0907 -0.4026 0.910 -0.397 -0.120 75 40 23 0 0
0.1039 0.1463 -0.5228 0.855 -0.499 -0.138 78 47 26 0 0
0.1035 0.1470 -0.5262 0.710 -0.693 -0.128 79 48 27 0 0
0.1060 0.1443 -0.5346 0.845 -0.475 0.245 75 43 20 0 0
0.1060 0.1445 -0.5410 0.762 -0.641 0.090 80 48 25 0 0
0.1097 0.1411 -0.5681 0.730 -0.634 0.255 84 52 29 0 0
0.1109 0.1403 -0.5868 0.707 -0.662 0.249 80 47 22 0 0
0.1096 0.1438 -0.6492 0.740 -0.570 0.358 76 41 20 0 0
0.1167 0.1366 -0.6809 0.903 -0.429 -0.039 61 32 14 0 0
0.1253 0.1275 -0.7080 0.875 -0.465 0.137 63 31 12 0 0
0.1256 0.1273 -0.7111 0.894 -0.445 0.057 61 30 10 0 0
0.1263 0.1265 -0.7139 0.787 -0.617 -0.019 59 29 9 0 0
0.1317 0.1210 -0.7364 0.949 -0.202 0.241 56 27 9 0 0
0.1490 0.1033 -0.8058 0.852 -0.506 0.134 56 27 11 0 0
0.1566 0.0954 -0.8327 0.372 -0.866 0.336 52 22 7 0 0
0.1702 0.0797 -0.8352 0.830 -0.488 0.271 63 30 11 0 0
0.1696 0.0815 -0.8681 0.600 -0.780 0.176 89 62 40 0 0
0.1634 0.0903 -0.9190 0.623 -0.775 0.103 97 70 46 0 0
0.1630 0.0913 -0.9358 0.743 -0.611 0.272 56 28 17 0 0
0.2000 0.0508 -1.0075 0.439 -0.728 0.527 71 34 8 0 0
0.0427 0.1920 0.1228 0.091 -0.972 0.216 182 182 182 0 0
0.0442 0.1902 0.1197 0.326 -0.680 0.657 181 179 178 0 0
0.0852 0.1474 -0.0197 0.557 -0.694 0.456 65 33 12 0 0
0.1494 0.0764 -0.1083 0.397 -0.877 0.270 112 85 74 0 0
0.1617 0.0632 -0.1378 0.513 -0.820 -0.255 70 38 20 0 0
0.1612 0.0638 -0.1407 0.513 -0.820 -0.255 70 39 21 0 0
0.1608 0.0643 -0.1437 0.481 -0.791 -0.377 68 39 23 0 0
0.1576 0.0684 -0.1530 0.465 -0.884 -0.051 70 50 39 0 0
0.1574 0.0686 -0.1559 0.517 -0.856 -0.014 68 48 37 0 0
0.1583 0.0677 -0.1586 0.733 -0.655 0.185 66 46 35 0 0
0.1367 0.0939 -0.2016 0.725 -0.652 0.225 62 43 36 0 0
0.1244 0.1093 -0.2406 0.987 0.153 0.037 57 38 31 0 0
0.1288 0.1044 -0.2454 0.897 -0.268 0.351 58 39 32 0 0
0.1286 0.1046 -0.2484 0.940 -0.126 0.317 58 39 32 0 0
0.1134 0.1240 -0.3077 0.666 -0.731 0.146 74 60 54 0 0
0.1128 0.1248 -0.3110 0.726 -0.665 0.176 82 67 59 0 0
0.1169 0.1208 -0.3342 0.870 -0.458 0.180 54 31 20 0 0
0.1178 0.1199 -0.3370 0.853 -0.520 -0.041 34 16 10 0 0
0.1152 0.1230 -0.3440 0.875 -0.460 0.149 44 25 13 0 0
0.1131 0.1259 -0.3572 0.730 -0.644 -0.229 54 32 19 0 0
0.1129 0.1263 -0.3603 0.692 -0.683 0.234 53 29 18 0 0
0.1111 0.1288 -0.3765 0.853 -0.495 -0.167 44 24 15 0 0
0.1260 0.1122 -0.3925 0.984 -0.178 -0.009 60 31 23 0 0
0.1285 0.1093 -0.3946 0.925 -0.152 0.349 58 28 18 0 0
0.1478 0.0874 -0.4022 0.831 -0.412 -0.375 78 41 27 0 0
0.1512 0.0846 -0.4373 0.613 -0.721 -0.323 80 55 35 0 0
0.1505 0.0855 -0.4407 0.773 -0.383 0.505 83 57 38 0 0
0.1033 0.1426 -0.5316 0.762 -0.641 0.090 79 47 24 0 0
0.1035 0.1425 -0.5347 0.762 -0.641 0.090 77 45 22 0 0
0.1038 0.1423 -0.5378 0.762 -0.641 0.090 80 48 25 0 0
0.1040 0.1422 -0.5409 0.762 -0.641 0.090 81 46 24 0 0
0.1077 0.1387 -0.5680 0.631 -0.689 0.355 85 53 30 0 0
0.1155 0.1332 -0.6802 0.850 -0.516 0.106 63 34 16 0 0
0.1244 0.1240 -0.7137 0.787 -0.617 -0.019 61 31 11 0 0
0.1298 0.1183 -0.7298 0.771 -0.624 0.123 55 26 11 0 0
0.1306 0.1176 -0.7325 0.908 -0.404 0.107 56 27 11 0 0
0.1304 0.1179 -0.7359 0.965 -0.240 0.103 57 28 10 0 0
0.1307 0.1177 -0.7390 0.965 -0.240 0.103 56 27 12 0 0
0.1334 0.1147 -0.7469 0.931 0.208 0.300 53 24 10 0 0
0.1484 0.0994 -0.8079 0.779 -0.602 -0.178 56 27 13 0 0
0.1658 0.0816 -0.8760 0.870 -0.487 -0.077 83 58 38 0 0
0.1611 0.0883 -0.9223 0.637 -0.768 0.067 104 79 53 0 0
0.1608 0.0890 -0.9325 0.774 -0.562 0.292 69 43 27 0 0
0.1733 0.0756 -0.9644 0.970 -0.230 0.074 94 79 71 0 0
0.1962 0.0503 -0.9961 0.483 -0.756 0.442 73 38 17 0 0
0.1971 0.0494 -0.9985 0.483 -0.756 0.442 74 37 14 0 0
0.1983 0.0481 -1.0007 0.650 -0.498 0.574 74 37 11 0 0
0.2090 0.0375 -1.0587 0.713 -0.698 -0.075 97 70 43 0 0
0.2080 0.0390 -1.0695 0.774 -0.628 -0.085 95 67 43 0 0
0.2027 0.0457 -1.0879 0.639 -0.706 0.304 67 42 29 0 0
0.2033 0.0451 -1.0906 0.654 -0.674 0.343 48 25 17 0 0
0.2040 0.0444 -1.0932 0.654 -0.674 0.343 44 21 13 0 0
0.0401 0.1903 0.1227 0.074 -0.996 0.049 181 181 181 0 0
0.0859 0.1386 0.0927 0.828 -0.558 -0.041 65 32 12 0 0
0.0840 0.1423 0.0427 0.736 -0.673 0.067 66 30 8 0 0
0.0844 0.1420 0.0398 0.615 -0.781 0.105 64 28 6 0 0
0.0848 0.1417 0.0339 0.478 -0.792 0.379 66 30 8 0 0
0.0804 0.1474 0.0158 0.929 -0.370 -0.027 67 30 10 0 0
0.1596 0.0611 -0.1349 0.866 -0.495 -0.071 75 39 19 0 0
0.1374 0.0885 -0.1980 0.711 -0.638 -0.296 62 43 36 0 0
0.1306 0.0966 -0.2056 0.742 -0.664 0.088 62 43 36 0 0
0.1303 0.0971 -0.2086 0.675 -0.734 0.074 61 42 35 0 0
0.1305 0.0969 -0.2115 0.800 -0.516 0.307 60 41 34 0 0
0.1308 0.0967 -0.2144 0.704 -0.662 0.257 59 40 33 0 0
0.1257 0.1036 -0.2517 0.957 -0.288 0.043 59 40 33 0 0
0.1195 0.1118 -0.2868 0.839 -0.509 0.192 54 34 23 0 0
0.1202 0.1114 -0.2988 0.907 -0.190 0.375 40 21 13 0 0
0.1100 0.1234 -0.3081 0.515 -0.853 0.086 72 60 55 0 0
0.1153 0.1181 -0.3341 0.877 -0.418 0.238 53 29 19 0 0
0.1163 0.1170 -0.3368 0.912 -0.403 -0.079 36 17 12 0 0
0.1137 0.1202 -0.3438 0.875 -0.460 0.149 41 23 15 0 0
0.1096 0.1259 -0.3763 0.705 -0.709 -0.002 40 19 9 0 0
0.1236 0.1101 -0.3834 0.572 -0.798 0.191 50 25 13 0 0
0.1487 0.0829 -0.4375 0.915 -0.382 -0.133 78 54 32 0 0
0.1039 0.1353 -0.4697 0.998 0.041 -0.045 79 50 30 0 0
0.1097 0.1351 -0.6792 0.688 -0.725 0.032 61 32 13 0 0
0.1165 0.1276 -0.6848 0.638 -0.668 0.383 59 30 11 0 0
0.1219 0.1220 -0.7074 0.620 -0.602 0.503 68 37 17 0 0
0.1225 0.1216 -0.7136 0.787 -0.617 -0.019 61 32 14 0 0
0.1276 0.1166 -0.7428 0.894 -0.422 -0.151 54 25 11 0 0
0.1283 0.1159 -0.7456 0.627 -0.778 0.045 53 24 10 0 0
0.1316 0.1121 -0.7466 0.461 -0.668 0.585 53 24 10 0 0
0.1298 0.1147 -0.7610 0.889 -0.430 -0.159 56 27 12 0 0
0.1306 0.1139 -0.7637 0.919 -0.311 0.243 56 27 11 0 0
0.1290 0.1158 -0.7680 0.959 -0.088 0.269 55 26 11 0 0
0.1469 0.0964 -0.8042 0.719 -0.649 0.249 57 28 14 0 0
0.1487 0.0944 -0.8062 0.842 -0.462 -0.278 55 26 12 0 0
0.1588 0.0862 -0.9159 0.638 -0.763 0.102 103 76 53 0 0
0.1590 0.0860 -0.9190 0.638 -0.763 0.102 106 80 57 0 0
0.2069 0.0354 -1.0587 0.713 -0.698 -0.075 97 70 43 0 0
0.2069 0.0356 -1.0620 0.748 -0.654 -0.110 96 69 41 0 0
0.2057 0.0371 -1.0697 0.796 -0.605 0.005 96 69 43 0 0
0.2045 0.0393 -1.0939 0.798 -0.494 0.345 50 27 15 0 0
0.0820 0.1401 0.0427 0.736 -0.673 0.067 66 30 8 0 0
0.0831 0.1392 0.0339 0.596 -0.784 0.173 64 28 6 0 0
0.1445 0.0736 -0.1172 0.908 -0.400 -0.122 161 139 131 0 0
0.1454 0.0726 -0.1199 0.842 -0.459 0.282 149 127 112 0 0
0.1460 0.0720 -0.1227 0.842 -0.459 0.282 110 76 52 0 0
0.1589 0.0575 -0.1318 0.656 -0.727 0.201 79 40 14 0 0
0.1547 0.0627 -0.1441 0.853 -0.433 -0.293 66 36 19 0 0
0.1550 0.0625 -0.1499 0.591 -0.634 0.499 65 43 31 0 0
0.1523 0.0657 -0.1533 0.602 -0.791 0.108 66 46 35 0 0
0.1523 0.0658 -0.1562 0.644 -0.737 0.206 68 49 38 0 0
0.1381 0.0826 -0.1738 0.657 -0.730 -0.191 64 45 38 0 0
0.1381 0.0826 -0.1767 0.741 -0.668 0.060 64 45 38 0 0
0.1387 0.0820 -0.1795 0.747 -0.631 0.209 63 44 37 0 0
0.1385 0.0824 -0.1825 0.895 -0.444 -0.046 63 44 37 0 0
0.1361 0.0854 -0.1919 0.615 -0.533 -0.582 63 44 37 0 0
0.1353 0.0866 -0.2010 0.720 -0.603 -0.342 61 42 35 0 0
0.1311 0.0916 -0.2050 0.873 -0.442 -0.206 61 42 35 0 0
0.1286 0.0945 -0.2085 0.691 -0.693 0.206 60 41 34 0 0
0.1190 0.1079 -0.2894 0.822 -0.561 -0.098 52 32 21 0 0
0.1075 0.1238 -0.3763 0.705 -0.709 -0.002 44 23 12 0 0
0.1049 0.1295 -0.4683 0.761 -0.589 -0.273 80 50 31 0 0
0.1048 0.1300 -0.4779 0.502 -0.809 0.305 83 55 33 0 0
0.0998 0.1370 -0.5217 0.766 -0.626 0.144 69 38 18 0 0
0.1016 0.1353 -0.5336 0.716 -0.690 0.110 77 45 21 0 0
0.1019 0.1351 -0.5367 0.716 -0.690 0.110 76 44 20 0 0
0.1019 0.1351 -0.5398 0.806 -0.581 0.114 73 41 18 0 0
0.1046 0.1327 -0.5578 0.732 -0.659 -0.174 79 45 20 0 0
0.1057 0.1315 -0.5604 0.806 -0.592 0.016 79 45 20 0 0
0.1202 0.1196 -0.7137 0.622 -0.776 0.105 56 27 11 0 0
0.1276 0.1126 -0.7643 0.739 -0.477 0.475 56 27 11 0 0
0.1455 0.0934 -0.8037 0.704 -0.501 0.504 56 27 13 0 0
0.1775 0.0618 -0.9701 0.751 -0.558 0.354 95 81 72 0 0
0.1763 0.0634 -0.9745 0.624 -0.700 0.348 86 72 63 0 0
0.2045 0.0337 -1.0590 0.612 -0.784 -0.102 93 66 40 0 0
0.2043 0.0340 -1.0625 0.612 -0.784 -0.102 92 65 36 0 0
0.1984 0.0416 -1.0880 0.654 -0.674 0.343 71 46 32 0 0
0.0811 0.1356 0.0780 0.852 -0.497 0.166 69 34 12 0 0
0.0809 0.1389 -0.0226 0.725 -0.627 0.286 51 21 4 0 0
0.0815 0.1382 -0.0255 0.590 -0.803 0.084 49 18 5 0 0
0.0819 0.1379 -0.0285 0.488 -0.873 -0.014 47 17 6 0 0
0.1454 0.0680 -0.1109 0.668 -0.738 0.091 105 78 66 0 0
0.1435 0.0705 -0.1228 0.879 -0.476 0.042 107 74 48 0 0
0.1529 0.0606 -0.1499 0.579 -0.636 0.509 64 42 29 0 0
0.1512 0.0628 -0.1589 0.678 -0.721 -0.142 68 48 37 0 0
0.1512 0.0629 -0.1618 0.528 -0.847 0.060 64 45 36 0 0
0.1263 0.0928 -0.2116 0.927 -0.270 0.260 59 40 33 0 0
0.1238 0.0967 -0.2481 0.491 -0.532 0.690 55 36 29 0 0
0.1117 0.1138 -0.3555 0.542 -0.831 0.129 45 22 11 0 0
0.1060 0.1208 -0.3761 0.696 -0.718 0.018 45 23 12 0 0
0.1030 0.1270 -0.4682 0.761 -0.589 -0.273 75 46 26 0 0
0.0995 0.1325 -0.5144 0.774 -0.633 -0.019 67 35 14 0 0
0.0987 0.1337 -0.5275 0.775 -0.601 0.196 74 42 21 0 0
0.1003 0.1321 -0.5332 0.643 -0.743 0.185 79 47 24 0 0
0.1021 0.1303 -0.5387 0.673 -0.696 0.251 77 45 22 0 0
0.1021 0.1304 -0.5419 0.840 -0.541 0.049 80 45 22 0 0
0.1022 0.1303 -0.5450 0.840 -0.541 0.049 81 47 22 0 0
0.1035 0.1294 -0.5636 0.561 -0.742 0.366 86 52 27 0 0
0.1023 0.1309 -0.5675 0.759 -0.601 -0.250 86 52 27 0 0
0.1024 0.1309 -0.5707 0.569 -0.798 -0.199 86 52 27 0 0
0.1402 0.0944 -0.7897 0.558 -0.826 0.084 57 28 12 0 0
0.1413 0.0933 -0.7954 0.549 -0.782 0.294 57 28 12 0 0
0.1624 0.0702 -0.8315 0.842 -0.538 -0.036 61 28 11 0 0
0.1628 0.0709 -0.8668 0.803 -0.571 0.168 90 63 41 0 0
0.1860 0.0482 -0.9899 0.724 -0.578 0.376 77 58 43 0 0
0.1868 0.0473 -0.9924 0.662 -0.523 0.537 77 51 36 0 0
0.1962 0.0395 -1.0881 0.654 -0.674 0.343 71 46 31 0 0
0.2011 0.0340 -1.0930 0.743 -0.559 0.368 45 22 13 0 0
0.0794 0.1324 0.1014 0.828 -0.560 0.020 105 67 34 0 0
0.0818 0.1300 0.0868 0.766 -0.626 0.147 66 31 9 0 0
0.0767 0.1374 0.0337 0.749 -0.606 0.269 66 30 8 0 0
0.0773 0.1368 0.0308 0.749 -0.606 0.269 67 31 9 0 0
0.0772 0.1371 0.0278 0.750 -0.659 -0.061 68 32 10 0 0
0.0695 0.1468 -0.0055 0.536 -0.843 -0.037 65 33 12 0 0
0.0729 0.1442 -0.0502 0.618 -0.740 0.265 46 19 8 0 0
0.1545 0.0540 -0.1348 0.688 -0.725 -0.010 70 34 14 0 0
0.1480 0.0624 -0.1650 0.520 -0.765 -0.379 64 45 38 0 0
0.1085 0.1127 -0.3497 0.542 -0.831 0.129 46 23 13 0 0
0.1088 0.1124 -0.3526 0.542 -0.831 0.129 40 20 11 0 0
0.1091 0.1129 -0.3804 0.803 -0.549 0.231 43 21 10 0 0
0.1449 0.0739 -0.4365 0.827 -0.521 0.211 78 46 27 0 0
0.1020 0.1236 -0.4678 0.748 -0.468 -0.471 74 45 25 0 0
0.0924 0.1360 -0.5168 0.792 -0.562 0.238 67 35 14 0 0
0.1012 0.1270 -0.5509 0.768 -0.638 0.059 84 50 25 0 0
0.1010 0.1273 -0.5542 0.759 -0.640 0.121 85 51 26 0 0
0.1013 0.1271 -0.5572 0.759 -0.640 0.121 84 50 25 0 0
0.1016 0.1268 -0.5603 0.759 -0.640 0.121 83 49 24 0 0
0.1000 0.1289 -0.5708 0.644 -0.733 -0.221 86 52 27 0 0
0.0997 0.1294 -0.5741 0.586 -0.783 -0.208 84 50 25 0 0
0.0996 0.1296 -0.5774 0.541 -0.833 -0.116 87 53 27 0 0
0.0992 0.1302 -0.5841 0.454 -0.889 0.057 86 52 26 0 0
0.1130 0.1185 -0.7156 0.822 -0.329 0.465 52 23 8 0 0
0.1147 0.1167 -0.7210 0.852 -0.343 0.394 52 23 8 0 0
0.1157 0.1157 -0.7236 0.820 -0.416 0.392 53 24 8 0 0
0.1199 0.1113 -0.7404 0.746 -0.594 0.301 51 22 8 0 0
0.1217 0.1097 -0.7523 0.476 -0.875 0.089 52 23 9 0 0
0.1219 0.1095 -0.7554 0.476 -0.875 0.089 52 23 9 0 0
0.1223 0.1091 -0.7584 0.391 -0.918 0.062 52 23 9 0 0
0.1224 0.1092 -0.7616 0.426 -0.864 0.267 52 23 8 0 0
0.1379 0.0924 -0.7898 0.699 -0.708 0.097 53 24 8 0 0
0.1382 0.0922 -0.7929 0.699 -0.708 0.097 54 25 9 0 0
0.1385 0.0918 -0.7959 0.487 -0.780 0.393 55 26 11 0 0
0.1575 0.0711 -0.8240 0.860 -0.481 -0.171 54 22 7 0 0
0.1585 0.0700 -0.8264 0.780 -0.626 -0.020 58 25 9 0 0
0.1590 0.0704 -0.8583 0.676 -0.725 0.129 84 50 23 0 0
0.1593 0.0701 -0.8613 0.676 -0.725 0.129 87 58 33 0 0
0.1597 0.0698 -0.8643 0.494 -0.854 0.164 90 64 39 0 0
0.1558 0.0746 -0.8771 0.807 -0.590 -0.010 82 57 37 0 0
0.1576 0.0744 -0.9411 0.252 -0.788 0.562 49 21 10 0 0
0.1721 0.0589 -0.9711 0.944 -0.249 0.216 89 76 67 0 0
0.1825 0.0475 -0.9879 0.597 -0.460 0.657 84 66 56 0 0
0.1838 0.0462 -0.9900 0.736 -0.556 0.386 81 62 49 0 0
0.1867 0.0429 -0.9906 0.915 -0.005 0.404 77 53 39 0 0
0.1909 0.0384 -0.9997 0.758 -0.616 0.217 73 38 12 0 0
0.1914 0.0379 -1.0025 0.758 -0.616 0.217 71 35 9 0 0
0.1999 0.0302 -1.0691 0.830 -0.557 0.015 95 68 43 0 0
0.1992 0.0317 -1.0928 0.701 -0.575 0.422 44 21 14 0 0
0.2000 0.0312 -1.1051 0.636 -0.751 0.180 64 31 10 0 0
0.2007 0.0304 -1.1076 0.589 -0.768 0.250 72 35 11 0 0
0.0777 0.1299 0.1014 0.861 -0.494 0.116 102 64 27 0 0
0.0739 0.1352 0.0632 0.629 -0.775 0.057 70 34 12 0 0
0.0742 0.1350 0.0602 0.654 -0.736 0.176 71 35 13 0 0
0.0744 0.1350 0.0543 0.734 -0.645 0.213 73 37 15 0 0
0.0748 0.1345 0.0514 0.734 -0.645 0.213 73 37 15 0 0
0.0749 0.1350 0.0337 0.749 -0.606 0.269 69 33 9 0 0
0.0753 0.1346 0.0307 0.724 -0.626 0.290 66 30 6 0 0
0.0750 0.1350 0.0278 0.666 -0.745 -0.037 65 29 6 0 0
0.0739 0.1374 -0.0080 0.662 -0.654 0.367 61 27 8 0 0
0.0747 0.1366 -0.0109 0.662 -0.654 0.367 59 26 8 0 0
0.0779 0.1334 -0.0255 0.618 -0.730 0.291 47 17 6 0 0
0.0727 0.1400 -0.0500 0.766 -0.642 -0.035 47 21 8 0 0
0.0729 0.1399 -0.0530 0.704 -0.601 0.380 48 22 9 0 0
0.1393 0.0663 -0.1142 0.394 -0.919 -0.002 134 108 98 0 0
0.1394 0.0663 -0.1171 0.394 -0.919 -0.002 149 126 119 0 0
0.1400 0.0659 -0.1257 0.774 -0.628 -0.079 90 49 12 0 0
0.1398 0.0662 -0.1286 0.774 -0.628 -0.079 85 40 8 0 0
0.1523 0.0522 -0.1349 0.661 -0.745 0.082 72 37 13 0 0
0.1458 0.0601 -0.1535 0.726 -0.688 -0.019 68 47 36 0 0
0.1429 0.0643 -0.1832 0.357 -0.867 0.348 61 43 34 0 0
0.1148 0.0984 -0.2616 0.106 -0.994 -0.038 55 36 29 0 0
0.1063 0.1106 -0.3467 0.509 -0.851 0.132 45 25 18 0 0
0.1064 0.1106 -0.3497 0.565 -0.823 0.055 45 23 17 0 0
0.1066 0.1104 -0.3527 0.611 -0.759 0.224 35 17 9 0 0
0.1039 0.1142 -0.3784 0.757 -0.535 0.375 41 18 10 0 0
0.1152 0.1015 -0.3804 0.780 -0.439 0.445 46 24 13 0 0
0.1256 0.0900 -0.3917 0.394 -0.385 0.834 55 26 15 0 0
0.1357 0.0792 -0.4121 0.669 -0.561 -0.487 103 82 70 0 0
0.1433 0.0712 -0.4333 0.753 -0.656 0.054 75 43 24 0 0
0.1434 0.0712 -0.4363 0.753 -0.656 0.054 78 50 31 0 0
0.1407 0.0744 -0.4436 0.378 -0.460 -0.804 79 52 33 0 0
0.0981 0.1260 -0.5546 0.640 -0.767 0.058 85 51 26 0 0
0.0993 0.1247 -0.5572 0.759 -0.640 0.121 84 50 25 0 0
0.1170 0.1100 -0.7377 0.840 -0.449 0.306 53 24 10 0 0
0.1184 0.1085 -0.7433 0.823 -0.532 0.197 55 26 11 0 0
0.1319 0.0941 -0.7731 0.709 -0.705 -0.015 49 19 8 0 0
0.1328 0.0932 -0.7757 0.793 -0.598 0.115 49 19 8 0 0
0.1331 0.0929 -0.7788 0.796 -0.483 0.363 50 20 9 0 0
0.1352 0.0908 -0.7870 0.818 -0.505 0.275 53 24 10 0 0
0.1404 0.0855 -0.8092 0.628 -0.596 0.501 46 19 6 0 0
0.1437 0.0819 -0.8133 0.713 -0.403 0.573 46 18 4 0 0
0.1563 0.0680 -0.8265 0.585 -0.729 0.355 58 25 9 0 0
0.1569 0.0674 -0.8293 0.599 -0.699 0.390 61 28 11 0 0
0.1579 0.0672 -0.8608 0.699 -0.675 -0.236 84 54 29 0 0
0.1567 0.0686 -0.8649 0.524 -0.846 -0.097 87 60 36 0 0
0.1541 0.0720 -0.8768 0.820 -0.571 -0.045 81 56 36 0 0
0.1512 0.0768 -0.9283 0.767 -0.639 -0.066 88 61 40 0 0
0.1692 0.0576 -0.9718 0.707 -0.675 0.209 97 84 76 0 0
0.1902 0.0347 -1.0016 0.843 -0.526 0.111 70 36 11 0 0
0.1906 0.0345 -1.0078 0.734 -0.668 0.123 67 31 9 0 0
0.2015 0.0233 -1.0493 0.649 -0.760 0.033 100 73 46 0 0
0.1982 0.0279 -1.0753 0.707 -0.706 -0.042 86 59 39 0 0
0.1973 0.0293 -1.0925 0.743 -0.559 0.368 44 22 13 0 0
0.1977 0.0292 -1.1053 0.636 -0.751 0.180 64 31 10 0 0
0.2005 0.0263 -1.1123 0.671 -0.735 0.098 88 48 18 0 0
0.0732 0.1303 0.1072 0.704 -0.148 0.694 152 120 100 0 0
0.0715 0.1334 0.0661 0.629 -0.775 0.057 70 34 12 0 0
0.0712 0.1339 0.0631 0.761 -0.624 0.179 72 36 14 0 0
0.0715 0.1336 0.0602 0.734 -0.645 0.213 74 38 16 0 0
0.0730 0.1327 0.0336 0.749 -0.606 0.269 64 28 6 0 0
0.0731 0.1327 0.0277 0.791 -0.609 0.067 68 32 11 0 0
0.0740 0.1328 -0.0108 0.467 -0.880 0.085 56 25 8 0 0
0.0741 0.1329 -0.0168 0.472 -0.881 0.024 56 27 11 0 0
0.0752 0.1320 -0.0286 0.773 -0.562 -0.294 50 20 9 0 0
0.0712 0.1371 -0.0500 0.841 -0.539 0.054 48 21 9 0 0
0.1369 0.0648 -0.1143 0.490 -0.871 -0.032 137 111 100 0 0
0.1499 0.0506 -0.1321 0.721 -0.674 0.160 75 38 12 0 0
0.1431 0.0588 -0.1536 0.782 -0.614 -0.105 66 47 36 0 0
0.1205 0.0872 -0.2474 0.778 -0.621 0.093 56 37 30 0 0
0.1068 0.1030 -0.2573 0.807 -0.356 -0.471 54 35 28 0 0
0.1177 0.0908 -0.2632 0.304 -0.952 0.034 55 36 29 0 0
0.1024 0.1104 -0.3442 0.662 -0.744 0.093 37 20 12 0 0
0.1037 0.1090 -0.3468 0.565 -0.823 0.055 45 24 18 0 0
0.1021 0.1117 -0.3783 0.757 -0.535 0.375 44 21 13 0 0
0.1135 0.0989 -0.3803 0.782 -0.514 0.352 46 24 13 0 0
0.1143 0.0981 -0.3830 0.607 -0.794 -0.049 46 23 12 0 0
0.1239 0.0875 -0.3916 0.354 -0.354 0.865 60 32 20 0 0
0.1422 0.0673 -0.4086 0.717 -0.688 0.110 117 95 82 0 0
0.1425 0.0677 -0.4358 0.352 -0.850 -0.391 80 52 35 0 0
0.1383 0.0727 -0.4437 0.317 -0.505 -0.803 80 52 33 0 0
0.1298 0.0826 -0.4506 0.366 -0.338 -0.867 70 39 21 0 0
0.0973 0.1197 -0.4680 0.770 -0.404 -0.495 77 47 28 0 0
0.0978 0.1199 -0.4899 0.869 -0.483 0.106 79 47 26 0 0
0.0975 0.1202 -0.4932 0.892 -0.430 0.136 77 45 24 0 0
0.1080 0.1138 -0.6802 0.546 -0.703 0.455 57 28 12 0 0
0.1098 0.1119 -0.6856 0.642 -0.765 0.054 55 26 10 0 0
0.1059 0.1165 -0.6912 0.828 -0.550 -0.109 54 25 9 0 0
0.1306 0.0909 -0.7725 0.793 -0.598 0.115 54 24 11 0 0
0.1309 0.0907 -0.7755 0.793 -0.598 0.115 53 23 10 0 0
0.1349 0.0866 -0.7890 0.927 -0.368 0.071 55 26 11 0 0
0.1336 0.0884 -0.8029 0.556 -0.822 -0.122 55 26 12 0 0
0.1349 0.0870 -0.8052 0.717 -0.694 -0.064 51 23 10 0 0
0.1373 0.0843 -0.8067 0.587 -0.657 0.473 50 22 8 0 0
0.1542 0.0670 -0.8653 0.593 -0.788 -0.166 88 62 37 0 0
0.1474 0.0762 -0.9198 0.672 -0.735 0.093 93 67 43 0 0
0.1492 0.0744 -0.9281 0.767 -0.639 -0.066 88 61 39 0 0
0.1614 0.0617 -0.9637 0.567 -0.478 0.670 97 84 76 0 0
0.1828 0.0384 -0.9968 0.735 -0.667 -0.119 75 44 25 0 0
0.1870 0.0337 -0.9994 0.759 -0.612 0.220 71 37 13 0 0
0.1891 0.0316 -1.0040 0.708 -0.565 0.424 65 30 10 0 0
0.1996 0.0207 -1.0394 0.720 -0.646 0.251 98 68 41 0 0
0.1999 0.0204 -1.0423 0.639 -0.741 0.205 99 69 42 0 0
0.2023 0.0182 -1.0594 0.867 -0.436 0.241 96 69 45 0 0
0.1984 0.0242 -1.1122 0.621 -0.774 0.124 87 47 16 0 0
0.0701 0.1294 0.1071 0.599 -0.329 0.730 154 122 103 0 0
0.0695 0.1314 0.0601 0.734 -0.645 0.213 69 33 11 0 0
0.0711 0.1304 0.0336 0.749 -0.606 0.269 62 25 6 0 0
0.0709 0.1306 0.0307 0.749 -0.639 0.177 62 25 6 0 0
0.0717 0.1314 -0.0288 0.748 -0.650 -0.136 47 17 6 0 0
0.1328 0.0649 -0.1089 0.265 -0.644 0.717 126 100 91 0 0
0.1345 0.0630 -0.1115 0.356 -0.693 0.627 109 82 72 0 0
0.1343 0.0634 -0.1173 0.490 -0.871 -0.032 148 124 120 0 0
0.1366 0.0610 -0.1227 0.639 -0.750 0.168 104 69 44 0 0
0.0995 0.1100 -0.3755 0.757 -0.535 0.375 45 26 16 0 0
0.1410 0.0643 -0.4113 0.901 -0.206 0.381 79 41 21 0 0
0.1364 0.0704 -0.4437 0.389 -0.463 -0.797 79 52 33 0 0
0.1306 0.0771 -0.4493 0.358 -0.411 -0.838 68 37 19 0 0
0.0918 0.1246 -0.5846 0.765 -0.644 -0.028 81 44 17 0 0
0.0922 0.1246 -0.5973 0.748 -0.664 -0.015 84 48 22 0 0
0.1055 0.1128 -0.7064 0.811 -0.585 -0.008 57 28 12 0 0
0.1103 0.1076 -0.7164 0.963 -0.140 0.228 60 31 15 0 0
0.1175 0.1000 -0.7345 0.773 -0.629 -0.074 59 30 14 0 0
0.1315 0.0852 -0.7704 0.790 -0.591 -0.161 56 27 11 0 0
0.1312 0.0858 -0.7739 0.667 -0.726 0.168 54 25 9 0 0
0.1354 0.0817 -0.7968 0.892 -0.413 0.186 59 30 14 0 0
0.1511 0.0649 -0.8304 0.743 -0.578 -0.337 59 26 9 0 0
0.1478 0.0689 -0.8394 0.906 -0.409 -0.105 63 30 11 0 0
0.1453 0.0741 -0.9230 0.669 -0.686 0.286 93 67 42 0 0
0.1595 0.0593 -0.9635 0.557 -0.445 0.702 87 74 67 0 0
0.1627 0.0558 -0.9673 0.692 -0.291 0.661 91 78 70 0 0
0.1813 0.0357 -0.9963 0.638 -0.756 0.145 76 47 29 0 0
0.1817 0.0352 -0.9991 0.541 -0.837 0.083 71 37 18 0 0
0.1977 0.0185 -1.0424 0.639 -0.741 0.205 101 71 45 0 0
0.1931 0.0248 -1.0795 0.598 -0.786 -0.155 81 54 36 0 0
0.1931 0.0248 -1.0827 0.652 -0.758 -0.019 72 46 29 0 0
0.1926 0.0257 -1.0963 0.634 -0.700 0.328 44 23 12 0 0
0.1917 0.0269 -1.1005 0.807 -0.556 -0.200 49 25 13 0 0
0.0788 0.1157 0.0838 0.648 -0.741 0.178 55 22 6 0 0
0.0920 0.1052 -0.0649 0.117 -0.432 0.894 78 59 52 0 0
0.0954 0.1015 -0.0675 0.060 -0.532 0.844 78 57 48 0 0
0.1353 0.0582 -0.1226 0.602 -0.756 0.258 111 76 53 0 0
0.1352 0.0584 -0.1284 0.826 -0.564 -0.020 89 43 12 0 0
0.1471 0.0452 -0.1320 0.671 -0.657 0.343 71 34 10 0 0
0.1466 0.0460 -0.1407 0.839 -0.543 0.044 68 36 15 0 0
0.1160 0.0856 -0.3260 0.952 -0.306 0.018 65 38 24 0 0
0.0973 0.1080 -0.3755 0.681 -0.659 0.320 43 23 12 0 0
0.1090 0.0950 -0.3804 0.691 -0.717 -0.093 45 24 13 0 0
0.1390 0.0620 -0.4083 0.859 -0.282 0.428 113 86 71 0 0
0.1400 0.0610 -0.4109 0.859 -0.282 0.428 82 44 26 0 0
0.1324 0.0705 -0.4476 0.606 -0.356 -0.711 72 41 23 0 0
0.1031 0.1100 -0.6805 0.459 -0.698 0.550 58 29 13 0 0
0.1024 0.1111 -0.6907 0.751 -0.650 0.115 57 28 12 0 0
0.1022 0.1115 -0.6941 0.828 -0.550 -0.109 55 26 10 0 0
0.1159 0.0972 -0.7341 0.870 -0.490 -0.059 54 26 11 0 0
0.1290 0.0836 -0.7739 0.755 -0.655 0.022 55 26 10 0 0
0.1291 0.0837 -0.7771 0.459 -0.809 0.369 55 26 10 0 0
0.1455 0.0670 -0.8396 0.473 -0.881 -0.026 63 30 11 0 0
0.1425 0.0726 -0.9203 0.642 -0.708 0.294 92 65 42 0 0
0.1431 0.0720 -0.9230 0.669 -0.686 0.286 93 66 41 0 0
0.1424 0.0729 -0.9269 0.843 -0.488 0.228 92 65 42 0 0
0.1429 0.0724 -0.9298 0.843 -0.488 0.228 88 61 39 0 0
0.1443 0.0710 -0.9352 0.825 -0.555 0.108 59 30 14 0 0
0.1501 0.0647 -0.9434 0.681 -0.721 0.129 42 17 7 0 0
0.1831 0.0293 -0.9992 0.434 -0.516 0.738 65 32 11 0 0
0.1840 0.0283 -1.0016 0.744 -0.571 0.347 62 29 8 0 0
0.1902 0.0218 -1.0185 0.380 -0.922 0.072 70 33 10 0 0
0.1977 0.0145 -1.0598 0.758 -0.641 0.122 97 69 45 0 0
0.1908 0.0229 -1.0797 0.761 -0.586 -0.280 78 50 32 0 0
0.1905 0.0237 -1.0996 0.912 -0.406 -0.051 49 25 12 0 0
0.0677 0.1269 -0.0288 0.748 -0.650 -0.136 45 17 5 0 0
0.0689 0.1256 -0.0317 0.723 -0.665 -0.185 43 15 3 0 0
0.1019 0.0900 -0.0752 0.190 -0.794 0.577 134 116 106 0 0
0.1034 0.0883 -0.0779 0.190 -0.794 0.577 131 112 99 0 0
0.1257 0.0641 -0.1037 0.334 -0.353 0.874 110 88 77 0 0
0.1325 0.0570 -0.1228 0.643 -0.745 0.179 117 82 59 0 0
0.1454 0.0429 -0.1348 0.840 -0.531 0.114 70 34 12 0 0
0.1456 0.0430 -0.1434 0.798 -0.602 -0.031 66 34 17 0 0
0.1462 0.0423 -0.1490 0.532 -0.833 -0.151 66 47 35 0 0
0.1402 0.0565 -0.4130 0.557 -0.814 0.163 81 43 22 0 0
0.1313 0.0674 -0.4472 0.706 -0.304 -0.640 73 42 24 0 0
0.0876 0.1172 -0.4790 0.682 -0.693 -0.233 72 41 20 0 0
0.0900 0.1165 -0.5480 0.734 -0.678 0.028 73 39 14 0 0
0.1026 0.1063 -0.6893 0.662 -0.732 0.159 57 28 12 0 0
0.1116 0.0975 -0.7355 0.526 -0.843 -0.109 52 24 10 0 0
0.1150 0.0937 -0.7366 0.869 -0.440 0.229 52 24 10 0 0
0.1147 0.0947 -0.7628 0.848 -0.448 0.284 57 28 12 0 0
0.1435 0.0646 -0.8395 0.627 -0.778 -0.036 63 30 11 0 0
0.1475 0.0615 -0.8883 0.587 -0.777 0.227 71 45 29 0 0
0.1809 0.0272 -0.9993 0.624 -0.550 0.555 66 34 14 0 0
0.1910 0.0167 -1.0254 0.648 -0.698 0.306 75 39 12 0 0
0.1894 0.0201 -1.0855 0.843 -0.533 0.067 56 33 19 0 0
0.1949 0.0144 -1.0996 0.444 -0.884 0.143 66 32 13 0 0
0.0795 0.1103 -0.0661 -0.198 -0.582 0.789 77 61 54 0 0
0.0995 0.0882 -0.0723 0.316 -0.870 0.378 147 126 119 0 0
0.1003 0.0873 -0.0751 0.316 -0.870 0.378 143 125 116 0 0
0.1006 0.0871 -0.0780 0.443 -0.891 0.098 132 114 101 0 0
0.1438 0.0403 -0.1319 0.665 -0.727 0.171 70 32 9 0 0
0.1439 0.0403 -0.1347 0.751 -0.659 -0.048 71 35 12 0 0
0.1033 0.0924 -0.3810 0.752 -0.550 0.362 42 21 11 0 0
0.1043 0.0914 -0.3837 0.662 -0.719 0.210 46 22 13 0 0
0.1048 0.0909 -0.3866 0.662 -0.719 0.210 46 23 12 0 0
0.1379 0.0547 -0.4131 0.467 -0.850 0.245 78 41 18 0 0
0.1294 0.0651 -0.4471 0.629 -0.413 -0.658 73 43 22 0 0
0.1010 0.1035 -0.6922 0.664 -0.748 0.011 57 28 12 0 0
0.0981 0.1072 -0.7102 0.498 -0.796 0.345 55 26 12 0 0
0.1428 0.0609 -0.8384 0.927 -0.361 -0.101 63 30 12 0 0
0.1508 0.0522 -0.8484 0.407 -0.913 -0.010 81 41 16 0 0
0.1402 0.0664 -0.9350 0.838 -0.518 0.171 64 34 16 0 0
0.1415 0.0653 -0.9471 0.809 -0.528 0.259 44 19 7 0 0
0.1490 0.0572 -0.9572 0.484 -0.433 0.761 82 60 49 0 0
0.1878 0.0175 -1.0850 0.849 -0.497 0.180 55 31 18 0 0
0.1851 0.0208 -1.0976 0.824 -0.469 0.318 47 24 13 0 0
0.1903 0.0155 -1.1152 0.824 -0.565 -0.032 93 58 26 0 0
0.0691 0.1130 0.0982 0.810 -0.576 0.113 100 60 29 0 0
0.0701 0.1124 0.0778 0.866 -0.500 0.010 56 24 6 0 0
0.0681 0.1162 0.0220 0.755 -0.643 0.128 61 24 6 0 0
0.0684 0.1161 0.0131 0.844 -0.492 -0.211 66 32 12 0 0
0.0657 0.1205 -0.0406 0.775 -0.616 0.142 44 16 4 0 0
0.0655 0.1209 -0.0436 0.778 -0.598 0.193 51 23 11 0 0
0.0688 0.1173 -0.0492 0.705 -0.681 0.197 46 18 7 0 0
0.0956 0.0882 -0.0726 0.616 -0.669 0.416 143 123 115 0 0
0.0965 0.0872 -0.0754 0.616 -0.669 0.416 137 120 112 0 0
0.0973 0.0863 -0.0782 0.689 -0.685 0.239 128 110 97 0 0
0.1045 0.0786 -0.0860 0.711 -0.637 0.298 56 27 12 0 0
0.1063 0.0768 -0.0916 0.803 -0.594 -0.057 52 24 13 0 0
0.1049 0.0784 -0.0947 0.567 -0.505 0.651 71 48 40 0 0
0.1418 0.0384 -0.1319 0.638 -0.728 0.252 78 40 17 0 0
0.1247 0.0589 -0.1876 0.754 -0.620 0.218 65 46 39 0 0
0.1099 0.0769 -0.2446 0.455 -0.753 0.476 58 39 32 0 0
0.0975 0.0916 -0.2752 0.850 -0.512 -0.120 53 33 22 0 0
0.1082 0.0806 -0.3114 0.639 -0.725 0.257 58 29 14 0 0
0.1113 0.0775 -0.3255 0.782 -0.623 0.024 65 37 23 0 0
0.0907 0.1015 -0.3633 0.683 -0.666 0.298 38 22 17 0 0
0.1354 0.0531 -0.4133 0.487 -0.866 0.111 74 37 16 0 0
0.0978 0.0982 -0.5356 0.692 -0.629 0.356 76 44 20 0 0
0.0917 0.1066 -0.5930 0.572 -0.816 0.077 90 56 26 0 0
0.0944 0.1059 -0.6787 0.744 -0.572 0.345 58 29 13 0 0
0.0956 0.1047 -0.6812 0.566 -0.821 0.071 57 29 12 0 0
0.0935 0.1073 -0.6922 0.381 -0.917 0.119 58 29 13 0 0
0.1032 0.0978 -0.7382 0.555 -0.690 0.465 52 24 10 0 0
0.1047 0.0962 -0.7438 0.704 -0.607 0.367 49 21 8 0 0
0.1477 0.0511 -0.8459 0.325 -0.946 0.007 73 36 12 0 0
0.1479 0.0510 -0.8490 0.407 -0.913 -0.010 79 39 16 0 0
0.1426 0.0596 -0.9510 0.450 -0.697 0.558 63 36 22 0 0
0.1846 0.0163 -1.0763 0.664 -0.733 -0.147 87 62 42 0 0
0.1849 0.0162 -1.0826 0.749 -0.645 0.151 66 41 22 0 0
0.1863 0.0146 -1.0844 0.742 -0.498 0.449 53 31 17 0 0
0.1892 0.0120 -1.1076 0.621 -0.769 0.153 75 35 9 0 0
0.1905 0.0108 -1.1129 0.668 -0.666 0.332 89 53 23 0 0
0.0670 0.1111 0.0953 0.796 -0.604 0.025 81 43 15 0 0
0.0670 0.1112 0.0923 0.815 -0.506 0.282 69 32 9 0 0
0.0661 0.1140 0.0219 0.513 -0.849 0.125 56 20 4 0 0
0.0695 0.1123 -0.0579 0.675 -0.550 0.492 45 19 6 0 0
0.0943 0.0852 -0.0754 0.616 -0.669 0.416 130 112 103 0 0
0.0952 0.0843 -0.0783 0.377 -0.926 0.030 123 105 93 0 0
0.1023 0.0767 -0.0861 0.587 -0.788 0.187 54 25 12 0 0
0.1030 0.0760 -0.0918 0.612 -0.786 0.089 51 24 12 0 0
0.1031 0.0760 -0.0947 0.300 -0.716 0.630 77 56 46 0 0
0.1265 0.0508 -0.1229 0.666 -0.691 0.282 108 74 50 0 0
0.1380 0.0382 -0.1266 0.740 -0.645 0.190 88 42 13 0 0
0.0963 0.0885 -0.2750 0.854 -0.430 -0.293 53 33 22 0 0
0.1060 0.0787 -0.3114 0.639 -0.725 0.257 56 27 11 0 0
0.0995 0.0877 -0.3809 0.695 -0.696 0.183 43 21 12 0 0
0.0905 0.1033 -0.5924 0.704 -0.647 0.293 88 52 26 0 0
0.0929 0.1038 -0.7076 0.364 -0.925 0.111 53 24 10 0 0
0.1447 0.0500 -0.8467 0.325 -0.946 0.007 70 32 9 0 0
0.1447 0.0501 -0.8499 0.346 -0.938 0.029 72 34 11 0 0
0.1392 0.0588 -0.9455 0.738 -0.635 0.229 48 21 9 0 0
0.1535 0.0436 -0.9693 0.600 -0.709 0.372 92 77 71 0 0
0.1693 0.0265 -0.9878 0.573 -0.634 0.519 85 71 62 0 0
0.1863 0.0097 -1.0660 0.526 -0.850 -0.032 95 68 41 0 0
0.1874 0.0097 -1.1139 0.541 -0.838 0.065 88 51 19 0 0
0.0210 0.1566 0.1281 0.818 0.068 0.572 182 182 182 0 0
0.0488 0.1264 0.1099 0.031 -0.622 0.783 100 78 64 0 0
0.0655 0.1083 0.0952 0.731 -0.681 0.030 87 47 17 0 0
0.0656 0.1083 0.0923 0.731 -0.681 0.030 69 31 8 0 0
0.0664 0.1075 0.0894 0.884 -0.413 0.219 62 26 7 0 0
0.0602 0.1172 -0.0229 0.777 -0.630 0.014 54 23 9 0 0
0.0602 0.1173 -0.0259 0.688 -0.668 0.284 52 21 9 0 0
0.0643 0.1131 -0.0344 0.672 -0.739 0.041 47 17 6 0 0
0.0993 0.0757 -0.0862 0.645 -0.762 0.061 52 24 11 0 0
0.1252 0.0479 -0.1199 0.625 -0.653 0.427 130 104 89 0 0
0.1245 0.0488 -0.1229 0.638 -0.736 0.226 106 73 49 0 0
0.1376 0.0347 -0.1406 0.707 -0.705 -0.044 62 27 10 0 0
0.1040 0.0766 -0.3175 0.679 -0.531 0.508 57 29 15 0 0
0.0883 0.0948 -0.3503 0.220 -0.971 -0.094 39 20 13 0 0
0.0969 0.0861 -0.3811 0.694 -0.706 0.141 44 22 13 0 0
0.1224 0.0584 -0.4018 0.722 -0.661 -0.204 72 40 23 0 0
0.1225 0.0595 -0.4475 0.482 -0.425 -0.766 78 48 27 0 0
0.0846 0.1038 -0.5337 0.741 -0.655 0.145 69 37 14 0 0
0.0863 0.1031 -0.5807 0.754 -0.638 0.156 80 47 19 0 0
0.0862 0.1034 -0.5840 0.739 -0.645 0.192 82 48 20 0 0
0.0875 0.1047 -0.6932 0.381 -0.917 0.119 55 26 10 0 0
0.0972 0.0944 -0.7100 0.682 -0.724 -0.105 53 24 10 0 0
0.1415 0.0492 -0.8507 0.610 -0.778 -0.149 72 34 11 0 0
0.1412 0.0496 -0.8542 0.610 -0.778 -0.149 76 36 11 0 0
0.1389 0.0529 -0.8819 0.670 -0.728 -0.144 72 49 33 0 0
0.1387 0.0532 -0.8853 0.813 -0.582 0.005 69 45 29 0 0
0.1508 0.0421 -0.9698 0.499 -0.791 0.355 87 72 65 0 0
0.1589 0.0333 -0.9790 0.653 -0.419 0.631 85 70 63 0 0
0.1761 0.0148 -1.0024 0.770 -0.588 0.248 61 28 11 0 0
0.1794 0.0137 -1.0969 0.873 -0.460 0.163 48 25 15 0 0
0.0325 0.1397 0.1189 0.335 -0.796 0.504 152 147 143 0 0
0.0470 0.1239 0.1099 0.068 -0.735 0.675 105 82 68 0 0
0.0635 0.1061 0.0952 0.758 -0.636 0.145 97 56 26 0 0
0.0636 0.1061 0.0923 0.731 -0.681 0.030 74 36 10 0 0
0.0691 0.1014 0.0369 0.705 -0.659 0.263 61 26 6 0 0
0.0635 0.1081 0.0190 0.868 -0.496 0.020 59 23 7 0 0
0.0629 0.1090 0.0071 0.754 -0.634 -0.175 49 20 4 0 0
0.0618 0.1105 -0.0018 0.737 -0.675 -0.016 54 21 5 0 0
0.0630 0.1097 -0.0195 0.877 -0.479 -0.029 56 23 7 0 0
0.0631 0.1103 -0.0493 0.720 -0.689 0.077 46 20 7 0 0
0.0974 0.0736 -0.0921 0.571 -0.768 0.289 53 25 13 0 0
0.1226 0.0465 -0.1200 0.550 -0.809 0.206 136 109 95 0 0
0.1225 0.0467 -0.1229 0.546 -0.836 0.056 110 77 52 0 0
0.1325 0.0357 -0.1240 0.734 -0.679 0.027 90 48 17 0 0
0.1352 0.0332 -0.1379 0.838 -0.545 0.028 65 30 10 0 0
0.1012 0.0753 -0.3178 0.633 -0.740 0.229 56 28 14 0 0
0.0900 0.0881 -0.3367 0.199 -0.972 -0.123 37 17 10 0 0
0.0875 0.0909 -0.3406 0.178 -0.976 0.122 32 14 8 0 0
0.1208 0.0558 -0.4016 0.928 -0.346 0.142 75 42 25 0 0
0.0821 0.1019 -0.5338 0.651 -0.701 0.292 67 35 14 0 0
0.1182 0.0693 -0.8082 0.698 -0.484 0.527 49 20 6 0 0
0.1371 0.0501 -0.8751 0.811 -0.574 -0.112 81 55 37 0 0
0.1367 0.0510 -0.8885 0.804 -0.552 0.222 66 40 24 0 0
0.1348 0.0544 -0.9390 0.563 -0.707 0.427 45 21 9 0 0
0.1347 0.0546 -0.9424 0.682 -0.725 -0.097 46 20 9 0 0
0.1475 0.0411 -0.9675 0.554 -0.812 0.181 95 82 73 0 0
0.1804 0.0071 -1.0547 0.764 -0.633 0.125 96 69 40 0 0
0.1758 0.0131 -1.0918 0.829 -0.556 -0.060 37 20 10 0 0
0.1775 0.0113 -1.0934 0.831 -0.556 -0.003 38 19 11 0 0
0.1775 0.0114 -1.0967 0.831 -0.556 -0.003 44 22 12 0 0
0.0302 0.1378 0.1189 0.243 -0.946 -0.214 161 156 154 0 0
0.0616 0.1038 0.0951 0.758 -0.636 0.145 117 77 46 0 0
0.0642 0.1028 0.0221 0.747 -0.647 -0.151 59 24 7 0 0
0.0625 0.1051 0.0072 0.718 -0.685 0.122 49 18 3 0 0
0.0621 0.1056 0.0042 0.763 -0.644 -0.049 55 23 7 0 0
0.0573 0.1116 -0.0229 0.409 -0.911 -0.041 55 22 6 0 0
0.1191 0.0462 -0.1203 0.649 -0.751 -0.122 137 109 95 0 0
0.1191 0.0463 -0.1232 0.652 -0.755 -0.063 111 76 52 0 0
0.1335 0.0307 -0.1378 0.838 -0.545 0.028 61 27 8 0 0
0.1222 0.0439 -0.1661 0.845 -0.255 0.470 64 45 38 0 0
0.0993 0.0730 -0.3177 0.706 -0.708 -0.019 63 34 19 0 0
0.0878 0.0864 -0.3460 0.167 -0.980 -0.113 42 23 15 0 0
0.0949 0.0889 -0.7511 0.774 -0.619 0.131 48 20 8 0 0
0.1255 0.0570 -0.8175 0.354 -0.935 0.021 53 24 10 0 0
0.1254 0.0571 -0.8208 0.491 -0.871 0.016 53 24 10 0 0
0.1331 0.0492 -0.8410 0.622 -0.783 -0.005 67 32 12 0 0
0.1294 0.0550 -0.9056 0.717 -0.691 0.090 66 40 23 0 0
0.1327 0.0523 -0.9423 0.747 -0.664 -0.005 47 20 9 0 0
0.1499 0.0340 -0.9669 0.493 -0.846 0.206 97 82 77 0 0
0.1714 0.0114 -1.0062 0.524 -0.851 0.025 56 23 7 0 0
0.1744 0.0102 -1.0911 0.648 -0.732 -0.211 36 19 9 0 0
0.1755 0.0091 -1.0965 0.431 -0.800 0.417 43 22 11 0 0
0.1795 0.0052 -1.1123 0.757 -0.642 0.122 78 38 11 0 0
0.0286 0.1351 0.1158 0.006 -0.520 0.854 131 115 108 0 0
0.0594 0.1019 0.0951 0.612 -0.737 0.288 133 94 66 0 0
0.0607 0.1030 -0.0017 0.741 -0.637 0.213 58 25 7 0 0
0.1291 0.0311 -0.1297 0.553 -0.807 0.209 78 38 12 0 0
0.1305 0.0299 -0.1381 0.613 -0.788 0.055 63 29 11 0 0
0.1001 0.0658 -0.2416 0.743 -0.669 -0.008 55 36 29 0 0
0.0854 0.0834 -0.3002 0.588 -0.788 -0.185 45 27 18 0 0
0.0863 0.0832 -0.3335 0.595 -0.571 -0.566 51 28 15 0 0
0.0811 0.0891 -0.3414 0.466 -0.833 -0.300 29 12 5 0 0
0.0840 0.0862 -0.3497 0.296 -0.950 0.099 38 19 12 0 0
0.1036 0.0755 -0.7764 0.639 -0.719 0.275 46 20 7 0 0
0.1094 0.0695 -0.7919 0.897 -0.305 0.320 45 17 5 0 0
0.1303 0.0478 -0.8415 0.662 -0.731 0.168 65 30 10 0 0
0.1273 0.0528 -0.9056 0.717 -0.691 0.090 66 40 23 0 0
0.1258 0.0551 -0.9363 0.708 -0.705 0.025 68 40 19 0 0
0.1290 0.0518 -0.9435 0.368 -0.927 -0.072 46 20 8 0 0
0.1429 0.0372 -0.9678 0.694 -0.620 0.366 92 77 70 0 0
0.1473 0.0324 -0.9673 0.493 -0.846 0.206 93 78 73 0 0
0.1694 0.0091 -1.0060 0.661 -0.745 0.090 57 24 9 0 0
0.1725 0.0079 -1.0909 0.727 -0.667 -0.165 39 22 13 0 0
0.1720 0.0085 -1.0947 0.826 -0.550 -0.121 38 20 10 0 0
0.1775 0.0029 -1.1121 0.757 -0.642 0.122 76 38 11 0 0
0.0631 0.0958 0.0045 0.627 -0.673 0.392 60 28 8 0 0
0.0921 0.0667 -0.1008 0.307 -0.477 0.823 95 74 68 0 0
0.1257 0.0305 -0.1214 0.578 -0.808 0.118 106 70 45 0 0
0.1265 0.0296 -0.1241 0.789 -0.612 -0.063 93 48 19 0 0
0.1268 0.0295 -0.1298 0.553 -0.807 0.209 80 40 14 0 0
0.1175 0.0412 -0.1925 0.663 -0.032 -0.748 62 43 36 0 0
0.0969 0.0642 -0.2121 0.919 -0.386 0.083 59 40 33 0 0
0.0973 0.0639 -0.2180 0.794 -0.599 0.107 57 38 31 0 0
0.0830 0.0816 -0.3003 0.588 -0.788 -0.185 45 27 17 0 0
0.1057 0.0592 -0.3991 0.294 -0.527 0.797 70 40 25 0 0
0.1247 0.0389 -0.4188 0.691 -0.695 0.198 69 33 11 0 0
0.0774 0.0965 -0.6519 0.637 -0.753 0.162 71 35 11 0 0
0.1017 0.0730 -0.7762 0.585 -0.746 0.318 45 19 6 0 0
0.1037 0.0719 -0.8205 0.424 -0.905 -0.034 50 21 7 0 0
0.1281 0.0458 -0.8415 0.662 -0.731 0.168 64 29 9 0 0
0.1430 0.0325 -0.9626 0.285 -0.924 0.254 90 75 68 0 0
0.1448 0.0306 -0.9644 0.542 -0.831 0.127 91 76 69 0 0
0.1441 0.0315 -0.9682 0.446 -0.894 -0.051 92 77 72 0 0
0.1665 0.0080 -1.0068 0.440 -0.881 0.175 59 26 10 0 0
0.1674 0.0070 -1.0092 0.504 -0.763 0.404 59 26 9 0 0
0.1746 0.0003 -1.0543 0.774 -0.632 0.041 94 67 41 0 0
0.1756 -0.0005 -1.0663 0.743 -0.668 -0.045 96 69 42 0 0
0.1712 0.0050 -1.0934 0.870 -0.464 0.169 37 18 10 0 0
0.1761 0.0001 -1.1114 0.778 -0.598 0.193 78 40 11 0 0
0.0214 0.1341 0.1158 0.317 -0.745 0.587 138 126 118 0 0
0.0551 0.0980 0.0921 0.325 -0.829 0.455 122 86 60 0 0
0.0615 0.0946 -0.0546 0.567 -0.717 0.406 47 20 9 0 0
0.1085 0.0447 -0.1096 0.054 -0.863 0.502 113 89 79 0 0
0.1248 0.0273 -0.1241 0.663 -0.748 -0.034 95 51 21 0 0
0.1248 0.0274 -0.1269 0.663 -0.748 -0.034 91 46 15 0 0
0.1239 0.0284 -0.1300 0.673 -0.706 0.221 82 42 15 0 0
0.1207 0.0326 -0.1594 0.546 -0.815 0.195 66 48 38 0 0
0.1028 0.0531 -0.1954 0.503 -0.863 -0.042 62 43 36 0 0
0.1026 0.0533 -0.1984 0.613 -0.786 -0.083 62 43 36 0 0
0.1027 0.0532 -0.2014 0.624 -0.781 -0.036 61 42 35 0 0
0.1015 0.0547 -0.2046 0.574 -0.780 -0.248 60 41 34 0 0
0.1025 0.0536 -0.2073 0.638 -0.761 0.121 58 39 32 0 0
0.0985 0.0586 -0.2321 0.960 -0.202 -0.196 53 36 28 0 0
0.0882 0.0709 -0.2739 0.530 -0.845 0.071 48 28 17 0 0
0.0833 0.0768 -0.2996 0.923 -0.328 -0.203 41 22 13 0 0
0.0800 0.0805 -0.3036 0.868 -0.496 0.031 56 37 31 0 0
0.1132 0.0479 -0.4441 0.166 -0.804 -0.571 75 47 28 0 0
0.0649 0.1013 -0.4806 0.542 -0.840 0.010 69 37 16 0 0
0.1259 0.0437 -0.8416 0.662 -0.731 0.168 64 29 9 0 0
0.1414 0.0300 -0.9720 0.443 -0.896 0.030 101 86 81 0 0
0.1727 -0.0020 -1.0541 0.778 -0.623 0.079 96 68 42 0 0
0.1750 -0.0043 -1.0649 0.759 -0.621 0.197 97 70 43 0 0
0.0615 0.0869 0.0834 0.703 -0.666 0.248 88 51 20 0 0
0.0624 0.0870 0.0369 0.765 -0.597 0.243 62 26 4 0 0
0.0622 0.0873 0.0340 0.720 -0.684 -0.114 65 29 7 0 0
0.0563 0.0945 -0.0016 0.716 -0.692 -0.092 62 27 7 0 0
0.0578 0.0941 -0.0489 0.503 -0.845 -0.182 49 23 8 0 0
0.0600 0.0920 -0.0605 0.335 -0.894 0.298 62 34 20 0 0
0.0774 0.0733 -0.0731 0.400 -0.796 0.454 102 81 66 0 0
0.0822 0.0688 -0.0989 -0.037 -0.925 0.378 79 60 53 0 0
0.1052 0.0440 -0.1098 0.256 -0.701 0.666 103 79 67 0 0
0.1219 0.0264 -0.1300 0.629 -0.756 0.182 83 44 17 0 0
0.1220 0.0264 -0.1329 0.666 -0.741 0.088 73 36 11 0 0
0.0766 0.0819 -0.3872 0.340 -0.702 0.626 54 27 15 0 0
0.1009 0.0558 -0.3994 0.202 -0.596 0.777 64 32 20 0 0
0.1050 0.0514 -0.4069 0.132 -0.989 0.068 90 64 51 0 0
0.1053 0.0513 -0.4099 0.181 -0.980 0.088 105 82 71 0 0
0.1100 0.0469 -0.4445 0.157 -0.811 -0.563 76 49 31 0 0
0.0720 0.0935 -0.6623 0.816 -0.574 -0.073 69 34 13 0 0
0.0786 0.0879 -0.7299 0.705 -0.708 -0.044 48 19 6 0 0
0.0867 0.0795 -0.7443 0.697 -0.710 -0.098 54 25 11 0 0
0.0878 0.0788 -0.7631 0.518 -0.580 0.628 49 21 7 0 0
0.1031 0.0629 -0.7918 0.308 -0.951 -0.029 48 20 8 0 0
0.1030 0.0631 -0.7983 0.880 -0.459 -0.120 49 19 8 0 0
0.1249 0.0405 -0.8472 0.613 -0.754 0.236 70 32 8 0 0
0.1271 0.0385 -0.8649 0.645 -0.735 0.208 79 52 31 0 0
0.1185 0.0489 -0.9075 0.698 -0.687 0.201 63 37 23 0 0
0.1188 0.0492 -0.9335 0.498 -0.867 0.013 75 43 23 0 0
0.1368 0.0304 -0.9643 0.688 -0.646 0.332 85 70 64 0 0
0.1438 0.0231 -0.9778 0.624 -0.624 0.470 90 75 68 0 0
0.1711 -0.0045 -1.0601 0.487 -0.753 0.443 95 67 43 0 0
0.1707 -0.0031 -1.1028 0.752 -0.656 0.074 64 30 8 0 0
0.1708 -0.0032 -1.1059 0.855 -0.516 0.051 74 35 10 0 0
0.0501 0.0947 0.0920 0.071 -0.875 0.478 128 96 77 0 0
0.0488 0.0962 0.0891 0.070 -0.997 0.033 120 86 66 0 0
0.0490 0.0960 0.0862 -0.036 -0.999 -0.002 101 66 41 0 0
0.0624 0.0824 0.0457 0.776 -0.612 0.154 73 37 15 0 0
0.0577 0.0883 0.0133 0.819 -0.565 -0.098 76 40 14 0 0
0.0557 0.0920 -0.0489 0.728 -0.678 -0.103 46 18 5 0 0
