ply
format ascii 1.0
element vertex 673
property float x
property float y
property float z
property uchar diffuse_red
property uchar diffuse_green
property uchar diffuse_blue
end_header
-0.02994122805168009 -0.023650546529617872 -1.197843661808421 199 198 198
-0.03113128879385524 -0.028185461121599253 -1.1981106751815729 200 200 200
-0.031878743880834184 -0.03114998668742501 -1.1994011462566776 201 201 201
-0.0327346787743653 -0.03449806881565175 -1.2004278715976637 201 201 201
-0.03432794977856859 -0.04045785492541634 -1.199707070551443 202 202 202
-0.03556914415923 -0.04516831048733823 -1.1997990068228854 203 203 203
-0.0584380441159652 -0.12648790687019357 -1.1486520422296178 203 203 203
-0.06104292574046454 -0.1360114356040158 -1.1453456516332277 204 204 204
-0.057162941050592886 -0.12256884891047282 -1.1574454920104558 204 204 204
-0.023791866802832382 0.1478758639199674 0.1195682150638173 183 183 185
-0.022925513920849815 0.15089172024842296 0.11680564474725748 183 183 185
-0.022608499624886935 0.15179821939105614 0.11388825704153394 183 183 185
-0.02191817831606808 0.15413678096424938 0.11106285571596623 184 181 182
-0.02123876354752447 0.1564326359025368 0.10822637404506197 168 160 157
-0.018625106040071324 0.16614746762991495 0.10585613376026133 125 107 97
-0.020345249171452806 0.15923711477557284 0.10241735819955933 114 88 75
-0.021538466379931002 0.15434949056128422 0.09912158706186196 115 86 73
-0.02257734718822595 0.15005504740633496 0.09587471247749751 117 88 73
-0.02456902208457206 0.1421091969366028 0.0924284279592694 114 87 71
-0.025071076091966855 0.1398754608284598 0.08932696974139545 99 72 55
-0.024984247697915036 0.13989914040649426 0.086354879608108 93 66 49
-0.02412943336605695 0.14286545156632693 0.08353836773487447 91 63 49
-0.02631385696629745 0.1341868178695357 0.08010873359814963 95 67 53
-0.026121482815145453 0.13461531928604492 0.07716199570613137 91 63 49
-0.02573176695783344 0.13579937531716588 0.0742495836345552 82 53 38
-0.028796169923746107 0.12375585230851971 0.07070804107787187 68 36 21
-0.03057852762795455 0.11662466428007487 0.0674264327671227 63 31 16
-0.030782520560388067 0.11553783345214083 0.06443225954118408 61 29 14
-0.030971441741924503 0.11450891315410243 0.06144269993300125 59 29 13
-0.030950844857396527 0.11428200981162867 0.05848806688836751 60 31 15
-0.03300007642985539 0.10613520943770596 0.05521961039104319 59 31 18
-0.03401673081058624 0.10194122669401898 0.052125236836738864 79 55 47
-0.035426397576992744 0.09624513565199848 0.048987687379258044 82 62 53
-0.03676746128230698 0.09081310469930742 0.04587563679078244 91 71 60
-0.03663803252921516 0.09100569626756229 0.04296716421462081 96 72 62
-0.036872166964072126 0.08980809694959066 0.04001257315458429 111 88 77
-0.03658862575472069 0.09058966941686505 0.03712061735547045 130 109 97
-0.03649863931632365 0.09063109110197312 0.034203749634943034 126 107 93
-0.03711100787377941 0.08798834868609873 0.031212270623953917 114 94 81
-0.037469979893574035 0.08631451955754263 0.02825271300529515 107 87 77
-0.0379120475700699 0.08432365520342058 0.025289440059840733 100 78 68
-0.038355637706820295 0.08232748817314739 0.022330994283557986 77 53 41
-0.03880490135781387 0.08031016825416354 0.019377067418763744 68 40 26
-0.039383332310605965 0.07780015290957243 0.016418498719165286 64 33 16
-0.042758726640899206 0.06461249427935095 0.013273181029290976 57 25 10
-0.044872908888753504 0.05624323679506016 0.010247074290200858 57 26 11
-0.044451961039435654 0.057552131079182466 0.007390999471216155 54 25 11
-0.04289240525131796 0.06320542115769638 0.004588347991522682 51 24 9
-0.04287283565972248 0.06298113445912544 0.0016969049365434348 51 24 9
-0.04293273076717772 0.062453658690852204 -0.0011981593357651482 47 23 9
-0.042989052500197425 0.06193986091262378 -0.00409263350935812 46 23 10
-0.043024470094103755 0.06150582672205129 -0.00698609627303341 43 20 10
-0.0400921611735892 0.07238764381880898 -0.009813902908677861 41 17 11
-0.038435632218776467 0.07840214356876665 -0.012697091449525473 42 18 11
-0.04033283091392347 0.07086869299354995 -0.015636594587803317 43 21 10
-0.04082179346206266 0.0687045091925371 -0.018547796783409 44 27 17
-0.04126791726875788 0.06670413411574742 -0.021453543695531006 44 29 22
-0.03970560329246235 0.07235626894655708 -0.024369060916438742 47 32 24
-0.040242183804076626 0.07001113071596606 -0.027275401129848033 45 31 25
-0.039929281883658435 0.07090204916062989 -0.030191915562365522 40 28 22
-0.04031107876841801 0.0691470820213583 -0.03309496871136229 27 16 12
-0.0394789053792404 0.0720147325945215 -0.036031286153111894 22 12 8
-0.039144118371979245 0.0729878556613903 -0.03895933797090744 20 12 9
-0.03890246997776502 0.07360603585124881 -0.04188759436626923 17 9 6
-0.031715196245637706 0.10065660179087446 -0.04515631859265034 12 7 4
-0.03010631191479598 0.106472322292884 -0.04820611559278185 10 7 5
-0.03082062755417063 0.1034475729493701 -0.05113489072604244 8 7 5
-0.031503875504604706 0.10054184479421874 -0.05405755061098062 11 9 7
-0.030599739473440482 0.1036741053506031 -0.057086909984298544 9 7 5
-0.030780646492669296 0.10267923550217908 -0.060042500845916766 8 7 5
-0.02648287698907973 0.11871252979101583 -0.06337205052736652 9 8 6
-0.02830433862330949 0.11147891856652582 -0.06620291015149479 11 9 7
-0.028968473686073245 0.10864625735784746 -0.06912330814273379 10 7 7
-0.030330762491153535 0.10316126898609712 -0.07196518993133803 15 8 9
-0.03131780445481473 0.09910369292987256 -0.07483159230983244 28 17 14
-0.03192254291023208 0.09649965155898657 -0.07772994899526812 57 43 38
-0.03250315327657137 0.09398796915250815 -0.08062429577364442 57 43 35
-0.033082437829569086 0.09148200446820731 -0.08351220421685766 46 27 19
-0.033152766487981045 0.09090929528604136 -0.08646023333399437 46 26 16
-0.03524715942338302 0.0826522344732329 -0.0891304403652161 47 27 18
-0.03463145915945398 0.08468498901916881 -0.09216336714636138 40 20 13
-0.03453416722005308 0.08474944949751594 -0.09512667589741752 40 20 13
-0.03532941273108328 0.08142685708751057 -0.09795333223605149 54 34 27
-0.03515598219448063 0.08178045127375937 -0.10092637734442567 54 31 21
-0.03693760119624131 0.07471737186034279 -0.10357627598932273 59 34 24
-0.03840154401483576 0.06886134416557949 -0.10626014824768648 64 37 26
-0.03872871507781091 0.06731800938818999 -0.10912962300651864 64 37 26
-0.04153330348295782 0.05638155303306351 -0.11153924353874392 79 51 36
-0.04276756188721914 0.05140167479041246 -0.11421445721490081 78 50 34
-0.044340985019740035 0.04513769793277294 -0.11680887909738397 112 88 78
-0.04547998319476439 0.04052200801073977 -0.1194726591493363 126 104 95
-0.04636449357520349 0.036871990740986016 -0.12217610307465439 116 92 79
-0.04782603161159096 0.031036902202146895 -0.12474605053250117 101 72 60
-0.04840028937032188 0.028564580345778946 -0.12749379569595362 82 41 20
-0.04918515831845481 0.025295270825619297 -0.13018750826882233 85 44 19
-0.04928511586194009 0.024620495671439445 -0.1330306583837728 72 35 11
-0.04795359735742488 0.029365612569645663 -0.13621252124540134 66 33 10
-0.048890031590055366 0.02552363723267031 -0.13885881286773627 61 30 11
-0.0484187012949055 0.02701108100201773 -0.14184493815567162 60 27 8
-0.048103513502715675 0.027907030922882103 -0.144797049032626 60 30 13
-0.047489376953797194 0.029933709042763615 -0.147831113618996 59 34 22
-0.04764657508665071 0.029041572460637485 -0.15066686906775986 57 37 28
-0.05083569490725693 0.016681374841626545 -0.15267414843382446 58 42 33
-0.0530683334730704 0.007942349281247525 -0.15491047938710256 59 45 36
-0.0541572986679443 0.003530568558462682 -0.15744607308068595 59 44 36
-0.050544459181764693 0.016896032907892003 -0.16133462645092925 58 44 36
-0.04890251986676766 0.022806954456846794 -0.16468203328753298 58 42 35
-0.04803378917153585 0.025793549335510407 -0.1678153704229702 59 42 35
-0.04503492877227596 0.036828457683665876 -0.1716156530527764 57 42 35
-0.04568042637548794 0.03409049291164907 -0.17430699788986545 55 40 33
-0.045810624991558996 0.033299890379468615 -0.17715583913013705 55 40 33
-0.046141371726506904 0.031751952831207075 -0.1799380174314546 56 39 34
-0.04084157429769804 0.049958292317334695 -0.1991863171464442 56 41 34
-0.039099462873881885 0.056228872416515835 -0.20274720653141673 56 41 34
-0.0390977166252904 0.055932453020047075 -0.20567941562749087 55 40 33
-0.03632343386308354 0.06609261710972532 -0.2096630383052402 54 39 32
-0.03029166325557955 0.08853297364001662 -0.2149340149699499 53 38 31
-0.031682963703042064 0.08297892396608993 -0.21737445732275232 53 38 31
-0.03898615435686923 0.05514072762347501 -0.21745235653850215 53 38 31
-0.036412603852365 0.06453736760459258 -0.22142240630976995 52 37 30
-0.03405954201226824 0.07309993636340889 -0.22533304068649948 50 35 28
-0.031154559181462056 0.08373914340645847 -0.22950061787182663 49 34 29
-0.03238275012094102 0.07880421971554753 -0.2319645958781382 50 35 30
-0.032562792173695634 0.07781873393599163 -0.23486128636760797 50 35 30
-0.03319747688185912 0.07512126352864726 -0.23755950184515048 50 35 28
-0.036076433603950464 0.0639740114359732 -0.23926674054272756 49 34 27
-0.04146772431967996 0.04337190771133695 -0.23982405070502144 49 34 27
-0.04073838562897514 0.045815372474421745 -0.24307301616613405 48 33 26
-0.04833632962444517 0.016917840018522402 -0.2425329267724914 48 33 26
-0.04177646014350289 0.04130444660556727 -0.24844406608658118 48 33 26
-0.040790951786011775 0.04471047864561663 -0.25182474685598033 49 34 26
-0.033640085065903505 0.07130754162031357 -0.2581388144685817 49 35 26
-0.029381799099503055 0.0870165568140995 -0.2631500540605709 49 35 26
-0.029975075666773227 0.0844761239126739 -0.2658555817679488 49 35 26
-0.03031650447819307 0.08288330682308365 -0.26867813859757506 49 35 26
-0.030549584184058638 0.08169819473245347 -0.2715508026943802 50 36 27
-0.030824478197570393 0.08035617787540028 -0.27439989577106344 50 36 27
-0.03148655212865187 0.07755943854533429 -0.27704874289554904 49 35 26
-0.03159070156028351 0.07685984083780083 -0.2799775023076667 49 34 25
-0.03166566285605659 0.07626999971287769 -0.2829204852884011 50 33 25
-0.029727890937943164 0.08324043908464333 -0.2869239129058081 51 34 26
-0.029035033602576 0.0855331021960682 -0.2902868755058413 48 31 23
-0.027570726755081598 0.0907216583463275 -0.29407414563810685 43 25 17
-0.03080727659920316 0.0782597131654682 -0.29531717335374535 43 25 18
-0.028297327350093736 0.0873725810138227 -0.29968784055573217 42 23 16
-0.02796391598068429 0.08831352061015338 -0.3028765472853523 36 18 10
-0.027132344452105682 0.09112337965726179 -0.3063498026573055 61 44 35
-0.027885477407997315 0.08798653745955709 -0.3089319489547367 73 54 46
-0.028636453871177126 0.08485868299791602 -0.3115066453276032 70 43 32
-0.026413794885958495 0.09288486682689365 -0.31579906083536535 61 29 11
-0.02645920705716493 0.09240289038124541 -0.31878788028832833 61 28 9
-0.02493710357448092 0.0977982647133592 -0.3227050502407754 59 28 10
-0.02534450524601589 0.09595834803265085 -0.32548598499524317 58 27 9
-0.025340471938035233 0.09566105548485986 -0.328510961009896 56 28 11
-0.03170870977600082 0.07148295045269212 -0.3276476617783951 60 31 17
-0.03090731902604645 0.07417720112878415 -0.3311267123214128 62 36 24
-0.03151805812387995 0.0715800651099707 -0.33373702882659206 51 31 21
-0.031108154266686477 0.07280674563603785 -0.336981343939555 25 12 5
-0.03058751308408583 0.07444762630206922 -0.34030097531875186 23 14 8
-0.029073132571240036 0.07980894063274385 -0.34426294210960434 37 26 19
-0.02849169606493667 0.08167549604327569 -0.3476405935204101 32 18 15
-0.026217795637347534 0.08987673582315023 -0.3521285285666649 33 19 16
-0.02578056523438767 0.09120105382068158 -0.35543568538260606 31 19 16
-0.024482821135783837 0.09574492577041477 -0.35931937907023315 27 16 12
-0.02401357344722138 0.09718738249557275 -0.3626639680716159 36 26 17
-0.024774083902899983 0.09402888663099182 -0.365183617927655 34 24 14
-0.02523095792618879 0.09200697345504326 -0.3679014050277734 25 12 6
-0.025883330302665576 0.08925450428106607 -0.3704796195029782 46 30 22
-0.026509236792887855 0.08660176717656781 -0.3730686798720412 57 35 24
-0.027000508166656948 0.08445309350429317 -0.3757447013584114 57 34 21
-0.02686941806966946 0.08463125270791619 -0.37885405603707517 50 27 16
-0.027062011611142887 0.08359956354067301 -0.38173501167976065 47 23 13
-0.025195255749817503 0.09026296567480133 -0.3860907755552663 47 23 13
-0.026367369375559713 0.085571000913534 -0.38827160729711846 46 22 12
-0.027872308548819634 0.0796372376696389 -0.3901961104404686 57 34 23
-0.028242216304832108 0.07794431784690836 -0.3929371901109492 52 28 17
-0.029563516096763134 0.07269923325674797 -0.3949692086886442 53 28 15
-0.031381114188487394 0.06560282436373982 -0.3966150903016539 54 28 16
-0.030402503114468262 0.06894651459941883 -0.40034463295472916 54 26 15
-0.034385733263698384 0.05377010949769512 -0.40032119630322904 55 26 14
-0.03595656489824426 0.04760078471723447 -0.4020954119739235 64 33 14
-0.03744673391585997 0.04173432067253001 -0.4039133478413067 69 37 18
-0.0387953805433847 0.036397600884155404 -0.40582370526916345 82 55 43
-0.03988828241398365 0.03201639084473368 -0.407918393323619 93 70 59
-0.04116071707802847 0.02696698937030871 -0.4098587557329421 112 85 70
-0.041652823921671134 0.024828633301930643 -0.41240415333023017 79 44 23
-0.04199086188887605 0.02326521922498344 -0.41506725249702436 77 38 14
-0.04131932985933782 0.025465204523185077 -0.4185406427988636 70 34 10
-0.037660785939488156 0.038796103548893734 -0.4244486425304948 65 32 9
-0.03813303193043268 0.03673070943730542 -0.42702036996050424 65 29 8
-0.03873240048491022 0.03419227727020449 -0.4294819414825665 67 30 11
-0.039223039844157474 0.03205956052971144 -0.4320268823276816 69 38 17
-0.041454783293336794 0.02344309565062206 -0.43311045191856684 70 41 24
0.001423779487329406 0.18214427419809898 -0.4785383015820481 70 45 33
-0.011806173019987896 0.1325750531598506 -0.47035396948342356 67 46 33
-0.014067278171449808 0.12383919357124086 -0.4715101643893251 62 43 31
-0.016380842244556347 0.11491091469387134 -0.4725939423338873 56 35 24
-0.01774384487200538 0.10952150209985415 -0.47448482070619347 51 31 20
-0.01644906277030872 0.11401893889076348 -0.4787085671266143 48 28 17
-0.01594786822541265 0.11556362411698065 -0.4822419216016501 46 26 15
-0.016697555631340955 0.11245675504519083 -0.4846611113371355 46 26 15
-0.019203246450213284 0.10282285914878989 -0.4854883388575775 46 26 15
-0.020515173931603306 0.09762909115711856 -0.4873694125861666 46 26 15
-0.015472800464474266 0.11605113186445226 -0.4950401221296612 45 25 14
-0.02108033067362993 0.09489571061043059 -0.49297841096269057 47 25 13
-0.021994746280241985 0.09118221236782728 -0.4951934816846024 47 25 12
-0.021916447264334935 0.09115716334075431 -0.49832255530307557 48 26 13
-0.01971431567615338 0.09901946643026613 -0.5034436970907455 50 28 15
-0.014317733913495279 0.11874058754347805 -0.5116048770537203 51 29 16
-0.015406310959207158 0.11437848686122838 -0.5136741315301716 52 30 17
-0.014154832132824355 0.11870385831980257 -0.5179660886768434 52 30 17
-0.013522594969852385 0.1207294520003841 -0.5216779782294123 53 30 16
-0.01375007701146612 0.11956407020070577 -0.5245661282945961 54 31 17
-0.013584029729914078 0.11985897362051175 -0.527834795063019 54 31 17
-0.01403021090857512 0.11788259786260134 -0.5305062357427135 56 33 19
-0.014268436354262518 0.11667802503004145 -0.5333774675529246 57 34 20
-0.013787282897677042 0.11814135283575275 -0.5369590725554751 58 35 21
-0.014088097637032442 0.1167048135460294 -0.5397670159803617 58 35 21
-0.013773565278946916 0.11754971771159417 -0.5431888249735473 59 36 22
-0.013641559763334532 0.11771769103644322 -0.5464304766628882 58 35 21
-0.013361610295695249 0.11843372257393507 -0.5498241142244914 54 32 18
-0.01359587698843815 0.11724412876195252 -0.5526963767220087 54 31 17
-0.0200002919767271 0.09319721237414076 -0.5492300617452452 58 32 18
-0.016684659633405582 0.10516051755566502 -0.5557269390563851 58 32 18
-0.011034430566573723 0.12576543982748192 -0.564688894335572 58 32 17
-0.016653468781797298 0.10463672824772029 -0.5619444927369559 57 31 16
-0.01601421461314472 0.10668359719736434 -0.5657092490020342 58 32 16
-0.015269439574132224 0.10912023192775816 -0.5695934013758801 57 31 14
-0.01743515957772728 0.10078464130858834 -0.5703936914356889 59 34 14
-0.017130281007973813 0.1015934658424795 -0.57380865160814 63 36 17
-0.017243256228418533 0.10085599318471203 -0.5767784584013844 60 33 14
-0.017360523750468017 0.10010275665042617 -0.5797425306449814 60 33 14
-0.017452954428325784 0.09944149460833179 -0.5827324430834562 61 33 15
-0.01745757310644787 0.09910502769635068 -0.5858174459364267 62 33 15
-0.013842184532232203 0.11215220107579611 -0.5928794127905629 61 32 14
-0.013749648937165855 0.11217258999810573 -0.5960937526808846 60 31 13
-0.014205328993121082 0.1101666873528703 -0.5987006586418219 62 30 13
-0.014691851899764866 0.10804734819965206 -0.601267937951814 63 30 13
-0.015359301327380288 0.10526012077916096 -0.6036265745766886 63 30 13
-0.015252377457073862 0.1053342637594457 -0.6068513159366632 64 31 13
-0.015212601399725308 0.10516024253917372 -0.6100014170719343 67 34 15
-0.015200071600600676 0.10488553051807756 -0.6131211772044368 69 36 17
-0.015399593848363757 0.10382783935583696 -0.6159982521623749 70 37 18
-0.015083799909561699 0.10467269737908569 -0.6194670195137494 72 37 17
-0.014358859938870927 0.10702727952331664 -0.62341374361565 73 38 18
-0.013729612554008168 0.10902780094223948 -0.6272579777404778 72 38 17
-0.012587661893241758 0.11291925040615136 -0.6317100049025745 73 39 18
-0.012521268468619319 0.11284141952682983 -0.6349108026055755 72 40 17
-0.01118937532201917 0.11743125706568946 -0.639608790255979 73 41 18
-0.011257696867813222 0.1168556156241093 -0.6426591868867779 73 41 18
-0.011956688890421625 0.11395459333823904 -0.6449558657723846 72 40 17
-0.011207348606964936 0.11639387447941778 -0.6489827257352886 74 42 19
-0.012610611103440111 0.11089768336808946 -0.6504223755857331 76 44 21
-0.013381045780704988 0.10773542085776867 -0.6526125813397372 72 40 17
-0.014686575239589522 0.10260238138972903 -0.6541419947721292 69 36 15
-0.01550357200703336 0.09927076130803407 -0.6562540680025256 62 27 8
-0.01521034954172517 0.1000296595557915 -0.6597223230153426 59 27 9
-0.01495913737878956 0.10063344806174315 -0.6631424143917068 60 29 10
-0.013408962426349279 0.1060200695232393 -0.6681792059611986 59 28 9
-0.013343375469074208 0.10593896682094926 -0.6713819254047315 56 25 7
-0.013613630120126764 0.10462150268697397 -0.6741645172407125 57 26 9
-0.01602054759104947 0.09544048087246136 -0.6742518067405524 57 28 12
-0.012967322541666472 0.10635477585630869 -0.681223326748969 56 27 11
-0.01412283183989578 0.10178046798464602 -0.6828780077418654 56 27 11
-0.014952205805841008 0.0984072811464814 -0.6849359129043169 56 27 11
-0.015913170751304537 0.09455110758913145 -0.6868151730163747 54 25 10
-0.016178788765693987 0.09325312998407284 -0.6895801780460267 54 25 10
-0.017896550087705236 0.08661631853502727 -0.6904602799883043 53 24 9
-0.01900561155907532 0.08221925532069019 -0.6921125740678287 52 23 9
-0.014334100974632225 0.09906997256155771 -0.7013127169309846 54 25 10
-0.0158242657939016 0.09327151867125012 -0.702472816045029 54 25 9
-0.015210609107417089 0.09520485240252322 -0.7063922868274677 54 25 9
-0.01666881752617866 0.08952613080799643 -0.7075721558015775 54 25 10
-0.016405828522811722 0.09017116808060482 -0.7110273577751269 51 22 7
-0.01717554062472438 0.08702336959900578 -0.7131042653728898 53 24 9
-0.01706368506828323 0.08711341457187295 -0.7163569778408978 55 26 10
-0.01794828474307189 0.08354515509030991 -0.7182661311243762 56 27 11
-0.01860903980616585 0.08079959477158956 -0.7204684503623474 57 28 12
-0.01909650920198374 0.07869077058726918 -0.722899103238697 57 28 12
-0.01923712563476076 0.07785522974353551 -0.7257986343278429 57 28 12
-0.01898040464538322 0.07847753826632704 -0.72924264568446 55 26 12
-0.018867183369979522 0.07857313757664959 -0.7324919717881185 55 26 12
-0.01960567344386001 0.07554497539889603 -0.7345625031268471 54 25 11
-0.018553269587973632 0.07844445834351677 -0.7453102985149924 55 23 10
-0.01844783215487801 0.0785107828659898 -0.7485558807422492 55 23 10
-0.018775206930780275 0.07699098230021768 -0.7511901538395473 56 24 10
-0.018881361193842802 0.07628204991762147 -0.7541353112222955 57 25 10
-0.01898364179200218 0.07558741252546211 -0.7570849801920895 58 26 9
-0.016418981940021837 0.08466046972545095 -0.7638578810430637 59 26 9
-0.016495985828813196 0.08405693836720367 -0.766858009397598 61 28 10
-0.016911761303111963 0.08221315518956028 -0.7693676269145766 63 30 11
-0.017264681103329113 0.08059995172590978 -0.7719637703287587 63 31 10
-0.01889210811092399 0.07432247682078107 -0.7726977705664202 63 31 10
-0.01986174613454616 0.07045408824034766 -0.7743754509282668 63 30 11
-0.02082442062195205 0.06661235490449885 -0.7760519759586422 62 29 12
-0.01921615783097666 0.0721766066066416 -0.7815117938813892 61 28 11
-0.020291056636151064 0.06792515398001794 -0.783014828463026 59 26 9
-0.021357353501412525 0.06370646609447117 -0.7845180035759162 59 26 9
-0.022537942265489545 0.05907119467241875 -0.7858378715987449 59 26 9
-0.022491067997556936 0.058924530907759315 -0.7889849887523284 60 27 10
-0.02226703087323266 0.05942531704181825 -0.7923997290715218 61 27 9
-0.022248011227766297 0.05917658249642771 -0.7955074272296037 63 28 9
-0.021749882417231622 0.060678357911491954 -0.7993429024556699 65 30 10
-0.022080533202256773 0.05915182431088242 -0.8019215371539883 65 30 10
-0.02187056367717303 0.05960031164190842 -0.8053236192326059 64 29 10
-0.02153455602400188 0.06050879264434858 -0.8089220794020535 65 30 10
-0.02225317618792568 0.05756607201506808 -0.8108985356773214 65 30 10
-0.022682157384855996 0.055681595729175 -0.8133149866528054 66 31 11
-0.02735595363888515 0.03830382753219873 -0.8091297417956896 64 29 9
-0.022938207380660637 0.0541108020475214 -0.8190722138656222 63 28 8
-0.023692451836109123 0.05104064899895312 -0.8209681704745405 63 28 9
-0.024362497893699785 0.048278579030633234 -0.8229876787216249 63 28 9
-0.02604258859821544 0.04183311095461226 -0.823405392064721 63 28 9
-0.027677157816957773 0.035555720107547956 -0.8238752601330122 64 27 9
-0.02825221313395296 0.033143665779198306 -0.8260105185411829 67 30 11
-0.029143231773370755 0.029580392746468606 -0.8276347741479934 68 31 12
-0.028879721017758764 0.03022655330194471 -0.8310983444232152 64 27 8
-0.029715460809912376 0.026866188278353145 -0.8327975046244136 63 26 7
-0.029636350371621042 0.026840400768309944 -0.8359636384991055 64 27 8
-0.02946574645440049 0.02714781927924534 -0.8392792169591263 69 31 12
-0.0294034595087401 0.027060445196563143 -0.842420946618993 73 35 11
-0.02913891484431291 0.027709584177992325 -0.8458938190489435 76 39 13
-0.029020573194432395 0.027825992154860313 -0.8491306012323495 79 41 13
-0.0315428073525332 0.01832861634355916 -0.8480270908486716 81 41 15
-0.03235772839417787 0.015049148902384596 -0.8497111202468751 87 49 22
-0.032671394369774 0.013594978001120264 -0.8522158486215723 87 53 28
-0.0322536255955536 0.01480275911287654 -0.8559329773281177 84 52 29
-0.031888308879218216 0.015819161499548276 -0.8595678747753374 84 52 31
-0.03127947169119885 0.017720916658752542 -0.8636151799435855 85 53 31
-0.030592641857703783 0.019905546566249085 -0.867801131305625 82 50 29
-0.02991856557166582 0.022042918884512278 -0.8719740976188571 79 49 31
-0.029182640737792344 0.024404291569212644 -0.8762601136553037 76 49 32
-0.029478388059022396 0.02301446674366174 -0.8788029247284012 72 45 31
-0.02947265976924069 0.02272069751379048 -0.8818563035490317 68 46 31
-0.02855606944238327 0.02573685629919846 -0.8864681008649312 66 44 29
-0.02494132529241292 0.03855492744891388 -0.8957228505800986 65 42 28
-0.022818644248150034 0.04594835370425909 -0.9024511482404186 64 41 27
-0.023237176471552816 0.044109400088912176 -0.9048124044405446 62 39 25
-0.023612869884654525 0.0424265059253678 -0.9072431813423897 57 34 20
-0.027787627110815304 0.026950553681571177 -0.903056616826365 54 31 17
-0.02721403459725063 0.028716951083436693 -0.9071140949079668 51 28 14
-0.025961706895662948 0.032946088327070897 -0.9123684049115951 51 28 14
-0.02448855679454251 0.03797497965102928 -0.9180264494154472 61 38 24
-0.02500132226681292 0.03579657014019419 -0.9201977181596236 68 42 27
-0.024543855422042182 0.03713843399624679 -0.9240811973077844 69 43 27
-0.02498648250048436 0.03521503938288702 -0.9263710831427793 71 45 29
-0.029611356227385855 0.018125669867805602 -0.9211992843508069 74 48 33
-0.027504771565079925 0.02544880694946719 -0.9280141817069549 72 45 28
-0.025828536667261738 0.031209207325564314 -0.9340822749980415 70 43 25
-0.025743925039516107 0.0311986051888698 -0.9373043096396364 69 41 22
-0.02599455090950705 0.029973002104359714 -0.9399218284371353 66 37 19
-0.02852610205837515 0.02048324851087542 -0.9384010751947005 62 33 15
-0.028888430208788198 0.018854981667429438 -0.940796088432376 60 31 13
-0.032103076332856105 0.006895944693012607 -0.9379810748066086 60 31 13
-0.027685166810842432 0.022581516350458533 -0.9491041267625452 61 32 14
-0.02878793810688695 0.01827233753494127 -0.9501380540230855 61 32 14
-0.02868679396631489 0.018322879595806738 -0.953378044976424 68 40 24
-0.02539970620195167 0.029904918914561165 -0.9625112508778806 74 51 37
-0.026268586633281223 0.026442731278176645 -0.963973706311483 88 69 58
-0.028139276944759338 0.019356761540681472 -0.9635611870932904 93 77 68
-0.030530250310925027 0.010390889507315967 -0.9621547506503922 97 83 74
-0.032475694699525576 0.003039473727379949 -0.9615543637092947 99 83 74
-0.03395717439189217 -0.00263164844930823 -0.9618027441561604 103 86 78
-0.033477956810756146 -0.0012114675160362076 -0.9657304190729519 103 86 78
-0.03540383216476402 -0.008486732112769346 -0.9651147477686732 105 88 80
-0.03484218243067592 -0.006768343056719042 -0.9691963956771219 107 90 82
-0.03414110958080538 -0.00454681686211135 -0.9735504903784403 108 90 83
-0.034560004501921454 -0.006372968654705241 -0.9757745182727463 103 88 81
-0.036741772425554514 -0.014567306553474879 -0.9746165477546131 100 85 79
-0.037100797398028906 -0.016175109249658426 -0.9769353538918875 101 86 80
-0.037768133771397254 -0.01889593220277043 -0.9786557019244444 106 91 83
-0.03803337599298512 -0.02016406588333107 -0.9811458246496765 108 93 87
-0.037799221039731865 -0.019628982902493694 -0.9846017702983053 100 86 81
-0.037314520903328194 -0.018189862848009497 -0.9885483418366761 90 77 70
-0.0374475831650076 -0.01898083211441165 -0.9912951543580918 87 72 65
-0.03795407658380494 -0.021119112323441283 -0.9933094140220416 82 67 61
-0.03834769275860458 -0.022849560723104748 -0.9955394974040696 79 63 57
-0.03966599893884776 -0.027914945789515144 -0.995943309231535 74 52 43
-0.040491776304749455 -0.0312024402949551 -0.9973047489118634 64 41 29
-0.04121453493237559 -0.0341174630262701 -0.9988606539478416 53 27 15
-0.03994812073561977 -0.02986029201686996 -1.0043630806897683 52 24 12
-0.03996859498255957 -0.030243383101246427 -1.0073146049791155 51 21 10
-0.04017210962054502 -0.031286137825101645 -1.0098999799954138 51 21 10
-0.038664193395661975 -0.02616186641415265 -1.015916988406119 52 23 10
-0.037237189588798875 -0.02133100747989418 -1.0217896559830684 53 24 9
-0.04232733724924665 -0.0399770533376088 -1.014524836057139 54 25 11
-0.04224196691873895 -0.03997752893189807 -1.0176768692396392 56 27 10
-0.04225931301824962 -0.04034799779336233 -1.02062160325168 58 28 12
-0.04232482229545376 -0.04089186609579709 -1.023468280563393 58 29 11
-0.042390237597066026 -0.041435339593949974 -1.0263146028730878 64 32 13
-0.04245573941754411 -0.04197906804242306 -1.0291602020259576 67 36 16
-0.042976247158143785 -0.04415998541933101 -1.0310702923135222 72 42 24
-0.043309658123707184 -0.045667164518919265 -1.0333599118349457 77 50 32
-0.04472902703829004 -0.051080189505357115 -1.0334011264857788 79 54 36
-0.04523157674984035 -0.05319419865609969 -1.0353259625838884 80 58 38
-0.04402499206629156 -0.049161913008258076 -1.0407983395765699 81 59 41
-0.04472315818201836 -0.05197905774294337 -1.0423139609453898 80 57 41
-0.04125090350178093 -0.03980461108516163 -1.0525424148754556 80 57 41
-0.03985949289162158 -0.035112911093123006 -1.0584491821424875 81 58 42
-0.04040890616720898 -0.037396917010606934 -1.0602909551362039 82 59 43
-0.040399940656967295 -0.0376741946459625 -1.0633041291933865 80 59 45
-0.039958796129167695 -0.03639910690377118 -1.0672318897618276 80 59 44
-0.04155577973380388 -0.0424443485078244 -1.0668414425588524 79 57 43
-0.040876036166889326 -0.040312383310443095 -1.0712756634458775 74 55 41
-0.040438358891106675 -0.03905035093528815 -1.075201902816295 71 53 41
-0.04031387448441695 -0.038913107542972086 -1.0784635754604335 64 47 34
-0.03575019128494063 -0.02284419108604417 -1.0912521856752606 53 37 27
-0.03960482177742271 -0.036988257144052544 -1.0859821804655239 42 29 20
-0.03999309492935417 -0.038691441437484486 -1.0881454727818565 34 21 15
-0.04035780309588873 -0.04030963659881122 -1.0903552970952952 26 12 9
-0.04028538259769179 -0.04035968343886509 -1.0935094930012401 31 18 12
-0.03906918679936061 -0.03630853147808065 -1.099153682688436 34 20 14
-0.037968136945781016 -0.03267174441545405 -1.104561613227658 38 22 15
-0.03796747315981499 -0.032980715279446765 -1.1075753483212587 43 22 15
-0.03998988737439235 -0.04054020071402843 -1.1061502925726474 48 21 13
-0.03934407080833992 -0.03853620455406083 -1.110571781203294 54 26 12
-0.0394219615862763 -0.03912582354276477 -1.1134046109407607 63 33 14
-0.04101397703313341 -0.04513897798583087 -1.112886889573329 70 40 19
-0.04116997485882379 -0.04600723456727179 -1.1155358612735968 74 47 26
-0.04112147836336079 -0.04614307715535006 -1.1186380928670077 82 57 35
-0.04104763102209852 -0.046188246912366865 -1.1217977083006767 82 57 36
-0.041382393429717904 -0.04769615342494668 -1.1240445405289459 78 56 35
-0.04477810823571912 -0.06015842395754804 -1.1194226249549495 79 54 35
-0.04166159623996092 -0.0493141153785821 -1.1294045185638524 78 54 36
-0.04308323369371862 -0.054709506900696966 -1.1291914947233523 77 56 37
-0.04080571823483969 -0.04687130589106034 -1.1373250729860334 77 56 37
-0.04252613354978679 -0.05333403954730015 -1.136423142081993 78 55 38
-0.04262249743255522 -0.05398746158554983 -1.139192193926331 77 55 39
-0.04035462890028932 -0.046188402921876245 -1.1473488078047773 74 54 38
-0.04098399790741447 -0.048748334183440364 -1.1489123247815092 63 44 34
-0.03944436650745822 -0.043555814057572265 -1.1554383081256574 62 45 35
-0.040837017753386426 -0.048842956662639256 -1.1552466496903824 82 70 58
-0.03745954523108264 -0.03708664824366506 -1.166026122908068 120 114 106
-0.041921482150891 -0.053336732246426294 -1.158741470898192 157 154 149
-0.04918549000171883 -0.0795883888223469 -1.1449143452029598 174 173 170
-0.05540343977305662 -0.1020957746856096 -1.1334278205639143 184 183 181
-0.04664140886460942 -0.07111557417180707 -1.1567358378345758 190 190 188
-0.03801583467820325 -0.040633481485750564 -1.179832115178832 195 194 192
-0.030555968397669168 -0.014322461909018896 -1.2003058148613317 198 197 196
-0.03574960467772818 -0.03317107347402953 -1.1911853815592643 200 198 199
-0.035262540028961425 -0.031746875036239006 -1.195363493068375 200 199 200
-0.03816395095746488 -0.04240981677245244 -1.1915572355308706 200 200 200
-0.03738270359569999 -0.03993561684954998 -1.1964226093296242 201 201 201
-0.038237235536983175 -0.043295101823787346 -1.1974204265140842 202 202 202
-0.03877580646722223 -0.04552711905160918 -1.199158949460475 203 203 203
-0.0597631514547109 -0.12064671274029548 -1.1521725429346414 203 203 203
-0.057999576441152105 -0.11466018297004961 -1.159272910496217 203 203 203
-0.060975801577918695 -0.12556462317928388 -1.1550448779490836 204 204 204
-0.027454264299262517 0.1457991045840227 0.11929585507171907 183 183 185
-0.030567946085172947 0.13346512704921348 0.1154635464496493 183 183 185
-0.029083866457263876 0.1388890596483709 0.11288274702994346 183 183 185
-0.02829801123709585 0.1416154087510665 0.11010380009364937 183 183 185
-0.027179608050274518 0.14562449711534864 0.10739929635036342 185 183 183
-0.02586639243625659 0.15038410633558127 0.10472938812915952 151 141 137
-0.023204831666115276 0.16034541052541648 0.10236824614974081 116 96 90
-0.02520847583285191 0.15230307166519388 0.09888020396315159 112 84 73
-0.026325588235298743 0.14768323028107228 0.09561845984397993 112 81 66
-0.027366393082634964 0.14335905869603816 0.09238666826518906 113 86 68
-0.030083931648689572 0.13256962950987422 0.08880295311454162 102 75 58
-0.028936171304354493 0.13668806315992735 0.08606728526499807 101 74 57
-0.01773219276771039 0.17957568678122934 0.0853819862320217 101 73 59
-0.018886172532761467 0.17481245074206322 0.08210049699407933 100 72 58
-0.01886771574419719 0.17456936322333125 0.07905919779739128 98 72 57
-0.018849201448432468 0.1743264491265096 0.0760174424614179 90 62 47
-0.018437956921772775 0.1755966567414103 0.07304655797015754 72 42 26
-0.031282266191636446 0.12580142793245763 0.0677410002652344 64 35 19
-0.032304098563172075 0.12155883269986985 0.06459479212054568 61 31 15
-0.033513780481178576 0.11659402643355485 0.061429615895669046 61 32 16
-0.03455059310791102 0.1122963051007631 0.05830580422804008 64 36 19
-0.035663988961955786 0.10770498481759155 0.05518234919265176 66 38 25
-0.03639932298714693 0.10457026788588711 0.05212708366598486 76 51 43
-0.03698993109157768 0.10199342694424686 0.04910057090568729 80 60 51
-0.0378813520911502 0.09825973115374648 0.04604036843101977 91 71 58
-0.038180721907211224 0.09680499325901243 0.04306653031591749 94 70 58
-0.03842506254867185 0.09556228491213685 0.040102735458541525 112 88 78
-0.03872323545048374 0.094112797799942 0.03713530804373185 127 106 95
-0.039042997822712845 0.09258062443697501 0.034168773999170954 124 104 92
-0.03891685044657784 0.09276335028418604 0.03125253234380782 117 97 85
-0.03960766238237588 0.08980516734357476 0.028253733236945675 109 90 77
-0.0396852787637874 0.08920480627100925 0.025319903897541088 100 79 67
-0.040809545128964786 0.0845820360197014 0.02229557713245034 82 58 46
-0.040169925103877735 0.08673849475901886 0.019427531936603026 68 40 27
-0.04055510877705651 0.08495687922034867 0.016474529900383332 66 35 20
-0.041646797498827506 0.08046176635026872 0.013476832010525385 57 27 12
-0.044097488741839545 0.07074836797476647 0.010405567084588258 56 27 12
-0.04512592396429276 0.06649960296451415 0.007444895353382898 54 26 12
-0.045594349037548935 0.0644022461508994 0.0045250653738108165 49 23 9
-0.045724015393006814 0.06360590509341806 0.0016260261945965577 48 23 9
-0.04555070433684605 0.06397261960867687 -0.0012596578125885207 44 21 8
-0.04514477673179109 0.06523181080207485 -0.0041397480616393095 44 22 10
-0.04439710921020792 0.0678017687462859 -0.00701532242096478 42 20 11
-0.04338112554132009 0.07140017851460562 -0.009894066936919181 37 14 9
-0.04119586776956028 0.0794825050463574 -0.012766214889338996 38 16 10
-0.04066479437051483 0.08121791349957004 -0.01568135737910215 40 19 10
-0.04401548693341955 0.06806744485459426 -0.018619684733143013 42 24 15
-0.044026868805912486 0.06772408423860857 -0.02152401913585896 43 28 21
-0.04256588108414909 0.07302493227235474 -0.024439569485438087 46 31 23
-0.04305390110173151 0.07085378516254019 -0.027346407612741493 44 31 24
-0.042812399526244396 0.07147888509197792 -0.030261849896095695 39 27 21
-0.04310540912266278 0.07005563625146692 -0.03316686203960728 27 16 12
-0.04288266900178765 0.07060854851317719 -0.03608475025541002 22 12 8
-0.0422975868195258 0.07254906816961625 -0.03901897765435286 19 11 8
-0.04143908068164916 0.07553599585710152 -0.04197215247056668 18 10 7
-0.034035288326951754 0.10358471760506395 -0.04525645661372913 16 11 8
-0.03281872731685739 0.10793632167105148 -0.04828888931982746 11 6 5
-0.03247788782665649 0.10893421674554257 -0.05128269328548047 10 5 5
-0.03222342066219391 0.10960109591248507 -0.05427501222037381 14 9 8
-0.03159624418474226 0.11169388628980102 -0.05729768566158876 12 7 6
-0.032927921445389974 0.1062911323402763 -0.060174023559094264 12 8 7
-0.03334566830783115 0.10438620368549241 -0.06311209490786984 14 9 9
-0.031095835683603638 0.11268489906772794 -0.06628681147060181 15 11 10
-0.0325885977862506 0.10666817718460192 -0.06912764183146765 14 9 10
-0.032913292357331723 0.1051195309437175 -0.07207054952922182 16 9 10
-0.033806363395395625 0.10139833516806017 -0.07494831937665346 26 15 13
-0.034533431932105556 0.09831273840528018 -0.07783469914782765 57 43 38
-0.034901228026078555 0.09660107681744651 -0.08075585530544321 58 44 36
-0.03554152447352303 0.09384856279584704 -0.08363854499875172 49 30 22
-0.03577176637081093 0.09266345558227489 -0.0865680012001352 46 26 17
-0.03802198740398216 0.08376233978721408 -0.08921639947163265 43 23 14
-0.036771583559347544 0.08823410276435303 -0.09234187156809702 36 16 9
-0.036963816694875015 0.08719524205608081 -0.09526635536130597 35 15 8
-0.03761447994144747 0.08440624300371463 -0.09811742223947997 55 35 28
-0.0379439119788813 0.08284432359833069 -0.10101293297534275 55 31 22
-0.039084459965908105 0.07818682446918912 -0.10376886005219343 61 35 25
-0.04081499464728888 0.07127913114490589 -0.10640913092317819 66 39 28
-0.04081006350185187 0.07099552728337254 -0.10934050755873544 65 38 26
-0.04378678897882174 0.05933664933820573 -0.11171947646710167 79 51 37
-0.04574068190225232 0.05158294921332632 -0.11425902426917481 83 56 42
-0.04695456132310205 0.046653918438542635 -0.1169215763842352 111 89 78
-0.048057941616266545 0.042147709673783514 -0.11959240622881386 125 105 95
-0.049098902091244644 0.037880811654666766 -0.12226342601451573 118 94 81
-0.050011063670755904 0.034106147657303715 -0.12495002060280126 112 85 72
-0.05091988133809723 0.030345322046444197 -0.12762675891573338 85 44 25
-0.05203564370149342 0.02579696381217645 -0.13024597978457902 88 46 23
-0.051260253486321905 0.028455568641484123 -0.133292561996572 75 37 15
-0.04967573049076371 0.034195639347410475 -0.13654181047934516 66 32 12
-0.0512119361761213 0.028047050339468534 -0.13904634937149146 63 32 13
-0.051807780079792955 0.02548153289275265 -0.14176860471056377 62 30 11
-0.05189655422650836 0.02484750230445585 -0.14461414088556235 64 34 16
-0.05225505150422181 0.023186690961965024 -0.1473880388711687 62 36 25
-0.050232926777286094 0.030588122472478853 -0.15079711400296536 58 38 29
-0.054919063781078116 0.012456193491387251 -0.15238941389224556 59 43 33
-0.05483630068509596 0.012476936807891546 -0.155263390289463 59 45 36
-0.05701609301011096 0.003889309242696983 -0.1574907498670402 59 45 36
-0.053585143757997375 0.016647832210992967 -0.1613322951673854 58 44 36
-0.056910264115510804 0.0037058885815881154 -0.16320009368775396 58 43 36
-0.05156707395195748 0.02373198973387909 -0.16766514704702384 58 41 34
-0.048417432447831935 0.03541119486224683 -0.17151373136893439 54 39 32
-0.04873349322098153 0.03391133539124607 -0.17430466817806753 53 38 31
-0.04963839827448921 0.03017365667640482 -0.17690247889399013 53 38 31
-0.050630416478023285 0.02610600255295959 -0.1794611973799012 54 38 33
-0.044648688962866494 0.047034085432037645 -0.1989101440667749 54 39 32
-0.04141599023037386 0.05900475918608048 -0.20302026340252163 55 40 33
-0.040954254456507834 0.06045438431318758 -0.2061285179645571 55 40 33
-0.041889012030697836 0.05660395304301481 -0.20870977680002425 54 39 32
-0.04212295530633897 0.05541369055531672 -0.21155166728367814 53 38 31
-0.030024165252750055 0.10100925337020658 -0.2192424732742996 53 38 31
-0.039840027535628444 0.06346777631071529 -0.21832630644822598 53 38 31
-0.03484900226157108 0.08209167822573103 -0.2232945407259068 52 37 30
-0.03877668528703945 0.06689177046353906 -0.22465472686011057 51 36 29
-0.03506790546794475 0.0806476500515505 -0.22915425860135893 51 36 30
-0.03383417253345176 0.0850171904626571 -0.2326508915268823 51 36 30
-0.03213349719275936 0.09115486495129381 -0.23636282600636546 51 36 30
-0.03663518278347847 0.0737877686545055 -0.23739689317302312 50 35 28
-0.039954377427616164 0.060906275855696704 -0.23889907802868135 49 34 27
-0.04088490189637174 0.05707730866444853 -0.24142962357532927 50 35 28
-0.0432372114124141 0.04786450077199377 -0.2433053676186492 49 34 27
-0.043874913530170104 0.04514751980548276 -0.24594012637746981 49 34 27
-0.042453282404770476 0.05022841665622085 -0.24952478123378147 49 34 27
-0.041774764318982596 0.05249439726114031 -0.2527767624248561 49 35 26
-0.04071593358941154 0.056199003750224276 -0.25621838534918795 50 36 27
-0.039540322154385646 0.060344226827795916 -0.25972923973045176 51 37 28
-0.0371265465233861 0.06917291350985297 -0.2638594025655848 49 35 26
-0.03513222714153695 0.07641173603104391 -0.2678111030927733 49 35 26
-0.033763758099340874 0.08128077315356469 -0.2714735255927033 50 36 27
-0.03365321977784421 0.08139069603839595 -0.2745152998333484 50 36 27
-0.03366080937803352 0.08074553954966765 -0.2804849805150488 49 34 25
-0.030959205914151817 0.09064956262049166 -0.2848889326084578 50 33 25
-0.031235927370878467 0.08929375027626005 -0.28774564478706677 50 33 25
-0.03117172873022341 0.08922654001832964 -0.2907821604769467 46 29 21
-0.02984785485371855 0.09391857772302234 -0.2945028443740618 42 25 17
-0.03348903637374616 0.07985285684062395 -0.2955172711163999 43 26 18
-0.030040752742145585 0.09256855004261544 -0.3004178853956604 40 23 15
-0.03036804166811116 0.09102193396868871 -0.30324472973419453 36 20 12
-0.029451057424796416 0.09417379138470848 -0.30677240740355255 59 42 34
-0.030300672302484684 0.09065530027601809 -0.30930050943018644 62 43 34
-0.031147500129319047 0.08714834973441135 -0.31182033176216223 75 48 35
-0.02999028994904546 0.09120551210896005 -0.3155008270870266 59 27 9
-0.029980132495960526 0.09093303546546629 -0.3185185576560361 63 30 11
-0.029817374592491463 0.0912362359313286 -0.3216276103806369 65 34 16
-0.028167599114432434 0.09714836031362695 -0.32563402496238397 59 29 11
-0.03332046836912603 0.0774024935824073 -0.3255246454548186 56 28 11
-0.03146965858699396 0.08407276219165684 -0.32965376066676755 61 32 18
-0.03079112228572919 0.08632098144997848 -0.3330785287968738 62 38 25
-0.031053350831429804 0.08502201665696144 -0.3359228495309093 47 29 18
-0.03103443702001219 0.08478297504332336 -0.3389419235288501 27 14 7
-0.030473808871116677 0.08658527209512762 -0.3423069832578223 25 16 10
-0.030729983926373116 0.08530932807636096 -0.3451531407214022 34 23 16
-0.029414324560192065 0.08995501202695669 -0.34901779743573325 29 16 13
-0.02944669715616458 0.08952163934508761 -0.35201447259516794 29 17 14
-0.026689979460489725 0.0995917669098246 -0.356856562433629 26 15 11
-0.026488782259706183 0.10003616408785468 -0.3600255721462099 26 17 12
-0.02635082183321958 0.10024222085947142 -0.3631546359729876 31 22 16
-0.027159543224448454 0.09688470646016997 -0.3656422068038205 31 21 14
-0.028009496750460952 0.09337298852736897 -0.36809209357283645 28 16 11
-0.028856665276995302 0.08987277268725616 -0.3705339972530911 49 32 25
-0.02931144693901667 0.08784982123006468 -0.37323973563635005 58 36 25
-0.02980159884445795 0.0856943563672994 -0.3759154021760062 54 31 19
-0.029652499568773773 0.08594368451724385 -0.3790390128428904 51 28 17
-0.030207883370550713 0.08354368756405009 -0.3816606050422578 49 25 15
-0.028536575526883587 0.08951615616516909 -0.385882289021901 46 22 12
-0.029448680308736548 0.08577514280486331 -0.38824491406033723 47 23 13
-0.03140580228130935 0.07810751471767265 -0.3898304384949281 58 36 25
-0.02628742706138347 0.09703128526792518 -0.3966244632324901 54 30 19
-0.029195197683599947 0.08579221491797101 -0.3974973829725288 54 29 16
-0.031096482639022146 0.07833773798400961 -0.3990920102259924 53 27 15
-0.033529953714179994 0.06888666593245336 -0.4002610915965239 53 27 16
-0.0373534769628535 0.05421832808993616 -0.400340239195734 54 26 13
-0.03849842703166803 0.049612228199402496 -0.4024345447362064 60 31 12
-0.03743728257246076 0.05328962799578536 -0.40622576904065266 73 41 24
-0.04005653686527921 0.04315102658480922 -0.40715452020778153 87 60 47
-0.041487732648416306 0.03747437198441948 -0.4089874833668247 97 74 62
-0.04291075810159388 0.031830117852857456 -0.4108100416951472 106 79 66
-0.043722932873835496 0.028479340665608928 -0.41310402090106224 79 46 25
-0.04395289674175541 0.027313477820739937 -0.41585732614171483 76 39 15
-0.0451167415429099 0.022645362673666153 -0.41785055359258955 70 36 12
-0.03915495193247004 0.04469888171795652 -0.425653078533162 66 33 10
-0.03988285912237834 0.04166363156632649 -0.4280204326107392 66 30 9
-0.04074672073431891 0.03811961195637639 -0.4302665861639219 66 30 10
-0.04171449346595832 0.03418717393072248 -0.4324158569316674 66 34 14
-0.043825414821514086 0.025972070619560222 -0.4335922334606955 68 41 24
-0.006142587150184953 0.16653142086354744 -0.471619462271314 77 55 42
-0.005692778328317348 0.16788950289751697 -0.47517164908816784 70 47 34
-0.00756713505832092 0.1605431679438063 -0.47671885605351383 71 51 37
-0.011441566373024889 0.14571022371243203 -0.47650162503717747 58 40 28
-0.018313184195071913 0.11966150035858886 -0.4736094580008618 52 33 21
-0.019808813739924873 0.11374396864471939 -0.4753825834500666 52 32 21
-0.018515913634870533 0.11826420800589513 -0.4796172191893055 51 31 20
-0.018408096718664183 0.1183484339956159 -0.48280688910191877 47 27 16
-0.019041389227278355 0.11565984810466792 -0.4853303299796299 47 27 16
-0.021847800572194126 0.10484325132626035 -0.4858753216233985 45 25 14
-0.023756032542724445 0.09738927433818438 -0.48720699473808116 46 26 15
-0.023224204320350383 0.09906190212537759 -0.4907585361945785 47 27 16
-0.02174662608454799 0.10426976291993904 -0.4951915514974593 49 27 14
-0.021624970783308092 0.104407159474945 -0.49838014224424665 50 28 15
-0.021899852410518526 0.10306232000842513 -0.5011988826377546 50 28 15
-0.019098349493597788 0.11321389771621729 -0.5069156594712774 52 30 17
-0.018217045388580856 0.11618760295309888 -0.5108439981393114 54 32 19
-0.019048033365485856 0.1127636675046419 -0.5131479057539106 56 34 21
-0.019731977030610963 0.10988994948896103 -0.5155834107542385 55 33 20
-0.02059001436636615 0.10636691451880889 -0.517842615257972 55 32 18
-0.016125712029415644 0.12271742800843721 -0.5252704523067329 55 32 18
-0.01640533252266828 0.12135250050615898 -0.5281077808773857 56 33 19
-0.017520258167647136 0.11687007105401806 -0.5301192292386756 58 35 21
-0.017525668744028382 0.11652963406381202 -0.5332170909580283 58 35 21
-0.016569727114159147 0.11977628591401607 -0.5372736198763158 58 35 21
-0.016674462093694255 0.119064664917517 -0.5402780097416211 57 34 20
-0.016541477080769744 0.11923986106255514 -0.5435212611026412 59 36 20
-0.016342302069886343 0.119661718775522 -0.5468335491753653 61 37 22
-0.01664232572626658 0.11822187231492874 -0.5496387942188375 61 37 22
-0.016377210174691778 0.1188893335193263 -0.5530211035840521 61 37 21
-0.016568553358766835 0.117854944701164 -0.555935319359513 61 34 18
-0.018992877253539493 0.10849849408909401 -0.5565273591195036 60 33 17
-0.015108804553717256 0.12265237465632174 -0.5636830370181455 59 32 16
-0.019654207450635064 0.10539538318827286 -0.5620258976068588 59 33 16
-0.0188991880751739 0.10788870779684306 -0.5659172116679363 60 34 16
-0.0179061862712781 0.11126743559663915 -0.5700708391724564 59 34 14
-0.018036369896666578 0.11046229807830057 -0.5730358987396463 62 37 15
-0.018524578304282287 0.10832427618133017 -0.5756147490478486 63 36 17
-0.01835764448548613 0.10862569194509461 -0.5788962478790642 59 32 13
-0.017166687188808545 0.11273831012371313 -0.5832932092679414 61 34 15
-0.017543252980469846 0.1110160446272515 -0.5859912893348099 63 35 16
-0.020247949477832546 0.10063175830903459 -0.5861262427959941 62 33 15
