ply
format ascii 1.0
element vertex 877
property float x
property float y
property float z
property float nx
property float ny
property float nz
property uchar diffuse_red
property uchar diffuse_green
property uchar diffuse_blue
property uchar class
property uchar detection
end_header
0.0938 0.0979 -0.7050 0.759 -0.563 0.327 50 22 10 0 0
0.0946 0.0974 -0.7078 0.759 -0.563 0.327 51 23 11 0 0
0.1658 0.0543 -0.9694 0.860 -0.480 -0.172 100 85 80 0 0
0.1977 0.0326 -1.0081 0.725 -0.675 0.134 68 31 12 0 0
0.1960 0.0340 -1.0123 0.980 -0.195 0.037 68 31 10 0 0
0.1963 0.0339 -1.0152 0.678 -0.735 0.006 68 32 8 0 0
0.1960 0.0342 -1.0185 0.637 -0.763 -0.110 69 32 8 0 0
0.2015 0.0304 -1.0241 0.753 -0.572 0.325 76 39 13 0 0
0.2048 0.0285 -1.0374 0.749 -0.574 0.330 97 64 39 0 0
0.2025 0.0311 -1.0703 0.899 -0.436 -0.048 91 63 39 0 0
0.2015 0.0327 -1.0993 0.622 -0.758 -0.195 55 25 13 0 0
0.1954 0.0374 -1.1070 0.991 0.097 0.097 61 27 12 0 0
0.2065 0.0299 -1.1270 0.776 -0.627 -0.067 96 67 42 0 0
0.0596 0.0956 0.0491 0.673 -0.727 0.134 63 28 8 0 0
0.0611 0.0947 0.0433 0.686 -0.724 0.068 61 28 9 0 0
0.0598 0.0958 0.0405 0.783 -0.622 -0.007 59 26 7 0 0
0.0598 0.0958 0.0376 0.783 -0.622 -0.007 59 26 8 0 0
0.0599 0.0959 0.0348 0.783 -0.622 -0.007 62 30 11 0 0
0.0535 0.1031 -0.0520 0.831 -0.527 0.180 41 15 4 0 0
0.0576 0.1004 -0.0607 0.900 -0.426 0.089 52 25 15 0 0
0.0579 0.1003 -0.0636 0.900 -0.426 0.089 64 42 31 0 0
0.1009 0.0707 -0.0999 0.544 -0.221 0.809 86 66 61 0 0
0.1282 0.0519 -0.1269 0.882 -0.461 0.102 91 49 19 0 0
0.1093 0.0685 -0.2286 0.983 0.025 -0.180 55 38 30 0 0
0.1041 0.0729 -0.2496 0.628 -0.574 0.525 55 37 30 0 0
0.1008 0.0759 -0.2706 0.869 -0.406 -0.282 53 35 25 0 0
0.1291 0.0598 -0.4061 0.533 -0.662 0.526 84 54 42 0 0
0.1305 0.0589 -0.4087 0.533 -0.662 0.526 110 82 70 0 0
0.1331 0.0579 -0.4375 0.693 -0.657 -0.298 72 49 33 0 0
0.0740 0.1011 -0.4685 0.735 -0.601 -0.314 74 47 28 0 0
0.0736 0.1016 -0.4748 0.827 -0.561 -0.039 71 42 22 0 0
0.0734 0.1019 -0.4779 0.772 -0.632 -0.062 71 40 20 0 0
0.0733 0.1020 -0.4810 0.772 -0.632 -0.062 72 41 21 0 0
0.0834 0.0993 -0.6299 0.917 -0.396 -0.053 81 47 22 0 0
0.0826 0.1000 -0.6334 0.849 -0.487 0.204 78 43 20 0 0
0.0810 0.1030 -0.6939 0.440 -0.825 0.355 49 21 8 0 0
0.0952 0.0934 -0.7131 0.903 -0.195 0.383 49 21 9 0 0
0.1047 0.0878 -0.7498 0.651 -0.706 0.278 49 21 8 0 0
0.1108 0.0837 -0.7596 0.816 -0.004 0.578 53 25 12 0 0
0.1205 0.0779 -0.7989 0.855 -0.470 0.219 54 26 14 0 0
0.1483 0.0605 -0.8783 0.589 -0.755 0.289 76 50 35 0 0
0.1379 0.0695 -0.9317 0.889 -0.454 0.067 79 47 24 0 0
0.1383 0.0693 -0.9346 0.876 -0.465 -0.126 71 38 19 0 0
0.1779 0.0429 -0.9983 0.799 -0.601 0.005 84 61 52 0 0
0.1922 0.0327 -0.9983 0.708 -0.700 0.097 71 37 15 0 0
0.1959 0.0304 -1.0113 0.507 -0.855 -0.109 68 31 10 0 0
0.1946 0.0318 -1.0247 0.775 -0.528 0.348 72 34 11 0 0
0.2027 0.0267 -1.0472 0.786 -0.618 -0.012 95 65 38 0 0
0.2031 0.0267 -1.0562 0.802 -0.580 0.146 92 64 40 0 0
0.2015 0.0283 -1.0699 0.908 -0.418 -0.023 87 59 35 0 0
0.1975 0.0314 -1.0790 0.772 -0.609 -0.181 86 58 37 0 0
0.1956 0.0329 -1.0835 0.909 -0.354 -0.220 79 52 33 0 0
0.1942 0.0342 -1.0940 0.705 -0.695 0.141 37 18 11 0 0
0.1947 0.0340 -1.0999 0.936 -0.260 -0.237 46 22 14 0 0
0.0584 0.0933 0.0375 0.850 -0.509 0.137 57 24 7 0 0
0.0587 0.0931 0.0347 0.850 -0.509 0.137 59 26 7 0 0
0.0579 0.0939 0.0261 0.868 -0.489 0.086 59 26 8 0 0
0.0578 0.0967 -0.0607 0.944 -0.314 0.103 51 24 13 0 0
0.1231 0.0534 -0.1696 0.335 -0.208 -0.919 60 41 34 0 0
0.1003 0.0724 -0.2617 0.514 -0.647 -0.563 51 34 26 0 0
0.0996 0.0730 -0.2647 0.692 -0.634 -0.346 51 34 26 0 0
0.0944 0.0770 -0.2743 0.895 -0.269 0.355 49 31 21 0 0
0.0952 0.0765 -0.2771 0.860 -0.357 0.364 47 29 19 0 0
0.0999 0.0739 -0.2999 0.779 -0.471 -0.414 40 21 10 0 0
0.0978 0.0756 -0.3091 0.793 -0.584 -0.173 74 49 36 0 0
0.0977 0.0758 -0.3121 0.817 -0.574 -0.056 59 26 9 0 0
0.1244 0.0595 -0.4039 0.720 -0.290 0.630 79 43 26 0 0
0.1276 0.0573 -0.4061 0.891 -0.209 0.403 81 53 40 0 0
0.1287 0.0566 -0.4088 0.891 -0.209 0.403 101 73 60 0 0
0.1292 0.0564 -0.4116 0.940 -0.258 0.225 79 44 27 0 0
0.1311 0.0559 -0.4406 0.978 -0.031 -0.208 75 50 35 0 0
0.0719 0.0990 -0.4718 0.684 -0.635 -0.359 68 40 19 0 0
0.0835 0.0972 -0.6859 0.719 -0.688 0.103 55 26 10 0 0
0.0772 0.1022 -0.7012 0.336 -0.833 0.439 50 22 9 0 0
0.0941 0.0905 -0.7129 0.973 -0.173 0.154 49 21 9 0 0
0.1032 0.0851 -0.7498 0.717 -0.693 -0.077 49 21 7 0 0
0.1177 0.0763 -0.7995 0.992 0.081 0.099 52 24 12 0 0
0.1232 0.0725 -0.8030 0.983 -0.123 -0.136 49 21 9 0 0
0.1360 0.0645 -0.8434 0.401 -0.651 0.645 67 32 13 0 0
0.1380 0.0654 -0.9180 0.825 -0.565 -0.019 86 57 38 0 0
0.1842 0.0347 -0.9931 0.589 -0.785 0.193 81 58 50 0 0
0.1933 0.0288 -1.0151 0.930 -0.336 0.150 70 34 9 0 0
0.1928 0.0294 -1.0186 0.877 -0.478 0.050 70 34 10 0 0
0.1934 0.0290 -1.0213 0.770 -0.620 -0.154 70 34 10 0 0
0.2011 0.0247 -1.0596 0.861 -0.496 0.113 92 64 40 0 0
0.1959 0.0290 -1.0791 0.891 -0.429 -0.150 80 52 32 0 0
0.1956 0.0292 -1.0824 0.934 -0.349 -0.074 74 47 28 0 0
0.1953 0.0296 -1.0857 0.721 -0.690 -0.065 66 43 28 0 0
0.1951 0.0299 -1.0922 0.691 -0.722 0.016 36 17 10 0 0
0.1951 0.0302 -1.1016 0.825 -0.409 0.391 55 26 15 0 0
0.2026 0.0258 -1.1339 0.776 -0.627 -0.067 93 63 38 0 0
-0.0047 0.1322 0.1174 0.014 -0.449 0.894 182 182 184 0 0
0.0563 0.0907 0.0518 0.709 -0.676 0.201 65 30 10 0 0
0.0566 0.0907 0.0461 0.781 -0.610 0.138 64 30 10 0 0
0.0572 0.0924 -0.0230 0.827 -0.539 0.160 53 24 8 0 0
0.0573 0.0924 -0.0259 0.842 -0.533 0.079 53 23 8 0 0
0.0569 0.0928 -0.0288 0.861 -0.507 0.021 53 21 8 0 0
0.0577 0.0927 -0.0462 0.547 -0.816 0.188 42 15 4 0 0
0.0875 0.0726 -0.0832 0.778 -0.626 -0.048 65 36 20 0 0
0.0874 0.0728 -0.0861 0.807 -0.590 0.006 58 28 12 0 0
0.1277 0.0453 -0.1268 0.824 -0.497 0.273 90 48 18 0 0
0.1373 0.0388 -0.1375 0.656 -0.690 0.307 67 32 13 0 0
0.1031 0.0658 -0.2262 0.724 -0.466 -0.509 55 38 30 0 0
0.1045 0.0649 -0.2289 0.716 -0.695 0.069 55 38 30 0 0
0.0989 0.0699 -0.2617 0.449 -0.842 -0.300 57 40 32 0 0
0.0982 0.0704 -0.2648 0.782 -0.621 -0.047 50 33 25 0 0
0.1033 0.0708 -0.3968 0.478 -0.806 0.348 58 32 22 0 0
0.1194 0.0593 -0.3960 0.455 -0.482 0.748 64 35 25 0 0
0.1249 0.0557 -0.4064 0.590 -0.705 0.393 87 62 48 0 0
0.1265 0.0546 -0.4090 0.626 -0.682 0.377 103 76 63 0 0
0.1275 0.0540 -0.4117 0.573 -0.749 0.333 83 48 31 0 0
0.0673 0.1027 -0.6065 0.714 -0.696 -0.070 83 46 20 0 0
0.1037 0.0813 -0.7582 0.177 -0.796 0.579 49 21 7 0 0
0.1148 0.0746 -0.7970 0.929 -0.345 0.133 51 23 11 0 0
0.1219 0.0698 -0.8060 0.745 -0.610 -0.270 50 20 9 0 0
0.1265 0.0669 -0.8162 0.216 -0.903 0.370 50 21 7 0 0
0.1426 0.0559 -0.8328 0.645 -0.563 0.516 63 31 12 0 0
0.1381 0.0594 -0.8415 0.858 -0.421 -0.294 66 31 12 0 0
0.1424 0.0563 -0.8423 0.726 -0.667 0.168 67 32 13 0 0
0.1426 0.0571 -0.8735 0.481 -0.871 0.104 81 55 39 0 0
0.1914 0.0268 -1.0185 0.877 -0.478 0.050 70 34 10 0 0
0.1917 0.0267 -1.0214 0.871 -0.485 0.085 69 33 9 0 0
0.1996 0.0221 -1.0596 0.861 -0.496 0.113 97 69 45 0 0
0.2003 0.0238 -1.1313 0.829 -0.558 -0.049 93 63 37 0 0
0.0554 0.0882 0.0403 0.841 -0.494 0.218 67 33 14 0 0
0.0562 0.0893 -0.0173 0.771 -0.636 -0.042 52 23 7 0 0
0.0556 0.0899 -0.0231 0.827 -0.539 0.160 53 24 8 0 0
0.0557 0.0899 -0.0260 0.842 -0.533 0.079 55 25 10 0 0
0.0554 0.0902 -0.0289 0.861 -0.507 0.021 54 22 9 0 0
0.0511 0.0935 -0.0376 0.856 -0.516 0.021 53 23 12 0 0
0.0512 0.0935 -0.0405 0.856 -0.516 0.021 46 17 6 0 0
0.0564 0.0900 -0.0434 0.519 -0.853 0.058 43 16 5 0 0
0.0857 0.0704 -0.0861 0.659 -0.744 -0.114 56 27 11 0 0
0.1188 0.0476 -0.1076 0.457 -0.767 -0.450 109 86 76 0 0
0.1274 0.0422 -0.1296 0.863 -0.490 -0.125 82 41 15 0 0
0.1342 0.0375 -0.1348 0.800 -0.583 0.140 71 34 13 0 0
0.1346 0.0373 -0.1376 0.800 -0.583 0.140 70 34 15 0 0
0.1003 0.0636 -0.2032 0.546 -0.705 -0.453 57 40 32 0 0
0.1063 0.0598 -0.2199 0.366 -0.815 -0.450 56 39 31 0 0
0.0882 0.0743 -0.2749 0.550 -0.835 0.028 50 32 22 0 0
0.1001 0.0673 -0.3260 0.806 -0.446 -0.390 63 34 17 0 0
0.1245 0.0524 -0.4062 0.784 -0.307 0.539 90 66 52 0 0
0.0665 0.0969 -0.5188 0.765 -0.616 0.187 71 39 16 0 0
0.0752 0.0925 -0.5781 0.822 -0.564 -0.084 79 44 21 0 0
0.0662 0.0997 -0.6063 0.564 -0.816 -0.127 78 41 15 0 0
0.0657 0.1002 -0.6097 0.738 -0.671 -0.075 79 43 17 0 0
0.0656 0.1003 -0.6128 0.803 -0.595 -0.022 80 44 18 0 0
0.0791 0.0937 -0.7149 0.723 -0.685 0.090 49 21 9 0 0
0.0793 0.0942 -0.7339 0.921 -0.382 0.076 47 20 8 0 0
0.1131 0.0720 -0.7939 0.822 -0.501 0.273 49 21 9 0 0
0.1135 0.0718 -0.7968 0.827 -0.554 0.095 49 21 10 0 0
0.1254 0.0639 -0.8160 0.571 -0.537 0.621 53 24 10 0 0
0.1277 0.0624 -0.8179 0.563 -0.516 0.646 55 26 11 0 0
0.1474 0.0497 -0.8605 0.805 -0.541 0.244 82 54 36 0 0
0.1314 0.0625 -0.9104 0.809 -0.521 0.272 67 40 24 0 0
0.1901 0.0242 -1.0214 0.650 -0.753 -0.105 67 31 8 0 0
0.1910 0.0237 -1.0239 0.773 -0.627 0.093 69 31 8 0 0
0.1973 0.0199 -1.0476 0.935 -0.346 0.080 97 67 43 0 0
0.0538 0.0875 -0.0174 0.712 -0.702 -0.007 52 23 5 0 0
0.0540 0.0874 -0.0232 0.827 -0.539 0.160 55 27 8 0 0
0.0543 0.0874 -0.0261 0.866 -0.494 0.073 54 24 9 0 0
0.0493 0.0911 -0.0348 0.749 -0.657 0.083 47 18 4 0 0
0.0495 0.0910 -0.0377 0.749 -0.657 0.083 47 18 7 0 0
0.0498 0.0910 -0.0406 0.749 -0.657 0.083 46 16 6 0 0
0.0562 0.0868 -0.0522 0.789 -0.613 -0.033 42 20 8 0 0
0.0992 0.0578 -0.1028 0.286 -0.496 0.820 96 74 63 0 0
0.1061 0.0531 -0.1053 0.164 -0.637 0.754 103 79 67 0 0
0.1151 0.0468 -0.1078 0.386 -0.795 -0.469 109 85 73 0 0
0.1250 0.0404 -0.1298 0.865 -0.490 -0.107 80 38 13 0 0
0.1308 0.0373 -0.1603 0.672 -0.399 0.623 64 46 35 0 0
0.0880 0.0707 -0.2689 0.394 -0.907 -0.148 51 34 26 0 0
0.0685 0.0869 -0.3527 0.662 -0.599 0.450 43 23 14 0 0
0.0742 0.0832 -0.3636 0.762 -0.243 0.600 39 21 13 0 0
0.1262 0.0479 -0.4113 0.614 -0.760 0.215 82 47 30 0 0
0.1280 0.0468 -0.4168 0.722 -0.635 0.275 71 35 13 0 0
0.0639 0.0950 -0.5160 0.830 -0.404 0.384 69 37 16 0 0
0.0666 0.0948 -0.5743 0.763 -0.584 0.279 76 41 19 0 0
0.0938 0.0809 -0.7582 0.498 -0.860 0.109 49 21 9 0 0
0.0998 0.0767 -0.7586 0.607 -0.220 0.763 49 21 8 0 0
0.1017 0.0758 -0.7735 0.967 -0.255 -0.009 48 20 8 0 0
0.1365 0.0534 -0.8500 0.672 -0.731 0.116 67 30 11 0 0
0.1311 0.0588 -0.9033 0.795 -0.374 0.477 69 41 27 0 0
0.1292 0.0605 -0.9108 0.702 -0.611 0.365 69 41 27 0 0
0.1292 0.0605 -0.9139 0.612 -0.710 0.348 76 48 27 0 0
0.1672 0.0356 -0.9822 0.762 -0.630 0.149 98 83 78 0 0
0.1879 0.0222 -1.0218 0.705 -0.705 -0.083 64 31 8 0 0
0.1891 0.0215 -1.0241 0.837 -0.525 0.155 69 31 10 0 0
0.1962 0.0171 -1.0473 0.877 -0.477 0.064 96 66 40 0 0
0.0537 0.0826 0.0286 0.850 -0.506 0.145 66 34 13 0 0
0.0526 0.0847 -0.0175 0.875 -0.481 -0.059 56 28 8 0 0
0.0522 0.0851 -0.0204 0.819 -0.525 0.230 60 32 11 0 0
0.0521 0.0852 -0.0232 0.794 -0.598 0.111 56 28 8 0 0
0.0523 0.0851 -0.0261 0.861 -0.507 0.021 51 21 6 0 0
0.0524 0.0852 -0.0290 0.861 -0.507 0.021 51 20 6 0 0
0.0480 0.0884 -0.0348 0.870 -0.487 -0.072 50 21 7 0 0
0.0482 0.0884 -0.0377 0.885 -0.465 0.013 48 20 7 0 0
0.0479 0.0887 -0.0406 0.776 -0.628 0.067 46 18 7 0 0
0.0544 0.0845 -0.0522 0.789 -0.613 -0.033 32 16 6 0 0
0.0994 0.0542 -0.1028 0.207 -0.603 0.771 95 71 61 0 0
0.1032 0.0516 -0.1055 0.134 -0.723 0.677 97 72 60 0 0
0.1057 0.0500 -0.1082 0.203 -0.748 0.632 104 78 66 0 0
0.0927 0.0622 -0.2125 0.639 -0.759 -0.129 57 40 32 0 0
0.0889 0.0658 -0.2451 0.483 -0.851 -0.208 55 37 30 0 0
0.0831 0.0708 -0.2753 0.599 -0.801 0.009 46 28 18 0 0
0.0830 0.0710 -0.2812 0.611 -0.777 -0.150 46 28 18 0 0
0.0826 0.0713 -0.2842 0.706 -0.678 -0.204 46 28 18 0 0
0.0683 0.0834 -0.3525 0.778 -0.513 0.362 42 22 11 0 0
0.0717 0.0813 -0.3639 0.694 -0.358 0.625 41 22 14 0 0
0.1267 0.0442 -0.4167 0.937 -0.335 0.102 71 35 13 0 0
0.0606 0.0935 -0.5135 0.841 -0.336 0.424 74 43 23 0 0
0.0638 0.0931 -0.5748 0.637 -0.698 0.328 74 39 17 0 0
0.0581 0.0978 -0.5987 0.729 -0.590 0.349 88 54 27 0 0
0.0636 0.0947 -0.6282 0.951 -0.300 -0.074 86 50 22 0 0
0.0666 0.0941 -0.6807 0.421 -0.860 0.290 53 24 11 0 0
0.0701 0.0919 -0.6888 0.734 -0.350 0.582 54 25 10 0 0
0.0958 0.0763 -0.7755 0.410 -0.811 0.417 47 19 7 0 0
0.1036 0.0714 -0.7938 0.582 -0.808 -0.092 48 20 9 0 0
0.1223 0.0588 -0.8159 0.987 0.028 -0.155 54 25 11 0 0
0.1407 0.0470 -0.8531 0.910 -0.393 0.130 68 32 9 0 0
0.1328 0.0534 -0.8826 0.751 -0.632 0.193 74 48 34 0 0
0.1783 0.0247 -0.9960 0.837 -0.310 0.451 71 44 34 0 0
0.1940 0.0153 -1.0539 0.769 -0.617 0.167 102 72 48 0 0
0.0513 0.0807 0.0314 0.780 -0.546 0.305 54 21 4 0 0
0.0524 0.0800 0.0285 0.726 -0.670 0.155 57 24 6 0 0
0.0536 0.0793 0.0198 0.726 -0.670 0.155 60 27 10 0 0
0.0543 0.0789 0.0169 0.654 -0.718 0.240 60 27 10 0 0
0.0553 0.0784 0.0140 0.685 -0.654 0.321 60 27 10 0 0
0.0509 0.0826 -0.0262 0.861 -0.507 0.021 51 21 8 0 0
0.0464 0.0861 -0.0407 0.902 -0.428 -0.057 44 17 4 0 0
0.0527 0.0821 -0.0523 0.678 -0.732 -0.060 21 11 3 0 0
0.0568 0.0796 -0.0668 0.654 -0.209 0.727 71 48 42 0 0
0.0644 0.0744 -0.0724 0.195 -0.955 0.224 72 43 29 0 0
0.0963 0.0530 -0.1029 0.207 -0.603 0.771 90 64 54 0 0
0.0994 0.0508 -0.1056 0.134 -0.723 0.677 93 66 55 0 0
0.1022 0.0489 -0.1083 0.203 -0.748 0.632 102 75 64 0 0
0.1214 0.0370 -0.1609 0.599 -0.779 0.186 64 46 36 0 0
0.0802 0.0692 -0.2756 0.461 -0.886 0.055 53 35 25 0 0
0.0804 0.0693 -0.2844 0.755 -0.639 -0.146 49 31 21 0 0
0.0789 0.0706 -0.2906 0.916 -0.282 -0.287 46 28 18 0 0
0.0848 0.0667 -0.3014 0.870 -0.330 0.366 51 30 25 0 0
0.0863 0.0657 -0.3041 0.947 -0.316 0.055 56 38 34 0 0
0.0652 0.0819 -0.3498 0.740 -0.664 0.106 47 25 14 0 0
0.0666 0.0809 -0.3526 0.787 -0.520 0.334 43 23 12 0 0
0.0704 0.0786 -0.3638 0.702 -0.350 0.620 42 22 14 0 0
0.0603 0.0900 -0.5131 0.932 -0.283 0.228 73 44 26 0 0
0.0574 0.0929 -0.5451 0.648 -0.718 0.254 84 53 30 0 0
0.0581 0.0925 -0.5480 0.648 -0.718 0.254 82 51 28 0 0
0.0584 0.0925 -0.5510 0.757 -0.617 0.217 82 50 27 0 0
0.0579 0.0949 -0.6234 0.580 -0.815 -0.017 87 53 25 0 0
0.0579 0.0950 -0.6266 0.580 -0.815 -0.017 89 54 26 0 0
0.0579 0.0950 -0.6297 0.580 -0.815 -0.017 88 51 23 0 0
0.0580 0.0951 -0.6329 0.580 -0.815 -0.017 85 48 21 0 0
0.0833 0.0800 -0.7236 0.571 -0.782 0.249 50 24 9 0 0
0.0816 0.0812 -0.7275 0.811 -0.584 0.006 49 23 8 0 0
0.0931 0.0746 -0.7761 0.423 -0.819 0.387 47 19 7 0 0
0.0998 0.0704 -0.7950 0.916 -0.378 -0.139 49 21 10 0 0
0.1218 0.0556 -0.8154 0.832 -0.448 -0.327 53 24 10 0 0
0.1319 0.0495 -0.8508 0.842 -0.511 -0.171 67 30 11 0 0
0.1327 0.0490 -0.8535 0.680 -0.726 0.099 67 30 11 0 0
0.1316 0.0505 -0.8761 0.725 -0.670 -0.157 80 54 37 0 0
0.1310 0.0511 -0.8827 0.724 -0.571 0.386 76 50 35 0 0
0.1324 0.0502 -0.8882 0.869 -0.493 -0.035 72 46 31 0 0
0.1246 0.0569 -0.9307 0.739 -0.656 -0.153 84 53 28 0 0
0.1381 0.0480 -0.9512 0.985 -0.139 0.103 56 32 22 0 0
0.1863 0.0162 -1.0177 0.860 -0.498 -0.111 61 26 8 0 0
0.1940 0.0116 -1.0466 0.806 -0.585 0.084 103 73 47 0 0
0.1905 0.0158 -1.1086 0.872 -0.417 0.258 75 35 10 0 0
0.1912 0.0154 -1.1113 0.872 -0.417 0.258 79 40 15 0 0
0.0505 0.0777 0.0284 0.767 -0.625 0.147 49 17 2 0 0
0.0522 0.0768 0.0169 0.704 -0.666 0.247 57 24 8 0 0
0.0532 0.0763 0.0140 0.709 -0.620 0.335 56 24 9 0 0
0.0541 0.0757 0.0111 0.709 -0.620 0.335 54 22 8 0 0
0.0494 0.0801 -0.0263 0.861 -0.507 0.021 51 21 8 0 0
0.0495 0.0801 -0.0292 0.861 -0.507 0.021 49 20 8 0 0
0.0542 0.0778 -0.0668 0.393 -0.523 0.756 60 34 26 0 0
0.0575 0.0756 -0.0697 0.374 -0.518 0.769 70 41 31 0 0
0.0605 0.0736 -0.0725 0.195 -0.955 0.224 84 54 41 0 0
0.0891 0.0544 -0.1004 0.221 -0.691 0.688 77 52 42 0 0
0.0931 0.0517 -0.1030 0.174 -0.654 0.736 84 57 45 0 0
0.0891 0.0575 -0.2098 0.844 -0.506 -0.181 59 42 34 0 0
0.0787 0.0665 -0.2697 0.921 -0.379 -0.094 57 37 27 0 0
0.0776 0.0674 -0.2728 0.970 -0.201 0.138 60 40 30 0 0
0.0783 0.0670 -0.2757 0.942 -0.028 0.335 57 38 27 0 0
0.0776 0.0676 -0.2787 0.808 -0.576 -0.124 51 32 21 0 0
0.0792 0.0665 -0.2814 0.893 -0.382 -0.239 52 33 22 0 0
0.0842 0.0639 -0.3131 0.290 -0.885 0.364 60 28 10 0 0
0.0632 0.0796 -0.3499 0.740 -0.664 0.106 48 26 15 0 0
0.0628 0.0800 -0.3530 0.777 -0.629 -0.004 46 24 13 0 0
0.1023 0.0539 -0.4043 0.876 -0.269 0.399 68 36 21 0 0
0.0451 0.0960 -0.4798 0.767 -0.546 -0.338 68 40 23 0 0
0.0454 0.0959 -0.4828 0.891 -0.454 -0.003 69 41 24 0 0
0.0555 0.0919 -0.5922 0.848 -0.529 0.022 85 50 23 0 0
0.0625 0.0875 -0.6054 0.764 -0.624 0.166 88 53 26 0 0
0.0619 0.0880 -0.6088 0.678 -0.704 -0.212 87 53 25 0 0
0.0561 0.0927 -0.6330 0.961 -0.273 -0.035 85 49 22 0 0
0.0569 0.0922 -0.6358 0.901 -0.391 0.187 80 43 17 0 0
0.0614 0.0905 -0.6879 0.591 -0.780 0.205 56 26 10 0 0
0.0620 0.0902 -0.6909 0.591 -0.780 0.205 58 29 12 0 0
0.0948 0.0695 -0.7682 0.712 -0.692 0.122 49 21 8 0 0
0.0925 0.0713 -0.7756 0.926 -0.214 0.311 50 22 9 0 0
0.0956 0.0692 -0.7772 0.513 -0.837 0.189 48 20 7 0 0
0.0973 0.0681 -0.7827 0.710 -0.509 0.487 49 21 8 0 0
0.0987 0.0673 -0.7853 0.754 -0.524 0.396 49 21 8 0 0
0.1192 0.0540 -0.8253 0.490 -0.834 0.254 55 26 11 0 0
0.1178 0.0551 -0.8292 0.438 -0.385 0.812 58 29 14 0 0
0.1201 0.0536 -0.8311 0.512 -0.355 0.782 61 32 14 0 0
0.1294 0.0483 -0.8764 0.759 -0.650 0.029 80 53 37 0 0
0.1307 0.0475 -0.8788 0.786 -0.598 0.158 78 51 36 0 0
0.1406 0.0429 -0.9582 0.527 -0.554 0.644 85 68 60 0 0
0.1427 0.0416 -0.9632 0.923 -0.269 0.276 91 77 72 0 0
0.1606 0.0296 -0.9866 0.691 -0.656 0.303 95 80 76 0 0
0.1619 0.0288 -0.9889 0.558 -0.806 0.196 87 72 68 0 0
0.1837 0.0146 -1.0246 0.752 -0.632 0.185 73 37 13 0 0
0.1992 0.0058 -1.0948 0.688 -0.723 0.054 61 28 10 0 0
0.1895 0.0130 -1.1113 0.912 -0.239 0.333 77 38 12 0 0
0.0100 0.1006 0.0942 0.225 -0.949 -0.222 108 78 61 0 0
0.0439 0.0779 0.0601 0.274 -0.896 0.349 69 42 26 0 0
0.0548 0.0709 0.0395 0.929 -0.370 0.012 56 24 6 0 0
0.0484 0.0755 0.0312 0.857 -0.469 0.212 55 22 6 0 0
0.0487 0.0755 0.0283 0.767 -0.625 0.147 51 19 4 0 0
0.0491 0.0753 0.0255 0.767 -0.625 0.147 53 21 6 0 0
0.0492 0.0752 0.0226 0.726 -0.670 0.155 56 23 5 0 0
0.0525 0.0733 0.0081 0.757 -0.624 0.195 52 20 7 0 0
0.0480 0.0776 -0.0293 0.765 -0.630 0.137 46 18 6 0 0
0.0492 0.0775 -0.0582 0.889 -0.459 0.013 18 9 6 0 0
0.0867 0.0526 -0.1005 0.316 -0.639 0.701 88 62 51 0 0
0.0898 0.0505 -0.1032 0.284 -0.576 0.767 97 70 57 0 0
0.1039 0.0408 -0.1082 0.369 -0.665 0.649 95 66 53 0 0
0.1200 0.0305 -0.1412 0.636 -0.768 0.080 56 23 10 0 0
0.1173 0.0325 -0.1442 0.689 -0.722 0.068 57 27 12 0 0
0.1195 0.0315 -0.1638 0.611 -0.791 -0.033 62 43 35 0 0
0.0867 0.0564 -0.2332 0.985 0.160 -0.064 58 41 33 0 0
0.0877 0.0557 -0.2360 0.792 -0.317 -0.522 58 41 33 0 0
0.0759 0.0651 -0.2758 0.687 -0.724 -0.058 55 35 24 0 0
0.0774 0.0642 -0.2815 0.788 -0.582 -0.201 53 33 22 0 0
0.0785 0.0635 -0.2843 0.799 -0.596 0.084 52 33 21 0 0
0.0768 0.0648 -0.2905 0.912 -0.304 -0.276 48 30 18 0 0
0.0711 0.0696 -0.3182 0.563 -0.768 0.304 60 31 13 0 0
0.0764 0.0661 -0.3262 0.760 -0.548 0.350 64 36 17 0 0
0.0772 0.0657 -0.3290 0.412 -0.790 0.453 68 40 23 0 0
0.0748 0.0674 -0.3324 0.891 -0.413 -0.189 66 38 27 0 0
0.0617 0.0770 -0.3470 0.530 -0.791 -0.306 55 32 20 0 0
0.0612 0.0774 -0.3501 0.740 -0.664 0.106 50 28 17 0 0
0.0609 0.0777 -0.3531 0.777 -0.629 -0.004 49 27 16 0 0
0.0671 0.0737 -0.3640 0.590 -0.431 0.682 39 21 15 0 0
0.1015 0.0508 -0.4041 0.735 -0.522 0.433 69 39 25 0 0
0.1166 0.0406 -0.4153 0.827 -0.542 0.149 74 36 13 0 0
0.0412 0.0951 -0.4805 0.740 -0.673 0.011 70 43 26 0 0
0.0413 0.0951 -0.4836 0.740 -0.673 0.011 71 44 27 0 0
0.0559 0.0885 -0.6104 0.854 -0.432 -0.290 89 55 28 0 0
0.0499 0.0930 -0.6220 0.755 -0.533 -0.382 89 55 28 0 0
0.0533 0.0907 -0.6240 0.700 -0.658 -0.277 83 49 22 0 0
0.0539 0.0903 -0.6269 0.727 -0.660 -0.190 86 52 25 0 0
0.0538 0.0905 -0.6301 0.840 -0.540 -0.049 89 55 27 0 0
0.0536 0.0907 -0.6333 0.830 -0.558 0.001 87 51 24 0 0
0.0536 0.0908 -0.6365 0.830 -0.558 0.001 83 47 21 0 0
0.0540 0.0907 -0.6395 0.759 -0.626 0.179 83 46 22 0 0
0.0623 0.0860 -0.6806 0.691 -0.678 -0.249 66 35 17 0 0
0.0628 0.0858 -0.6867 0.581 -0.814 0.027 56 26 10 0 0
0.0611 0.0871 -0.6906 0.281 -0.947 0.157 57 28 12 0 0
0.0612 0.0874 -0.7033 0.242 -0.970 0.027 56 27 12 0 0
0.0927 0.0673 -0.7684 0.712 -0.692 0.122 51 23 9 0 0
0.1179 0.0512 -0.8189 0.834 -0.552 0.003 50 20 9 0 0
0.1182 0.0510 -0.8219 0.686 -0.699 0.202 50 20 9 0 0
0.1294 0.0443 -0.8598 0.901 -0.408 0.145 72 38 16 0 0
0.1317 0.0429 -0.8679 0.954 -0.299 -0.031 81 54 36 0 0
0.1279 0.0477 -0.9458 0.619 -0.781 0.084 48 22 9 0 0
0.1596 0.0268 -0.9893 0.692 -0.626 0.359 94 79 76 0 0
0.1835 0.0107 -1.0081 0.898 -0.436 0.050 62 26 10 0 0
0.1838 0.0106 -1.0110 0.901 -0.397 0.178 61 26 9 0 0
0.1866 0.0087 -1.0123 0.972 -0.222 0.073 61 26 6 0 0
0.1816 0.0124 -1.0187 0.952 -0.287 0.103 63 27 6 0 0
0.1821 0.0122 -1.0246 0.873 -0.456 0.174 74 38 14 0 0
0.1838 0.0110 -1.0265 0.580 -0.716 0.390 74 38 14 0 0
0.1899 0.0073 -1.0441 0.725 -0.687 0.056 98 68 42 0 0
0.1882 0.0111 -1.1395 0.922 -0.376 0.095 88 60 36 0 0
0.0016 0.1025 0.1035 -0.012 -0.863 0.505 181 177 174 0 0
0.0468 0.0732 0.0283 0.841 -0.481 0.247 52 20 3 0 0
0.0471 0.0731 0.0254 0.874 -0.475 0.099 52 20 4 0 0
0.0818 0.0525 -0.1007 0.357 -0.635 0.685 82 56 44 0 0
0.0960 0.0428 -0.1058 0.192 -0.962 0.195 90 61 45 0 0
0.0960 0.0451 -0.1915 0.126 -0.909 -0.398 59 42 34 0 0
0.0960 0.0452 -0.1944 0.750 -0.561 0.351 60 43 35 0 0
0.0957 0.0456 -0.1973 0.690 -0.706 0.159 60 43 35 0 0
0.0841 0.0546 -0.2334 0.970 -0.015 -0.242 57 40 32 0 0
0.0820 0.0564 -0.2454 0.588 -0.808 -0.004 59 40 33 0 0
0.0738 0.0629 -0.2730 0.555 -0.832 0.018 58 38 29 0 0
0.0656 0.0692 -0.2951 0.531 -0.843 -0.088 53 35 23 0 0
0.0523 0.0788 -0.3093 0.971 -0.056 -0.231 69 49 39 0 0
0.0751 0.0635 -0.3262 0.877 -0.385 0.288 66 38 20 0 0
0.0746 0.0639 -0.3293 0.402 -0.899 0.174 71 44 29 0 0
0.0581 0.0759 -0.3474 0.531 -0.823 0.200 55 32 20 0 0
0.0586 0.0756 -0.3503 0.485 -0.813 0.323 52 30 19 0 0
0.0596 0.0750 -0.3531 0.485 -0.813 0.323 55 33 22 0 0
0.0987 0.0492 -0.4015 0.573 -0.671 0.471 58 27 15 0 0
0.1012 0.0476 -0.4069 0.573 -0.671 0.471 92 68 54 0 0
0.1057 0.0446 -0.4146 0.440 -0.654 0.616 79 43 19 0 0
0.0380 0.0936 -0.4809 0.842 -0.530 0.096 72 46 29 0 0
0.0522 0.0878 -0.6269 0.840 -0.540 -0.049 89 56 28 0 0
0.0521 0.0879 -0.6301 0.840 -0.540 -0.049 92 61 32 0 0
0.0521 0.0880 -0.6333 0.844 -0.524 -0.114 89 54 27 0 0
0.0540 0.0868 -0.6357 0.883 -0.414 -0.221 84 48 22 0 0
0.0545 0.0872 -0.6640 0.435 -0.898 0.073 74 42 21 0 0
0.0626 0.0817 -0.6672 0.978 0.042 -0.207 68 35 16 0 0
0.0579 0.0856 -0.6881 0.792 -0.605 -0.078 59 29 14 0 0
0.0571 0.0862 -0.6916 0.421 -0.874 0.244 58 29 13 0 0
0.0559 0.0874 -0.7048 0.252 -0.963 0.094 55 27 12 0 0
0.0881 0.0663 -0.7509 0.435 -0.616 -0.656 51 23 9 0 0
0.0922 0.0641 -0.7742 0.737 -0.676 -0.029 50 22 8 0 0
0.0922 0.0642 -0.7774 0.729 -0.673 -0.123 49 21 7 0 0
0.0921 0.0644 -0.7806 0.769 -0.519 -0.374 50 22 8 0 0
0.0909 0.0653 -0.7843 0.769 -0.519 -0.374 48 20 6 0 0
0.1144 0.0498 -0.8136 0.502 -0.841 0.202 50 20 8 0 0
0.1142 0.0500 -0.8168 0.687 -0.622 0.376 51 21 9 0 0
0.1178 0.0478 -0.8275 0.659 -0.681 0.320 57 28 13 0 0
0.1186 0.0473 -0.8303 0.659 -0.681 0.320 59 30 12 0 0
0.1263 0.0428 -0.8606 0.795 -0.541 -0.274 77 43 21 0 0
0.1282 0.0416 -0.8628 0.800 -0.573 -0.179 78 49 29 0 0
0.1294 0.0408 -0.8652 0.833 -0.546 0.089 77 52 34 0 0
0.1287 0.0417 -0.8813 0.880 -0.381 -0.282 75 49 34 0 0
0.1192 0.0497 -0.9310 0.878 -0.478 -0.022 89 58 33 0 0
0.1301 0.0428 -0.9531 0.609 -0.631 0.481 62 38 25 0 0
0.1307 0.0425 -0.9591 0.712 -0.678 0.182 77 60 53 0 0
0.1321 0.0417 -0.9614 0.750 -0.589 0.301 85 68 60 0 0
0.1340 0.0404 -0.9634 0.882 -0.456 0.118 86 71 64 0 0
0.1803 0.0098 -1.0216 0.840 -0.542 0.017 70 34 11 0 0
0.1789 0.0122 -1.0727 0.893 -0.413 -0.180 91 63 40 0 0
0.1834 0.0102 -1.1135 0.877 -0.445 0.181 78 38 12 0 0
0.0481 0.0692 0.0138 0.833 -0.464 0.300 53 20 8 0 0
0.0494 0.0684 0.0080 0.839 -0.495 0.225 54 22 9 0 0
0.0475 0.0721 -0.0787 0.206 -0.929 0.306 85 63 47 0 0
0.0789 0.0510 -0.1008 0.319 -0.553 0.770 85 59 48 0 0
0.1001 0.0368 -0.1169 0.808 -0.514 -0.289 127 104 91 0 0
0.1119 0.0296 -0.1530 0.711 -0.703 0.019 68 50 40 0 0
0.1100 0.0310 -0.1559 0.694 -0.718 0.045 68 49 36 0 0
0.1124 0.0294 -0.1586 0.780 -0.622 0.069 64 46 34 0 0
0.0799 0.0540 -0.2338 0.518 -0.822 0.238 59 41 33 0 0
0.0803 0.0538 -0.2367 0.219 -0.943 0.250 58 41 33 0 0
0.0742 0.0604 -0.3231 0.597 -0.795 0.108 66 37 20 0 0
0.0550 0.0745 -0.3478 0.520 -0.801 0.297 53 30 18 0 0
0.0565 0.0736 -0.3535 0.393 -0.914 0.100 53 31 20 0 0
0.0941 0.0487 -0.3963 0.414 -0.626 0.661 68 42 32 0 0
0.0920 0.0502 -0.3998 0.232 -0.786 0.573 66 38 27 0 0
0.1033 0.0428 -0.4149 0.440 -0.654 0.616 81 45 20 0 0
0.0464 0.0881 -0.6285 0.437 -0.822 0.365 97 63 36 0 0
0.0502 0.0861 -0.6493 0.466 -0.851 -0.244 86 52 27 0 0
0.0543 0.0849 -0.7080 0.571 -0.604 0.556 59 31 17 0 0
0.0902 0.0618 -0.7744 0.746 -0.666 -0.022 52 25 10 0 0
0.0901 0.0620 -0.7776 0.729 -0.673 -0.123 53 25 11 0 0
0.0965 0.0578 -0.7840 0.011 -0.986 0.168 51 23 9 0 0
0.1292 0.0375 -0.8707 0.793 -0.606 0.059 79 53 37 0 0
0.1173 0.0473 -0.9279 0.767 -0.641 -0.002 90 61 37 0 0
0.1178 0.0470 -0.9308 0.805 -0.577 0.138 86 55 31 0 0
0.1178 0.0472 -0.9341 0.807 -0.591 -0.009 82 48 23 0 0
0.1159 0.0486 -0.9415 0.932 -0.302 -0.201 50 23 9 0 0
0.1245 0.0429 -0.9460 0.725 -0.683 0.090 47 21 8 0 0
0.1321 0.0381 -0.9636 0.886 -0.387 0.256 84 69 62 0 0
0.1323 0.0380 -0.9666 0.816 -0.414 0.403 87 72 65 0 0
0.1803 0.0087 -1.1083 0.808 -0.556 0.194 68 32 11 0 0
0.1807 0.0085 -1.1112 0.726 -0.559 0.402 73 35 11 0 0
-0.0021 0.0982 0.0917 0.534 -0.821 -0.200 112 92 80 0 0
-0.0061 0.1010 0.0890 0.827 -0.480 -0.293 106 82 68 0 0
-0.0038 0.0995 0.0859 0.738 -0.521 -0.429 97 71 56 0 0
-0.0015 0.0982 0.0741 0.135 -0.840 -0.525 80 53 37 0 0
0.0479 0.0659 0.0079 0.839 -0.495 0.225 59 27 10 0 0
0.0470 0.0668 -0.0007 0.693 -0.706 -0.150 54 22 8 0 0
0.0434 0.0713 -0.0759 0.425 -0.905 -0.036 80 57 42 0 0
0.1105 0.0271 -0.1502 0.699 -0.605 0.383 67 48 34 0 0
0.1098 0.0276 -0.1531 0.755 -0.633 -0.172 68 49 37 0 0
0.1077 0.0291 -0.1560 0.715 -0.613 0.335 65 44 33 0 0
0.1126 0.0258 -0.1585 0.901 -0.163 0.402 64 46 34 0 0
0.0854 0.0458 -0.2039 0.227 -0.894 -0.385 60 43 35 0 0
0.0752 0.0531 -0.2109 -0.173 -0.978 0.113 60 43 35 0 0
0.0511 0.0725 -0.3121 0.723 -0.690 -0.032 82 61 49 0 0
0.0725 0.0581 -0.3262 0.852 -0.517 0.088 69 42 25 0 0
0.0515 0.0732 -0.3482 0.347 -0.931 0.116 53 31 18 0 0
0.0807 0.0543 -0.3931 0.311 -0.169 0.935 50 26 17 0 0
0.0904 0.0477 -0.3968 0.362 -0.487 0.795 63 35 25 0 0
0.0300 0.0920 -0.4917 0.236 -0.963 -0.132 70 48 30 0 0
0.0268 0.0960 -0.5556 0.612 -0.768 0.189 73 42 22 0 0
0.0273 0.0957 -0.5586 0.612 -0.768 0.189 73 43 19 0 0
0.0274 0.0957 -0.5617 0.479 -0.878 0.017 74 42 19 0 0
0.0277 0.0961 -0.5807 0.543 -0.677 0.496 82 47 27 0 0
0.0286 0.0955 -0.5835 0.757 -0.553 0.347 84 50 29 0 0
0.0299 0.0947 -0.5863 0.907 -0.391 0.156 84 50 29 0 0
0.0502 0.0838 -0.6995 0.704 -0.534 0.468 62 35 16 0 0
0.0503 0.0838 -0.7026 0.770 -0.384 0.510 61 34 15 0 0
0.0508 0.0835 -0.7056 0.726 -0.407 0.554 63 36 17 0 0
0.0795 0.0653 -0.7660 0.325 -0.945 -0.019 55 28 11 0 0
0.0814 0.0641 -0.7683 0.380 -0.922 0.072 56 29 12 0 0
0.0884 0.0595 -0.7776 0.510 -0.860 -0.006 55 28 11 0 0
0.0888 0.0593 -0.7806 0.715 -0.699 -0.025 54 27 10 0 0
0.0894 0.0590 -0.7835 0.382 -0.886 0.264 54 27 10 0 0
0.1004 0.0520 -0.8065 0.860 -0.443 0.253 53 24 10 0 0
0.1258 0.0362 -0.8686 0.791 -0.539 0.289 78 52 35 0 0
0.1146 0.0448 -0.9000 0.710 -0.701 -0.068 65 38 21 0 0
0.1143 0.0451 -0.9034 0.520 -0.831 0.197 67 39 23 0 0
0.1161 0.0446 -0.9309 0.685 -0.724 0.085 83 53 29 0 0
0.1160 0.0448 -0.9342 0.807 -0.591 -0.009 76 44 22 0 0
0.1252 0.0391 -0.9573 0.977 0.016 0.212 66 47 36 0 0
0.1310 0.0352 -0.9633 0.639 -0.739 0.212 83 68 61 0 0
0.1495 0.0229 -0.9802 0.590 -0.723 0.359 90 75 68 0 0
0.1602 0.0160 -0.9984 0.505 -0.687 0.523 73 48 40 0 0
0.1625 0.0145 -1.0032 0.887 -0.412 0.210 56 24 11 0 0
0.1782 0.0053 -1.0615 0.685 -0.728 0.035 94 66 42 0 0
0.1778 0.0057 -1.0680 0.775 -0.632 -0.000 91 63 39 0 0
-0.0052 0.0968 0.0888 0.551 -0.819 -0.159 114 96 87 0 0
-0.0055 0.0971 0.0859 0.738 -0.521 -0.429 106 83 71 0 0
-0.0066 0.0979 0.0830 0.738 -0.521 -0.429 100 73 58 0 0
-0.0068 0.0981 0.0801 0.762 -0.474 -0.441 94 66 50 0 0
0.0282 0.0746 0.0604 0.401 -0.854 0.333 78 54 39 0 0
0.0453 0.0641 0.0136 0.833 -0.489 0.260 53 20 5 0 0
0.0465 0.0634 0.0078 0.839 -0.495 0.225 56 25 7 0 0
0.0469 0.0632 0.0050 0.807 -0.521 0.278 57 26 8 0 0
0.0446 0.0656 -0.0238 0.902 -0.412 0.130 51 23 9 0 0
0.0404 0.0699 -0.0760 0.351 -0.935 0.040 78 55 42 0 0
0.1094 0.0244 -0.1502 0.742 -0.583 0.331 67 48 34 0 0
0.1103 0.0238 -0.1530 0.742 -0.583 0.331 65 46 34 0 0
0.1082 0.0254 -0.1560 0.606 -0.655 0.452 63 43 32 0 0
0.1095 0.0245 -0.1587 0.854 -0.516 0.057 64 46 34 0 0
0.0868 0.0411 -0.1921 0.312 -0.949 -0.035 60 41 34 0 0
0.0855 0.0420 -0.1951 0.604 -0.797 -0.014 60 41 34 0 0
0.0490 0.0703 -0.3122 0.723 -0.690 -0.032 90 70 58 0 0
0.0487 0.0707 -0.3153 0.583 -0.811 0.048 64 38 22 0 0
0.0696 0.0566 -0.3265 0.650 -0.759 -0.038 71 43 27 0 0
0.0474 0.0724 -0.3457 0.129 -0.982 -0.140 54 34 23 0 0
0.0497 0.0708 -0.3482 0.626 -0.682 0.378 61 39 26 0 0
0.0507 0.0703 -0.3511 0.426 -0.896 0.126 54 33 20 0 0
0.0531 0.0692 -0.3748 0.517 -0.853 0.073 64 44 33 0 0
0.0793 0.0517 -0.3931 0.311 -0.169 0.935 54 30 23 0 0
0.0879 0.0459 -0.3971 0.311 -0.428 0.849 66 39 31 0 0
0.0978 0.0395 -0.4126 0.533 -0.713 0.456 93 60 41 0 0
0.0176 0.0983 -0.5454 0.459 -0.778 0.430 79 52 33 0 0
0.0249 0.0937 -0.5589 0.612 -0.768 0.189 79 52 31 0 0
0.0244 0.0941 -0.5622 0.590 -0.807 0.021 78 50 30 0 0
0.0240 0.0945 -0.5655 0.681 -0.732 0.041 80 49 30 0 0
0.0521 0.0791 -0.7108 0.749 -0.322 0.580 73 44 28 0 0
0.0523 0.0790 -0.7139 0.811 -0.406 0.422 70 41 25 0 0
0.0526 0.0792 -0.7265 0.170 -0.929 0.327 66 37 19 0 0
0.0794 0.0619 -0.7717 0.585 -0.713 -0.385 59 32 15 0 0
0.0868 0.0570 -0.7776 0.741 -0.671 -0.031 55 28 11 0 0
0.0868 0.0571 -0.7808 0.741 -0.671 -0.031 54 27 9 0 0
0.1020 0.0473 -0.8080 0.842 -0.455 0.289 55 26 11 0 0
0.1098 0.0427 -0.8355 0.189 -0.797 0.574 64 32 14 0 0
0.1236 0.0337 -0.8533 0.571 -0.821 -0.000 71 34 11 0 0
0.1236 0.0338 -0.8564 0.587 -0.808 0.047 72 35 12 0 0
0.1116 0.0433 -0.9040 0.520 -0.831 0.197 67 39 24 0 0
0.1116 0.0434 -0.9072 0.619 -0.763 0.187 65 37 23 0 0
0.1096 0.0449 -0.9115 0.795 -0.601 -0.084 65 37 23 0 0
0.1137 0.0427 -0.9346 0.774 -0.604 0.190 73 41 19 0 0
0.1142 0.0424 -0.9374 0.807 -0.591 -0.009 55 26 8 0 0
0.1148 0.0421 -0.9403 0.892 -0.448 0.057 47 20 8 0 0
0.1262 0.0347 -0.9557 0.787 -0.574 0.228 70 52 41 0 0
0.1263 0.0347 -0.9588 0.909 -0.415 -0.034 77 63 53 0 0
0.1285 0.0332 -0.9606 0.895 -0.163 0.416 83 66 58 0 0
0.1300 0.0323 -0.9629 0.913 -0.203 0.353 83 68 61 0 0
0.1462 0.0216 -0.9781 0.503 -0.628 0.594 90 75 68 0 0
0.1593 0.0132 -1.0043 0.884 -0.288 0.368 59 27 13 0 0
0.1769 0.0028 -1.0644 0.880 -0.476 0.005 93 65 41 0 0
0.1769 0.0028 -1.0675 0.880 -0.476 0.005 91 63 39 0 0
0.1801 0.0024 -1.1345 0.699 -0.712 -0.067 91 63 36 0 0
-0.0083 0.0953 0.0859 0.515 -0.838 -0.180 111 96 88 0 0
-0.0085 0.0956 0.0830 0.668 -0.693 -0.271 107 86 74 0 0
-0.0091 0.0961 0.0801 0.692 -0.660 -0.294 102 76 63 0 0
-0.0095 0.0964 0.0772 0.666 -0.691 -0.281 96 70 58 0 0
0.0259 0.0727 0.0546 0.127 -0.504 0.855 83 61 47 0 0
0.0444 0.0614 0.0049 0.778 -0.626 0.056 57 26 8 0 0
0.0399 0.0656 -0.0354 0.729 -0.662 0.175 47 21 8 0 0
0.0371 0.0686 -0.0762 0.351 -0.935 0.040 79 55 42 0 0
0.0415 0.0658 -0.0848 0.368 -0.846 0.386 70 47 36 0 0
0.0809 0.0418 -0.2013 0.595 -0.791 -0.141 62 45 37 0 0
0.0627 0.0547 -0.2120 -0.189 -0.976 0.111 61 44 36 0 0
0.0736 0.0479 -0.2400 0.368 -0.904 -0.219 61 42 35 0 0
0.0461 0.0688 -0.3155 0.583 -0.811 0.048 76 49 31 0 0
0.0476 0.0688 -0.3514 0.426 -0.896 0.126 57 37 24 0 0
0.0472 0.0694 -0.3636 0.792 -0.598 0.126 61 40 32 0 0
0.0478 0.0692 -0.3726 0.799 -0.587 0.129 73 54 44 0 0
0.0495 0.0681 -0.3753 0.618 -0.783 -0.067 64 44 33 0 0
0.0509 0.0672 -0.3780 0.588 -0.776 0.227 64 40 29 0 0
0.0526 0.0663 -0.3898 0.241 -0.880 0.410 66 45 32 0 0
0.0792 0.0482 -0.3928 0.621 0.202 0.758 46 24 17 0 0
0.0862 0.0435 -0.3972 0.556 0.165 0.814 61 35 28 0 0
0.0184 0.0941 -0.5509 0.039 -0.998 0.051 77 52 37 0 0
0.0178 0.0951 -0.5702 0.820 -0.548 -0.165 79 53 37 0 0
0.0174 0.0954 -0.5735 0.824 -0.526 0.208 83 59 42 0 0
0.0220 0.0938 -0.6294 0.729 -0.673 0.125 91 61 37 0 0
0.0210 0.0946 -0.6329 0.570 -0.685 0.453 92 62 38 0 0
0.0830 0.0562 -0.7882 0.030 -0.989 0.148 56 29 11 0 0
0.0835 0.0560 -0.7911 0.118 -0.986 0.113 55 28 12 0 0
0.1004 0.0448 -0.8080 0.816 -0.506 0.278 56 27 11 0 0
0.1231 0.0309 -0.8683 0.852 -0.517 0.077 79 53 36 0 0
0.1087 0.0415 -0.8952 0.691 -0.715 -0.108 72 47 32 0 0
0.1117 0.0402 -0.9252 0.812 -0.502 0.297 95 67 43 0 0
0.1123 0.0399 -0.9281 0.821 -0.448 0.353 94 66 42 0 0
0.1129 0.0395 -0.9309 0.804 -0.544 0.241 87 57 33 0 0
0.1134 0.0393 -0.9338 0.847 -0.511 0.146 74 42 19 0 0
0.1137 0.0391 -0.9368 0.847 -0.511 0.146 54 26 7 0 0
0.1646 0.0063 -1.0123 0.595 -0.449 0.667 63 28 9 0 0
0.1747 0.0006 -1.0617 0.830 -0.549 -0.100 96 68 44 0 0
0.1782 0.0002 -1.1347 0.880 -0.462 0.114 91 63 36 0 0
-0.0114 0.0938 0.0888 0.505 -0.861 0.062 182 179 179 0 0
-0.0114 0.0939 0.0859 0.408 -0.913 -0.003 158 151 148 0 0
-0.0112 0.0938 0.0830 0.551 -0.819 -0.159 126 112 105 0 0
0.0439 0.0574 0.0334 0.895 -0.437 -0.086 54 22 6 0 0
0.0400 0.0613 -0.0124 0.761 -0.630 0.153 56 25 9 0 0
0.0577 0.0545 -0.2125 0.320 -0.700 0.638 61 44 36 0 0
0.0539 0.0572 -0.2158 0.109 -0.711 0.695 62 43 36 0 0
0.0425 0.0677 -0.3159 -0.082 -0.791 0.606 81 51 35 0 0
0.0986 0.0325 -0.4354 0.528 -0.811 -0.253 78 49 32 0 0
0.0157 0.0928 -0.5704 0.130 -0.992 -0.007 89 66 52 0 0
0.0200 0.0912 -0.6199 0.227 -0.963 0.146 95 68 48 0 0
0.0205 0.0909 -0.6229 0.351 -0.926 0.140 94 66 45 0 0
0.0170 0.0937 -0.6370 0.844 -0.127 0.520 96 69 46 0 0
0.0204 0.0914 -0.6390 0.905 -0.152 0.397 95 66 43 0 0
0.0426 0.0786 -0.7294 0.188 -0.980 0.070 70 40 22 0 0
0.0545 0.0706 -0.7338 0.502 -0.580 0.642 68 38 20 0 0
0.0722 0.0598 -0.7831 0.785 -0.250 -0.566 56 29 12 0 0
0.1109 0.0374 -0.9343 0.877 -0.320 0.358 71 40 18 0 0
0.1711 0.0000 -1.0788 0.636 -0.771 -0.035 79 52 34 0 0
0.1702 0.0012 -1.1015 0.641 -0.767 -0.000 55 27 14 0 0
0.1768 -0.0024 -1.1346 0.880 -0.462 0.114 91 63 38 0 0
0.0422 0.0552 0.0305 0.800 -0.589 -0.111 52 21 6 0 0
0.0430 0.0548 0.0247 0.862 -0.434 0.260 51 19 5 0 0
0.0394 0.0580 -0.0038 0.947 -0.319 -0.048 56 23 6 0 0
0.0381 0.0611 -0.0908 0.482 -0.696 0.532 70 47 32 0 0
0.0868 0.0288 -0.1232 0.369 -0.896 0.248 114 81 60 0 0
0.0906 0.0265 -0.1343 0.751 -0.629 0.202 78 42 19 0 0
0.0360 0.0687 -0.3228 0.504 -0.571 -0.648 75 44 26 0 0
0.0377 0.0682 -0.3468 0.142 -0.913 0.383 63 43 32 0 0
0.0360 0.0695 -0.3532 0.237 -0.708 0.666 61 40 29 0 0
0.0432 0.0651 -0.3700 0.510 -0.638 0.577 62 43 35 0 0
0.0444 0.0643 -0.3727 0.569 -0.758 0.317 71 51 43 0 0
0.0451 0.0639 -0.3756 0.681 -0.731 -0.042 69 46 35 0 0
0.0928 0.0328 -0.4277 0.740 -0.670 -0.059 75 38 16 0 0
-0.0202 0.1111 -0.4753 0.805 0.545 -0.234 91 78 68 0 0
-0.0203 0.1113 -0.4817 0.872 0.480 -0.095 88 79 70 0 0
-0.0140 0.1070 -0.4832 0.793 -0.542 -0.279 86 76 67 0 0
0.0310 0.0815 -0.6791 0.642 -0.731 0.231 79 49 33 0 0
0.0317 0.0811 -0.6820 0.610 -0.775 0.167 77 47 31 0 0
0.0429 0.0749 -0.7350 0.753 -0.657 0.009 69 40 22 0 0
0.0632 0.0618 -0.7643 0.628 -0.569 -0.530 69 40 24 0 0
0.0826 0.0495 -0.7995 0.677 -0.726 -0.117 61 32 16 0 0
0.0829 0.0494 -0.8025 0.729 -0.684 -0.026 61 32 16 0 0
0.1028 0.0361 -0.8147 0.756 -0.643 -0.127 67 36 17 0 0
0.1028 0.0362 -0.8178 0.892 -0.358 0.277 66 35 17 0 0
0.1035 0.0358 -0.8206 0.892 -0.358 0.277 66 35 17 0 0
0.1064 0.0359 -0.8979 0.744 -0.661 -0.099 74 48 33 0 0
0.1317 0.0203 -0.9621 0.884 0.084 0.460 88 75 66 0 0
0.1705 -0.0044 -1.0312 0.580 -0.752 0.312 72 37 15 0 0
0.1712 -0.0048 -1.0338 0.546 -0.808 0.219 78 44 21 0 0
0.1752 -0.0051 -1.1251 0.611 -0.789 0.062 96 69 42 0 0
0.1744 -0.0043 -1.1351 0.910 -0.410 -0.058 90 62 38 0 0
-0.0188 0.0923 0.0625 0.258 -0.961 0.096 126 116 114 0 0
0.0412 0.0523 0.0304 0.729 -0.684 0.028 57 22 6 0 0
0.0427 0.0520 0.0075 0.923 -0.236 0.305 56 23 8 0 0
0.0442 0.0510 0.0046 0.872 -0.338 0.356 56 23 8 0 0
0.0384 0.0552 -0.0039 0.829 -0.461 -0.317 59 26 9 0 0
0.0378 0.0557 -0.0097 0.856 -0.507 0.102 53 22 6 0 0
0.0380 0.0556 -0.0125 0.856 -0.507 0.102 56 25 7 0 0
0.0383 0.0555 -0.0154 0.856 -0.507 0.102 60 29 10 0 0
-0.0044 0.0858 -0.0653 0.077 -0.578 0.812 32 24 21 0 0
0.0286 0.0638 -0.0794 0.353 -0.632 0.690 83 62 47 0 0
0.0834 0.0277 -0.1234 0.474 -0.820 0.321 112 80 58 0 0
0.0888 0.0243 -0.1344 0.751 -0.629 0.202 80 44 21 0 0
0.0830 0.0291 -0.1663 0.907 -0.085 -0.413 67 49 37 0 0
0.0828 0.0292 -0.1691 0.959 -0.222 -0.175 67 49 38 0 0
0.0816 0.0301 -0.1721 0.887 -0.463 -0.007 68 50 40 0 0
0.0583 0.0469 -0.2063 0.739 0.433 -0.516 65 48 40 0 0
0.0562 0.0494 -0.2477 -0.133 -0.990 0.054 65 45 34 0 0
0.0444 0.0579 -0.2672 0.604 -0.797 0.009 65 44 33 0 0
0.0471 0.0562 -0.2698 0.485 -0.866 -0.126 67 46 35 0 0
0.0377 0.0653 -0.3769 0.540 -0.818 -0.201 72 51 40 0 0
0.0317 0.0695 -0.3812 0.932 -0.362 0.018 68 47 35 0 0
-0.0135 0.1027 -0.4731 0.843 0.480 -0.242 92 81 74 0 0
-0.0162 0.1046 -0.4770 0.851 0.496 -0.173 139 134 130 0 0
-0.0167 0.1050 -0.4803 0.872 0.480 -0.095 151 148 144 0 0
-0.0151 0.1041 -0.4863 0.381 -0.924 -0.015 150 145 143 0 0
-0.0032 0.0985 -0.5820 -0.336 -0.942 -0.011 110 97 90 0 0
-0.0031 0.0985 -0.5851 -0.336 -0.942 -0.011 107 93 85 0 0
0.0249 0.0825 -0.7034 0.571 -0.808 -0.147 69 43 28 0 0
0.0257 0.0821 -0.7063 0.878 -0.404 -0.256 69 43 27 0 0
0.0312 0.0786 -0.7169 0.649 -0.544 0.532 68 41 27 0 0
0.0637 0.0582 -0.7792 0.990 -0.053 0.134 63 36 19 0 0
0.0823 0.0461 -0.8020 -0.051 -0.995 -0.082 62 33 17 0 0
0.0976 0.0365 -0.8323 0.280 -0.949 0.147 72 41 23 0 0
0.1320 0.0166 -0.9641 -0.020 -0.910 0.413 85 70 61 0 0
0.1385 0.0126 -0.9821 0.451 -0.840 0.301 88 71 63 0 0
0.1552 0.0020 -1.0091 0.874 -0.463 0.146 61 26 7 0 0
0.1683 -0.0042 -1.1132 0.714 -0.528 0.459 79 42 15 0 0
0.1693 -0.0049 -1.1156 0.714 -0.528 0.459 83 48 21 0 0
0.1707 -0.0056 -1.1209 0.750 -0.616 0.241 89 59 33 0 0
0.1714 -0.0060 -1.1236 0.841 -0.514 0.166 92 64 38 0 0
0.1718 -0.0063 -1.1264 0.841 -0.514 0.166 92 65 38 0 0
0.1730 -0.0068 -1.1350 0.676 -0.728 -0.111 90 62 38 0 0
-0.0281 0.0949 0.0658 -0.229 -0.970 0.083 181 182 181 0 0
-0.0213 0.0904 0.0625 0.865 -0.487 0.122 182 182 181 0 0
0.0431 0.0482 0.0045 0.872 -0.338 0.356 56 23 8 0 0
0.0471 0.0457 -0.0042 0.754 -0.656 -0.005 59 26 9 0 0
-0.0245 0.0957 -0.0597 0.161 -0.854 0.494 171 171 172 0 0
0.0693 0.0333 -0.1041 0.410 -0.127 0.903 81 53 39 0 0
0.0740 0.0302 -0.1096 0.632 -0.421 0.651 85 53 38 0 0
0.0765 0.0286 -0.1123 0.548 -0.528 0.649 91 62 48 0 0
0.0870 0.0221 -0.1345 0.751 -0.629 0.202 83 47 24 0 0
0.1022 0.0120 -0.1420 0.495 -0.851 0.177 70 43 26 0 0
0.0781 0.0297 -0.1954 -0.122 -0.734 0.668 65 48 40 0 0
0.0245 0.0682 -0.2819 0.530 -0.757 -0.383 68 44 34 0 0
0.0203 0.0715 -0.3008 -0.162 -0.959 0.233 69 47 36 0 0
0.0185 0.0729 -0.3041 -0.199 -0.797 0.570 68 46 35 0 0
0.0257 0.0686 -0.3272 0.512 -0.722 -0.465 76 46 28 0 0
0.0239 0.0703 -0.3459 0.034 -0.955 -0.296 69 51 40 0 0
0.0299 0.0671 -0.3813 0.497 -0.813 -0.304 66 46 34 0 0
0.0379 0.0620 -0.3918 0.208 -0.809 0.549 54 35 27 0 0
0.0860 0.0305 -0.4346 0.323 -0.945 0.051 80 52 31 0 0
-0.0188 0.1048 -0.5607 -0.371 -0.929 0.020 174 173 174 0 0
-0.0183 0.1045 -0.5638 -0.371 -0.929 0.020 172 170 172 0 0
-0.0161 0.1032 -0.5728 -0.371 -0.928 0.020 167 164 164 0 0
-0.0149 0.1027 -0.5821 -0.337 -0.941 -0.010 162 160 161 0 0
-0.0149 0.1028 -0.5853 -0.319 -0.948 -0.023 161 158 157 0 0
-0.0150 0.1029 -0.5886 -0.331 -0.943 -0.021 162 158 157 0 0
-0.0073 0.0989 -0.6345 -0.345 -0.938 0.037 130 117 111 0 0
0.0601 0.0573 -0.7929 0.978 -0.208 -0.028 66 39 24 0 0
0.0962 0.0339 -0.8321 0.968 0.035 0.248 72 41 25 0 0
0.1052 0.0290 -0.8809 0.544 -0.783 -0.302 72 48 32 0 0
0.1042 0.0298 -0.8846 0.544 -0.783 -0.302 77 54 38 0 0
0.1528 0.0000 -1.0096 0.898 -0.404 0.175 64 28 9 0 0
0.1657 -0.0081 -1.0323 0.738 -0.647 0.194 72 38 12 0 0
0.1618 -0.0036 -1.1041 0.725 -0.641 0.254 55 26 9 0 0
0.1631 -0.0044 -1.1063 0.640 -0.764 0.081 66 31 10 0 0
0.1663 -0.0064 -1.1135 0.648 -0.591 0.481 79 42 15 0 0
0.1677 -0.0073 -1.1156 0.714 -0.656 0.245 84 48 22 0 0
0.1683 -0.0076 -1.1183 0.714 -0.656 0.245 87 56 31 0 0
0.1686 -0.0078 -1.1213 0.705 -0.703 0.091 89 59 34 0 0
0.1689 -0.0079 -1.1242 0.705 -0.703 0.091 88 60 36 0 0
0.1699 -0.0085 -1.1267 0.800 -0.579 0.157 88 61 34 0 0
0.1703 -0.0087 -1.1295 0.800 -0.579 0.157 88 61 34 0 0
0.1708 -0.0088 -1.1355 0.676 -0.728 -0.111 87 59 35 0 0
-0.0220 0.0873 0.0594 0.935 -0.232 0.267 181 181 183 0 0
-0.0209 0.0866 0.0564 0.913 -0.262 0.312 181 181 180 0 0
-0.0181 0.0848 0.0533 0.893 -0.057 0.447 164 158 157 0 0
0.0428 0.0447 0.0158 0.718 -0.694 -0.051 54 22 5 0 0
-0.0258 0.0930 -0.0628 0.428 -0.840 0.332 155 156 156 0 0
0.0286 0.0570 -0.0911 0.159 -0.873 0.462 68 46 33 0 0
0.0653 0.0325 -0.1042 0.428 -0.329 0.842 84 56 42 0 0
0.0763 0.0254 -0.1180 0.567 -0.813 0.132 115 88 68 0 0
0.0833 0.0214 -0.1461 0.740 -0.592 0.319 71 44 29 0 0
0.0217 0.0665 -0.2822 0.683 -0.560 -0.469 69 47 36 0 0
0.0358 0.0574 -0.2981 0.028 -0.823 0.567 66 44 33 0 0
0.0255 0.0650 -0.3240 0.690 -0.649 -0.320 86 55 35 0 0
0.0231 0.0667 -0.3275 0.559 -0.702 -0.442 79 49 31 0 0
-0.0200 0.1035 -0.6255 -0.356 -0.934 0.017 185 185 186 0 0
0.0445 0.0626 -0.7323 0.728 -0.352 0.589 71 43 29 0 0
0.0776 0.0425 -0.8186 0.648 -0.553 0.524 67 35 20 0 0
0.1053 0.0249 -0.8642 0.542 -0.695 0.472 89 64 45 0 0
0.1021 0.0275 -0.8818 0.642 -0.764 -0.067 75 50 34 0 0
0.1645 -0.0108 -1.0321 0.746 -0.656 0.116 81 47 22 0 0
0.1644 -0.0086 -1.1137 0.648 -0.591 0.481 80 43 16 0 0
0.1651 -0.0090 -1.1164 0.805 -0.549 0.223 83 49 23 0 0
0.1657 -0.0094 -1.1191 0.840 -0.522 0.149 88 57 31 0 0
0.1661 -0.0096 -1.1220 0.840 -0.522 0.149 90 60 34 0 0
0.1667 -0.0099 -1.1247 0.732 -0.681 0.026 88 61 34 0 0
0.1685 -0.0108 -1.1360 0.676 -0.728 -0.111 85 57 35 0 0
0.1693 -0.0113 -1.1385 0.599 -0.801 0.006 85 57 35 0 0
-0.0227 0.0842 0.0593 0.935 -0.232 0.267 182 182 184 0 0
-0.0210 0.0832 0.0533 0.847 -0.309 0.433 180 176 177 0 0
-0.0057 0.0752 -0.0417 0.086 -0.436 -0.896 66 53 45 0 0
-0.0348 0.0953 -0.0569 0.240 -0.799 0.551 179 180 184 0 0
-0.0310 0.0928 -0.0629 -0.015 -0.577 0.817 177 177 179 0 0
-0.0155 0.0828 -0.0776 0.311 -0.950 0.030 78 58 49 0 0
0.0649 0.0294 -0.1071 0.611 -0.374 0.698 91 64 52 0 0
0.0814 0.0193 -0.1462 0.378 -0.579 0.723 70 44 29 0 0
0.0366 0.0517 -0.2380 0.970 0.195 -0.143 69 51 39 0 0
0.0363 0.0520 -0.2410 0.991 0.112 -0.079 68 50 38 0 0
0.0400 0.0500 -0.2613 0.162 -0.921 -0.355 72 51 40 0 0
0.0373 0.0553 -0.3974 0.666 -0.619 0.417 64 44 35 0 0
0.0462 0.0493 -0.3984 0.994 0.093 0.049 62 40 32 0 0
0.0324 0.0671 -0.7336 0.161 -0.772 0.615 78 51 37 0 0
0.0339 0.0662 -0.7362 0.017 -0.609 0.793 76 49 35 0 0
0.0530 0.0538 -0.7564 0.300 -0.928 0.223 74 47 30 0 0
0.0715 0.0428 -0.8145 0.487 -0.131 0.864 66 38 22 0 0
0.0739 0.0413 -0.8165 0.627 -0.277 0.728 67 38 23 0 0
0.1019 0.0236 -0.8621 0.627 -0.779 -0.001 87 59 38 0 0
0.1018 0.0237 -0.8653 0.621 -0.782 -0.047 88 62 43 0 0
0.0995 0.0256 -0.8792 0.627 -0.779 0.029 76 51 32 0 0
0.1617 -0.0105 -1.1082 0.815 -0.542 0.206 79 41 14 0 0
0.1633 -0.0114 -1.1133 0.874 -0.444 0.200 81 45 18 0 0
0.1638 -0.0117 -1.1161 0.874 -0.444 0.200 80 47 21 0 0
0.1642 -0.0119 -1.1190 0.840 -0.522 0.149 83 51 26 0 0
0.1646 -0.0121 -1.1219 0.840 -0.522 0.149 86 56 30 0 0
0.1648 -0.0121 -1.1249 0.705 -0.703 0.091 86 59 32 0 0
0.1650 -0.0122 -1.1279 0.705 -0.703 0.091 86 59 32 0 0
0.1667 -0.0132 -1.1330 0.613 -0.787 0.062 88 60 37 0 0
0.1667 -0.0131 -1.1361 0.626 -0.760 0.177 86 58 36 0 0
0.1672 -0.0134 -1.1389 0.626 -0.760 0.177 85 57 35 0 0
0.1618 -0.0096 -1.1461 0.430 -0.809 -0.401 83 56 35 0 0
-0.0241 0.0817 0.0503 -0.003 -0.558 0.830 152 147 144 0 0
0.0801 0.0172 -0.1662 0.213 -0.963 -0.164 72 52 41 0 0
0.0710 0.0235 -0.1756 0.417 -0.905 0.084 72 54 43 0 0
0.0363 0.0484 -0.2379 0.957 0.120 -0.265 72 54 43 0 0
0.0325 0.0511 -0.2443 0.823 -0.425 -0.377 72 54 44 0 0
0.0212 0.0592 -0.2668 0.590 -0.798 -0.123 77 57 46 0 0
0.0204 0.0599 -0.2699 0.958 0.251 0.140 77 56 45 0 0
0.0364 0.0609 -0.7408 0.614 -0.595 0.519 77 49 35 0 0
0.0373 0.0604 -0.7436 0.549 -0.721 0.424 77 49 35 0 0
0.0386 0.0595 -0.7462 0.613 -0.730 -0.302 77 50 33 0 0
0.0685 0.0413 -0.8184 0.434 -0.681 0.589 68 40 26 0 0
0.0733 0.0381 -0.8192 0.225 -0.973 0.046 70 42 28 0 0
0.0743 0.0375 -0.8219 0.431 -0.790 0.436 72 44 30 0 0
0.0760 0.0364 -0.8242 0.798 -0.373 0.474 73 44 29 0 0
0.0763 0.0363 -0.8272 0.754 -0.644 0.126 72 43 27 0 0
0.1605 -0.0144 -1.0608 0.646 -0.694 0.319 91 63 39 0 0
0.1631 -0.0146 -1.1218 0.736 -0.667 0.112 89 59 33 0 0
0.1631 -0.0145 -1.1250 0.593 -0.781 0.198 86 59 32 0 0
0.1635 -0.0147 -1.1278 0.521 -0.840 0.149 86 59 32 0 0
0.1589 -0.0113 -1.1439 0.482 -0.863 -0.150 85 57 35 0 0
-0.0421 0.0927 -0.0510 0.828 -0.480 -0.289 179 180 183 0 0
0.0672 0.0226 -0.1730 0.560 -0.814 -0.153 73 55 43 0 0
0.0330 0.0467 -0.2233 0.900 0.140 -0.414 70 52 43 0 0
0.0315 0.0479 -0.2324 0.191 -0.783 -0.592 72 54 43 0 0
0.0290 0.0496 -0.2356 -0.210 -0.921 -0.328 73 55 45 0 0
0.0095 0.0633 -0.2592 -0.203 -0.977 -0.069 77 58 48 0 0
0.0558 0.0360 -0.4107 0.415 -0.901 -0.128 85 59 47 0 0
0.0565 0.0357 -0.4135 0.292 -0.950 0.114 95 69 55 0 0
0.0589 0.0343 -0.4220 0.355 -0.831 0.429 76 41 19 0 0
0.0305 0.0611 -0.7395 0.062 -0.962 0.267 77 50 35 0 0
0.0333 0.0595 -0.7479 0.198 -0.963 0.183 76 49 33 0 0
0.0664 0.0390 -0.8186 0.669 -0.383 0.637 69 41 27 0 0
0.0689 0.0374 -0.8205 0.347 -0.937 0.046 69 41 27 0 0
0.0715 0.0357 -0.8224 0.524 -0.753 0.399 76 46 32 0 0
0.0740 0.0341 -0.8243 0.808 -0.364 0.464 75 46 32 0 0
0.0760 0.0328 -0.8265 0.921 -0.312 0.234 76 47 32 0 0
0.1276 0.0023 -0.9871 0.623 -0.676 0.394 88 70 60 0 0
0.1502 -0.0126 -0.9978 0.249 -0.888 0.387 65 30 12 0 0
0.1487 -0.0115 -1.0018 0.171 -0.985 -0.036 64 29 11 0 0
0.1476 -0.0106 -1.0057 0.287 -0.865 -0.412 63 27 9 0 0
0.1555 -0.0149 -1.0474 0.753 -0.559 0.348 92 63 37 0 0
0.1559 -0.0150 -1.0503 0.716 -0.588 0.376 94 66 41 0 0
0.1589 -0.0168 -1.0608 0.568 -0.735 0.369 90 61 37 0 0
0.1615 -0.0170 -1.1218 0.840 -0.522 0.149 90 61 36 0 0
0.1610 -0.0164 -1.1317 0.620 -0.736 0.273 86 58 34 0 0
-0.0455 0.0912 -0.0511 0.881 -0.127 -0.456 180 181 183 0 0
0.0841 0.0074 -0.1544 0.446 -0.760 -0.473 73 53 43 0 0
0.0727 0.0153 -0.1667 0.331 -0.650 -0.684 74 54 45 0 0
0.0608 0.0236 -0.1822 0.158 -0.736 0.659 72 54 44 0 0
0.0133 0.0562 -0.2224 0.261 -0.965 0.038 73 54 47 0 0
-0.0070 0.0706 -0.2582 -0.279 -0.950 -0.144 78 61 51 0 0
0.0087 0.0617 -0.3199 0.233 -0.930 0.285 85 59 44 0 0
0.0121 0.0595 -0.3224 0.646 -0.725 0.238 88 61 46 0 0
0.0077 0.0625 -0.3262 0.133 -0.891 -0.433 89 62 44 0 0
0.0503 0.0361 -0.4086 0.580 -0.667 0.468 84 57 45 0 0
0.0519 0.0351 -0.4113 0.688 -0.707 0.164 91 65 52 0 0
0.0524 0.0349 -0.4141 0.668 -0.733 0.126 95 68 56 0 0
0.0527 0.0347 -0.4171 0.635 -0.739 0.225 106 77 60 0 0
0.0339 0.0556 -0.7597 0.927 -0.249 0.281 77 49 35 0 0
0.0313 0.0575 -0.7641 0.649 -0.611 0.454 76 48 34 0 0
0.0390 0.0525 -0.7702 0.140 -0.967 0.215 74 46 32 0 0
0.0646 0.0366 -0.8187 0.822 -0.153 0.548 81 52 38 0 0
0.0673 0.0349 -0.8206 0.908 -0.393 0.144 76 47 33 0 0
0.0698 0.0333 -0.8225 0.963 -0.049 0.264 79 49 35 0 0
0.0821 0.0254 -0.8384 0.990 -0.043 0.133 78 49 31 0 0
0.0882 0.0222 -0.8700 0.551 -0.824 -0.133 86 59 39 0 0
0.0837 0.0268 -0.9362 0.457 -0.791 0.407 76 49 28 0 0
0.0849 0.0260 -0.9387 0.484 -0.778 0.401 62 32 18 0 0
0.1462 -0.0134 -0.9993 0.882 -0.458 0.111 65 30 14 0 0
0.1467 -0.0136 -1.0021 0.326 -0.928 0.180 64 28 12 0 0
0.1466 -0.0134 -1.0054 0.529 -0.821 0.217 62 26 10 0 0
0.1509 -0.0160 -1.0182 0.802 -0.597 0.014 61 25 8 0 0
0.1535 -0.0177 -1.0195 0.893 -0.268 -0.363 61 26 7 0 0
0.1543 -0.0162 -1.1038 0.677 -0.722 0.145 67 34 13 0 0
0.1521 -0.0146 -1.1085 0.696 -0.714 -0.075 75 38 12 0 0
0.1582 -0.0183 -1.1262 0.755 -0.656 -0.026 87 59 35 0 0
0.1583 -0.0182 -1.1293 0.792 -0.609 0.034 85 57 33 0 0
0.1591 -0.0187 -1.1319 0.813 -0.555 0.174 85 57 35 0 0
0.1593 -0.0188 -1.1349 0.561 -0.815 0.146 85 57 35 0 0
0.1603 -0.0194 -1.1373 0.866 -0.499 0.006 86 58 37 0 0
0.1552 -0.0158 -1.1443 0.939 -0.237 0.249 85 57 36 0 0
0.0010 0.0560 -0.0244 -0.071 -0.842 -0.534 75 57 43 0 0
-0.0357 0.0815 -0.0692 0.311 -0.756 0.576 173 173 175 0 0
