ply
format ascii 1.0
element vertex 670
property float x
property float y
property float z
property uchar diffuse_red
property uchar diffuse_green
property uchar diffuse_blue
end_header
0.014168978833652816 -0.054834432748784606 -1.0359210994585382 76 44 20
0.014725140339668683 -0.05730300356134778 -1.0376259709310962 84 54 30
0.015158861885647117 -0.05918928722250691 -1.0396654714650382 87 61 38
0.015636997275835004 -0.06128725741524779 -1.0415750345383004 90 63 41
0.015305625918636632 -0.059532283953550494 -1.0457550608710242 88 60 39
0.015054547205006995 -0.058159104499387645 -1.04971662242828 87 59 38
0.014827028473743613 -0.056897730450626974 -1.0536181590110891 90 62 41
0.015071429273484892 -0.057883053071355356 -1.0561862143421974 91 64 43
0.015926918619033597 -0.06177847444101647 -1.057011975165297 92 65 44
0.01546484812023436 -0.059399785395371205 -1.061588521445755 92 65 44
0.015866361896581214 -0.06113372400516365 -1.063700955329588 91 64 43
0.015353294183201353 -0.0585113936184022 -1.0684372493371133 91 64 46
0.013540319259621424 -0.04969581052633891 -1.076932637527279 84 57 41
0.013680804056988762 -0.0501853895825963 -1.0798130510696262 78 50 36
0.01333005692564233 -0.0483343235444182 -1.0841182089440051 66 38 25
0.012702317289000838 -0.04516282496227117 -1.0892378149897253 60 38 27
0.012817802969171864 -0.04553269004296073 -1.0922016510496055 37 18 12
0.013165017155178038 -0.0470070385213978 -1.0944873141420683 37 18 12
0.012251428018333826 -0.0424715812412661 -1.1004712651108348 39 20 13
0.014448385772485379 -0.05276403510167997 -1.097312303771157 45 23 14
0.014911808886539896 -0.054793372949252406 -1.0992376691372083 49 25 15
0.015585917341492561 -0.05782764539753274 -1.1005327530021793 50 23 13
0.015506869275514864 -0.057270824012607705 -1.1040564692083197 53 25 14
0.017030704483213182 -0.06435836079208103 -1.1028057489771872 55 26 14
0.017066212236521997 -0.06434832255060803 -1.1059799854968067 55 26 11
0.016751680620967258 -0.06266842671326175 -1.1102055441877285 64 34 15
0.016730829882567858 -0.06238916936384936 -1.113555664976578 76 45 24
0.01618162508389912 -0.059588879495813304 -1.118502307996267 80 50 31
0.01589269227944637 -0.058029867848008926 -1.1226735564351382 85 57 36
0.0171717776250404 -0.06395333008107645 -1.122093910432276 87 62 38
0.01664145769830728 -0.0612422087286867 -1.127000683484974 91 66 44
0.016601241007301138 -0.060869789687167164 -1.130423170993108 90 65 43
0.01597721883164992 -0.057710316337955564 -1.1356359999844647 87 62 40
0.01664467119938846 -0.060715803773348176 -1.1368968088171711 88 61 40
0.017713291972159477 -0.06563726001090986 -1.136912488400926 87 60 38
0.018004597547884374 -0.0668478559256853 -1.1393119702660968 85 60 38
0.017279349808165083 -0.06320393119500325 -1.1448572821854306 79 55 40
0.018089849826691064 -0.06653273011919246 -1.1522546137882563 99 92 80
0.015511909935599415 -0.0540354884473498 -1.1636400554400819 136 132 125
-0.038569226482296264 0.11291684584149861 0.08485040529487772 182 180 181
-0.03912680309503441 0.11561397494202863 0.08208459205195748 175 170 167
-0.039435777397938465 0.11717744065395963 0.07925832920174498 151 143 138
-0.039871252405661126 0.11931838409667578 0.07645126221733432 121 110 105
-0.04005935924209238 0.12033102653039543 0.07358903123077007 101 87 79
-0.04098519015730287 0.12471030995842367 0.07085905014436089 90 75 65
-0.04087073276638018 0.12434289689473904 0.06792921578240506 87 71 61
-0.03972141080954515 0.11925240435175677 0.06482180587986841 84 67 58
-0.03898193864940524 0.11603185731689898 0.06179584409264551 80 63 53
-0.03869798175807715 0.11489015286508325 0.0588501195824007 79 62 52
-0.03831940922634701 0.11331640737664264 0.05589227486681036 80 63 54
-0.03794249099162074 0.11175003053318348 0.052938122490013104 82 66 55
-0.028888940815739596 0.07223544038485386 0.01747913183242287 93 65 48
-0.02750563660081722 0.06606562207197139 0.014546416958053263 86 56 34
-0.02493862097648919 0.0544846448904496 0.011574878621510918 81 49 25
-0.02489059461035284 0.05441600206799457 0.008739415999370894 77 45 23
-0.021801390407237817 0.04044526747509189 0.005800531383313125 74 42 22
-0.023150612447710692 0.04676337575050189 0.003021413750007052 73 41 20
-0.021974992774688597 0.04153888855453081 0.00017189772853215893 70 39 19
-0.02395776168030705 0.05075507588153696 -0.0026223988394548352 67 38 20
-0.023761000355767795 0.05000630494814134 -0.005458822365298953 63 36 21
-0.02418496533144998 0.052096154909836725 -0.008294866321471833 58 33 19
-0.02497782230926692 0.05587354552605994 -0.011141464938673322 57 34 20
-0.024962612099094877 0.05595560288189139 -0.01398873502297391 56 34 21
-0.024757278538571004 0.0551680664649388 -0.016833349767038597 56 34 22
-0.02505066179593246 0.0566619161550722 -0.019691224867476383 58 34 24
-0.026598532587781085 0.06389536168818385 -0.022599872876817306 59 37 27
-0.02547491186206885 0.05890697051439636 -0.025417460434771538 59 39 29
-0.027458692229015823 0.06813651966800861 -0.028375821473772843 58 40 31
-0.028167683394385294 0.07153404854842461 -0.03129124157926935 54 37 30
-0.028581916693815424 0.07358324081256062 -0.03419951550260481 42 27 22
-0.04245620383004637 0.1378741032361273 -0.05001967286188542 39 34 35
-0.04045476879481148 0.12886942725102346 -0.05280053698480207 127 123 125
-0.04072258916317309 0.13025450388180274 -0.05581106185931041 78 74 77
-0.04062583109736607 0.1299702990482769 -0.05878347919457142 68 64 67
-0.03933591175881014 0.12438018955115483 -0.06458291377348242 47 43 41
-0.03588076280755051 0.10871220666438905 -0.06707582542679412 31 27 24
-0.03453082709301772 0.10268565592451877 -0.06983333063187298 34 28 25
-0.03319578238239053 0.09672640945591245 -0.07257593004872082 34 26 22
-0.03193444205224216 0.0911039497966042 -0.07531345117026245 52 40 35
-0.02958512039191665 0.08049540061418914 -0.07785104103253107 63 48 41
-0.03030138863697191 0.083933168414985 -0.08089716963478345 65 48 40
-0.029007964125291254 0.07816144855573542 -0.08358706288846862 62 45 36
-0.02733840233287175 0.07066492842515726 -0.08618891198816794 58 40 31
-0.027684377693717007 0.07240566764590531 -0.08916661554334025 53 33 24
-0.027149996445581807 0.07011122549154948 -0.0919710608159024 53 32 24
-0.02653250878658588 0.06743548582740674 -0.0947521462442363 49 29 20
-0.025967293933242444 0.06499903192547038 -0.0975376860314935 51 31 22
-0.024796844868588106 0.05978718049939789 -0.10018044023993279 56 34 27
-0.023270788445406018 0.05294390671257365 -0.1027256215400346 63 39 30
-0.02201635322795111 0.047345192633205475 -0.1053160577913311 75 48 39
-0.020810388776901563 0.04196792305560344 -0.10790241929119923 78 51 42
-0.018703810800932003 0.032459061827799965 -0.11024465867043093 87 63 51
-0.01971758313664894 0.037261746296546217 -0.11337345186500324 81 57 45
-0.020482833646210924 0.04092522794306609 -0.11645175434773122 105 81 69
-0.017974767508520725 0.029724714814956015 -0.12150561862263912 108 82 68
-0.019016959217199748 0.03465943543840447 -0.12467331613285693 99 67 48
-0.017844921856221184 0.029586920210618095 -0.13006915174297562 81 45 20
-0.013111350707164869 0.008014299770379499 -0.13146740442415503 77 41 17
-0.013537141858502971 0.010119828327032121 -0.13444105242961676 76 43 21
-0.014079148302188137 0.012759249966027973 -0.1374603229472716 72 38 17
-0.013916226406688936 0.01216299445638053 -0.1402547639075838 69 35 16
-0.013750283715590648 0.011552838754325757 -0.14304759351449897 67 35 18
-0.013660643562859336 0.011292997119607212 -0.14586624912506024 67 38 24
-0.013615578209298106 0.011237864952930127 -0.14870114198029935 68 41 28
-0.013359479667149031 0.010213659190730171 -0.15146094434721874 69 47 33
-0.013513112141012047 0.011071124136584204 -0.15436969407265624 66 48 35
-0.013991806680175134 0.013421837644125627 -0.1574044258440715 65 48 36
-0.014501193953284957 0.01591399663716612 -0.16045952707813424 65 48 38
-0.01651861544364851 0.02533432298017127 -0.164111476603747 64 47 37
-0.015591220519819562 0.021227113387407244 -0.16662524987846186 63 46 37
-0.015835947239242906 0.022504737138504056 -0.16960115643876947 62 45 37
-0.015839043544820932 0.022672350933349624 -0.172482961833236 64 47 39
-0.015649225748266007 0.021953547144376438 -0.17528583979891588 65 48 40
-0.018787241823414243 0.036528641753451774 -0.1795045835231737 65 48 40
-0.01947591471986386 0.040003851899710674 -0.18562377713689893 63 46 38
-0.020098396004456814 0.04317619989555852 -0.1917399371064569 61 43 35
-0.01888446109257241 0.03775059309756336 -0.19410305551837906 60 42 35
-0.02017298177450916 0.04383062492294034 -0.19762428077626565 61 42 35
-0.0200860345853877 0.04358671150643976 -0.20051078774154482 62 44 37
-0.02050730641819374 0.04568004808220909 -0.20364359838875085 60 43 35
-0.020680717986817452 0.04663383919470575 -0.20666266813605155 60 43 35
-0.021427768497367043 0.05054003655975189 -0.2158621050955982 62 45 37
-0.02175066973326021 0.05218260663958456 -0.2189778584356579 63 46 38
-0.02130019159014866 0.05026707768076016 -0.2216924663000243 60 43 35
-0.021920540807170465 0.05327876481082816 -0.22497458443893906 59 42 34
-0.023800893121696847 0.06208948819886539 -0.2289500608518241 57 40 32
-0.023376290479301808 0.06045182482815033 -0.23466066045405332 58 41 33
-0.02415419034088853 0.06498544088778227 -0.2529933955772116 59 39 30
-0.02443073263971944 0.06641824479838257 -0.2561511722255857 58 39 29
-0.025418007761727382 0.07112487669193493 -0.2597517413448024 57 37 26
-0.02527819671878874 0.07064077241128211 -0.2626675562452233 57 37 26
-0.024994710766635085 0.0694948039672944 -0.2654927600438166 57 37 26
-0.027332300564980497 0.080424009288033 -0.26998450468492596 56 36 25
-0.028990005362649993 0.08822264561711762 -0.2740745640762716 55 35 24
-0.029216420612933825 0.08942760839998773 -0.27725853242188064 56 36 25
-0.028389856468267194 0.08578053703373371 -0.2797540776580211 59 38 28
-0.027567230496853185 0.08215106808728585 -0.28224197536552886 62 40 31
-0.027470221118527934 0.08186539061371484 -0.2852083200618224 63 41 32
-0.027130355122868162 0.08046032643058187 -0.28800977942326395 63 41 32
-0.026438594863612913 0.07743295427588437 -0.2905659465123115 60 39 30
-0.028361458105183007 0.08645890505797546 -0.2949324297081499 57 37 27
-0.028479971944782342 0.0871674650189315 -0.2980608238501057 56 37 27
-0.0284541900992232 0.0872108831775705 -0.3010903669521798 61 42 32
-0.028854716159285698 0.08922022164318583 -0.30442739262393337 64 47 37
-0.03005071757335947 0.09555196025217967 -0.320621205590228 75 45 26
-0.02869486038471595 0.0894600958673159 -0.3226606885652205 75 45 24
-0.025219384499146486 0.07358718388192356 -0.32305081027257443 77 46 29
-0.026426636850797176 0.07997053775035717 -0.33924769631569335 32 14 7
-0.0282859708165187 0.08871696569185622 -0.34382080483223293 57 42 35
-0.029252583988081032 0.09334341588070802 -0.3476900607842012 48 32 25
-0.029910879523725002 0.09654715837611405 -0.3513200370533501 50 32 26
-0.029886356540150733 0.09659851568852965 -0.35439056204960934 45 28 21
-0.02972384964952069 0.0960127414716682 -0.3573461964373816 41 24 18
-0.029403444197316206 0.0946976965478492 -0.36016689213593056 39 23 17
-0.028973880999834868 0.09287831810853672 -0.36289097356099215 49 33 27
-0.028419426095652407 0.09048179673156284 -0.3655023559458913 38 22 16
-0.027765929717898825 0.08762740141465582 -0.3680208215996317 47 29 23
-0.027388067307425677 0.08604602535772445 -0.3707743815009557 64 45 35
-0.026679616792284002 0.0829369916836934 -0.37323035245673214 68 47 35
-0.026236225360715702 0.08105228799983905 -0.3759152333724671 67 47 36
-0.02594354100822402 0.07986378484901045 -0.3787316194594955 64 43 32
-0.025517815146658223 0.0780602822148787 -0.3814242882357425 65 41 30
-0.026789841241281073 0.08410359994381839 -0.385672607481991 63 40 29
-0.02707204460271751 0.0855726539583853 -0.3890249692573409 65 42 31
-0.027090154590894953 0.08582117885937253 -0.39213686393074587 61 37 24
-0.026676627103340796 0.084074262413808 -0.3948445911292205 55 28 16
-0.027205427672923842 0.08668409551303953 -0.39844233308419336 58 30 18
-0.01951425909299121 0.05144723576316672 -0.3972328208226191 64 36 24
-0.01911035279867407 0.04974152270861759 -0.3998880543342501 62 34 22
-0.016696123202269236 0.03873736276182899 -0.4005705861095466 69 41 28
-0.014708902837292225 0.029706553480194083 -0.401639909075638 64 36 23
-0.015680112456273307 0.034360070652712425 -0.4056227249880698 94 69 55
-0.014846155017203419 0.030662963545771603 -0.40781356205154345 94 72 58
-0.013509529455176347 0.024639516069918453 -0.4094862575963634 90 67 53
-0.012262738881773573 0.019030780938361025 -0.4112319737576411 96 68 51
-0.01208843436686354 0.018384237286609928 -0.4140595733172971 86 51 31
-0.011924884211436674 0.01778742565944076 -0.4168975261363422 74 36 13
-0.011529117902512945 0.016596335110392754 -0.4285180917311218 71 38 16
-0.011487561912221764 0.016564315322314352 -0.4314856384231655 74 44 23
-0.011396153518807017 0.01630152223831076 -0.43440072509446825 76 51 33
-0.03865821180729249 0.14460451312065542 -0.502588953342974 123 117 114
-0.03838561258331063 0.14351370782215994 -0.5055151367013161 121 115 112
-0.038438991946560475 0.1439340884320426 -0.5088254464615427 124 119 115
-0.03812238669619354 0.14263915164434493 -0.511697400071666 127 121 117
-0.03819640452804519 0.14315538869032743 -0.5150354047180536 126 119 115
-0.038022531857491985 0.14252222398267225 -0.518077168227535 121 114 110
-0.03784711864934598 0.14188188200959284 -0.5211164483469585 118 111 107
-0.037627318059840556 0.14103562688220395 -0.5241007908756784 119 112 108
-0.03759685634854286 0.14106757843636814 -0.5273169068296861 119 112 109
-0.03745150362069249 0.14056662868166048 -0.5303922953946225 118 111 108
-0.03730615798509433 0.1400657026675677 -0.5334675207097381 115 108 105
-0.037180506561521005 0.13965614635183843 -0.5365672753939095 115 108 103
-0.037018222798850746 0.13907661218053646 -0.5396209328711301 112 105 101
-0.037295388509775124 0.14053641148072632 -0.5432321327678933 113 106 101
-0.03746863082035362 0.14151422889960838 -0.54671694280334 114 107 102
-0.03763757880570053 0.1424723677604136 -0.5502009979831726 114 107 102
-0.037200418343728864 0.14061723490000072 -0.5529060857379585 116 109 105
-0.03715185787931467 0.14056587240070506 -0.5561119346309035 114 107 103
-0.037030908704946366 0.14017849664143875 -0.5592243978098397 114 106 102
-0.03692949043644209 0.13988181765003288 -0.5623627778746599 112 104 100
-0.03673384316220962 0.13914760433456658 -0.5653769119135874 110 102 98
-0.03650965047485452 0.13828077510834696 -0.5683520784948562 110 102 98
-0.03632489750253416 0.13759704638922104 -0.5713786804047147 109 100 96
-0.03628534371984794 0.13758770311686108 -0.5746001314705413 109 100 96
-0.03637620652539549 0.13818425696607126 -0.5779997917262956 110 102 98
-0.03646721707936171 0.13878168422624684 -0.5814031655194098 110 102 97
-0.03682378658827336 0.14201650618555667 -0.6115293001090416 109 99 93
-0.03682624035472803 0.1422038470215024 -0.6148367531375671 109 99 93
-0.03691932783005361 0.14281277262356137 -0.618277693264981 111 99 93
-0.03700306388959079 0.1433783987561797 -0.6217085948529185 109 95 90
-0.03686455262206802 0.14291051559363088 -0.6248174098857948 106 93 88
-0.036949676594657054 0.14348287123569167 -0.6282554937195225 108 95 88
-0.03676298768598536 0.14279095739087855 -0.6312946422295758 109 94 86
-0.03657633178117162 0.1420991540232251 -0.6343330310551565 108 93 85
-0.036346756972805594 0.1412076158782507 -0.6373063955200075 107 93 83
-0.03615481362491301 0.1404911048187958 -0.6403348742461212 104 90 80
-0.034937074329070186 0.13500089402494334 -0.6418114797710301 103 87 77
-0.034624679127719195 0.13372327008162577 -0.6446469988122987 103 87 75
-0.03507767850359452 0.13600798682282866 -0.648649061567283 102 84 72
-0.034601026027376434 0.13396579001182124 -0.6512327736399872 102 83 70
-0.033455826917769486 0.12881102615635737 -0.6527791206726902 101 81 68
-0.03316973463843592 0.12765516520624554 -0.6556423809202492 98 77 62
-0.0325586180277702 0.12498581947855257 -0.6579963905952088 96 75 60
-0.031972453851192115 0.12243226390770273 -0.6603819551405472 96 74 59
-0.03369519923740272 0.130630869698477 -0.666397534869825 96 73 58
-0.033408810348980265 0.12947370018060417 -0.6692616937987886 93 69 54
-0.03312266380686396 0.12831753131194354 -0.6721238315971809 89 64 50
-0.03228907093868798 0.12496401914577983 -0.680735932162027 88 66 49
-0.03212745804668935 0.12438761460253486 -0.6837907478126974 87 66 48
-0.031751170610892616 0.12281081608221825 -0.6864950117676476 86 64 44
-0.030898714859966453 0.1190146931753687 -0.6884150238198219 84 61 42
-0.030666923004022253 0.11811074565249041 -0.6913457472285078 84 61 42
-0.030099603811367382 0.11564274951066353 -0.6937196591111365 83 59 41
-0.029663000708131982 0.11378373664846543 -0.6963040155489074 81 57 39
-0.029874911206516093 0.11494788080793501 -0.699967107707491 80 56 39
-0.028563287445800962 0.10900885050191975 -0.7010779464919734 78 53 37
-0.026505273013192686 0.09958845660513996 -0.7009108861967921 78 52 35
-0.027417678986193617 0.10401852102314267 -0.7057474595484806 77 50 33
-0.02674858052948391 0.10107369981703083 -0.7079076841697783 76 49 32
-0.026042620758208762 0.09795649265249298 -0.7099962530086448 76 49 32
-0.02446257661601816 0.09076151821643177 -0.7105731523941716 77 50 33
-0.02349241622533832 0.0864104477510305 -0.7121800539138814 78 51 33
-0.02353407276887022 0.0867792751525968 -0.7155289815486934 76 49 32
-0.023829944778032616 0.08833439826318358 -0.7193238103412302 75 47 31
-0.023753720140523554 0.08815355913607284 -0.7224739645579235 73 46 30
-0.023535948669229523 0.08731220209326311 -0.7253760286512541 73 45 31
-0.023468164558951416 0.08717079251095093 -0.7285417737141415 71 43 29
-0.021887875753138088 0.07996963222005729 -0.7290235171918459 70 41 27
-0.02173726319714117 0.07944103651017277 -0.7320314446718915 70 41 27
-0.020945986826941237 0.07592149529189943 -0.7338914088414407 70 42 27
-0.021165123777449973 0.07711892139210406 -0.7375589081897992 71 44 29
-0.020962765255743386 0.07634854154058689 -0.7404702172806342 72 45 30
-0.022080135692972735 0.08174094011556463 -0.7457765046346064 71 43 28
-0.02190536191310734 0.0810998341431917 -0.7487465224906342 70 42 27
-0.022254585495883453 0.08290609380542613 -0.7526757130967416 71 42 28
-0.022227281450832824 0.08295398220343013 -0.755919933316724 72 44 28
-0.02064866836015273 0.07592998154431954 -0.7595847506888652 71 43 26
-0.020386817608166942 0.07488159593680711 -0.7623844702797407 73 45 28
-0.02033394532158614 0.0748096123555258 -0.7655733667538827 76 47 30
-0.020720007466499366 0.07678893949008578 -0.7695889656948459 77 46 30
-0.013915210087153143 0.046198444326584 -0.7795139452635337 78 47 32
-0.014332761109585118 0.04832450225285988 -0.7835807960515214 77 46 31
-0.016177213051597816 0.05712485247912774 -0.7904446245220893 76 44 29
-0.01330867179455543 0.044749538375716894 -0.8043941273146153 75 43 24
-0.010419169831834794 0.03226513480301102 -0.818095098248096 72 39 19
-0.009242893605947468 0.02693019698694131 -0.8189267819104931 72 39 19
-0.009017048546040705 0.026045461241538836 -0.821707578567439 72 41 21
-0.009271250305619434 0.027409038686532064 -0.8254839356755206 74 42 22
-0.00970048443542567 0.029592830849715993 -0.8296316563219817 74 43 22
-0.007880247599259517 0.02141208766930186 -0.8323241812883063 79 45 26
-0.006853793677752476 0.016775597708657844 -0.8334055591574051 76 41 22
-0.006189761506558943 0.013836591251197752 -0.8352398853012147 75 40 19
-0.005162555686872329 0.009195153510276999 -0.8362929195522241 75 39 17
-0.004649933859903102 0.007308693961844692 -0.8448903937706959 77 41 17
-0.006233465878537972 0.0149046626015749 -0.851544460437613 80 43 19
-0.005724835090608237 0.01269291332450137 -0.8536903719478777 83 47 23
-0.005867004195470111 0.013532431439378462 -0.8572465717817589 84 48 25
-0.0071912678869277165 0.01991556162270669 -0.8633902195244925 84 48 27
-0.007383905376605979 0.02099277672202235 -0.8670760023782197 87 52 32
-0.005158289870897757 0.010727857879319319 -0.8654428359754562 87 54 34
-0.0062575430047566855 0.016057305971939134 -0.8711228689596113 84 54 35
-0.005606989033624575 0.013179106654915201 -0.8729416086885334 84 55 36
-0.005501720076957543 0.012858740990050577 -0.8759658631771142 80 53 36
-0.005367981270633766 0.01240481270295099 -0.8789268818942126 78 49 32
-0.005133328043808151 0.011477333167774884 -0.8816614207552426 78 50 35
-0.00458368150754623 0.009071493632191535 -0.8836848650138769 76 48 34
-0.004482676892789826 0.008770958717663507 -0.8867153074609642 71 46 31
-0.004022838385280659 0.006786118382227896 -0.8889321522683891 68 45 31
-0.004923260845280424 0.01118651877895141 -0.8942408020903725 66 42 29
-0.005214843371216898 0.01272946158426655 -0.8981752743280648 63 40 27
-0.00583359352908433 0.0158089116985288 -0.9028672823538197 58 36 24
-0.007899440463176543 0.02568414741470232 -0.9109034247635851 56 34 21
-0.007145512493099897 0.022319301902781974 -0.9124609976406354 60 37 24
-0.007432467603554843 0.023842492966945794 -0.916421946760279 69 46 33
-0.0075188447945744585 0.024423936954464653 -0.9199230785137901 74 49 34
-0.0087964278496377 0.03060124371135986 -0.9262104204940431 77 51 34
-0.007674149524665393 0.025505431119719535 -0.9268953909709129 76 50 32
-0.00767625564804441 0.025691513545327588 -0.9302090674608648 75 50 32
-0.005349974457061243 0.014937017793328844 -0.9280271042036904 76 51 32
-0.005589637456053689 0.016238637281583868 -0.9318885177427828 77 50 29
-0.006216040530844565 0.019358163752921542 -0.9366759041574618 73 45 24
-0.006548757230425736 0.021097992539264504 -0.9407751757072298 67 37 18
-0.006329033127909719 0.020241417558605423 -0.9435591468204172 58 29 12
-0.006456041740688437 0.021014781354688233 -0.9471749919655452 55 26 10
0.002632535969528626 -0.017892785458592686 -0.9970418295450425 89 72 63
0.0032730193082214677 -0.02073553798720254 -0.9986613706956451 87 69 60
0.004219578704929016 -0.025020992051690824 -0.9994736472410232 85 65 55
0.004884455823582403 -0.027979779874732158 -1.0010090522254458 78 56 45
0.005444449653755564 -0.030444754127816318 -1.0028106053256438 77 52 41
0.00652473829241269 -0.035362473882922185 -1.0032339753217738 72 41 28
0.008182740281348338 -0.04300431912643517 -1.0021139117657616 66 33 15
0.009502164981601488 -0.04905141753169233 -1.0018652272238322 63 31 11
0.010338382970577431 -0.052821409540770095 -1.002881453513089 63 31 12
0.009952578934249771 -0.050484629070174564 -1.0136320472448135 62 29 11
0.009157766914710767 -0.04621622385983963 -1.0255317994207707 62 29 11
0.0070606047859150325 -0.03614827327017088 -1.0344976720557668 60 26 8
0.00781539198976628 -0.03953506314688697 -1.035716930449718 63 29 9
0.008483069071276113 -0.04251136858011256 -1.0371638251351942 73 38 17
0.011236040607303068 -0.05532947901319504 -1.0328725629527586 74 43 20
0.011443196677262818 -0.0561341655338051 -1.0355516244547005 79 49 27
0.012096788239690584 -0.05904624181448209 -1.0369950396244436 89 61 39
0.012363449989763416 -0.06013219923357026 -1.0395023486628985 90 63 41
0.012267173965117752 -0.0595047709645494 -1.0430169259047548 92 65 44
0.012015875902167836 -0.058145167652472574 -1.046968022454221 92 64 43
0.011839786779510222 -0.05714036270667866 -1.0507151605185108 91 63 42
0.01128315521922544 -0.05433811263209648 -1.0555362648209587 90 63 42
0.013314184128711905 -0.06375701259327607 -1.0530797193819268 90 63 42
0.013549525805504531 -0.06469563619326656 -1.0556641019338924 92 65 44
0.012426541066404208 -0.05921757944156551 -1.0620968537695226 92 65 44
0.012619783783485931 -0.05995687677953604 -1.064809006435019 91 64 44
0.011912249306378058 -0.05644009153149704 -1.0700891142761015 88 62 44
0.010447396075316723 -0.04934386402831033 -1.0775504852296796 81 54 39
0.010448975282908168 -0.04917636870681025 -1.0808316029584424 71 44 30
0.010080906063831475 -0.047261659320455646 -1.0851789553025524 62 39 25
0.010182518042161273 -0.0475665950603026 -1.0881789129629926 53 34 23
0.010171403764999629 -0.04733861475943589 -1.091505786269351 38 19 12
0.01052608098693078 -0.04883988666933524 -1.0937725049120735 39 19 13
0.009242771713604027 -0.04259656236536384 -1.100807856862336 38 18 10
0.012672471881425024 -0.058638414548029094 -1.094094091192405 46 24 13
0.011616875042656887 -0.053471549468229934 -1.1004701226744071 50 26 15
0.012458999467149054 -0.05727914962964277 -1.1012873330840187 52 24 14
0.013523107001960938 -0.062137432577334506 -1.1014372545958278 54 26 15
0.012842089837321533 -0.05874110750563451 -1.1067324996432162 56 28 15
0.01322060242980445 -0.06035673490839161 -1.108898671414754 57 27 11
0.01288760190017241 -0.05860604310900361 -1.1131775703527906 66 37 17
0.013463442208392306 -0.06115556855369546 -1.1147521960614446 77 48 26
0.013342137255044875 -0.06040628522484841 -1.1184056551585162 79 52 30
0.012892011005585919 -0.058100468567086117 -1.1230507124040212 82 56 34
0.013897778707388887 -0.06268548724964094 -1.1233221490459604 86 61 38
0.014041060158077913 -0.06318840629437993 -1.1261826720267858 90 65 43
0.013716740304254585 -0.061477537505957844 -1.1304592151568473 88 63 41
0.01424790502877539 -0.06381683866770513 -1.1321449886252934 87 62 40
0.01404032279960591 -0.06265831184632883 -1.1360743050571451 87 61 40
0.015143734491693445 -0.06770808108132828 -1.1360036678797538 87 60 39
0.015241339314037889 -0.06799499406962191 -1.1389979473724976 85 59 40
0.014376955627673937 -0.0637251744032833 -1.1449493860392113 73 50 36
0.014492538747162456 -0.0639207013165569 -1.151203850929472 76 64 48
0.01529766208774418 -0.06755936231172761 -1.1520159842516167 106 98 86
0.012508141551836046 -0.05416487071683454 -1.1639925896051497 142 137 132
-0.04081694810963343 0.1095911073958124 0.08179514719715983 181 182 184
-0.040774044562335424 0.10954612722888632 0.07890451903766278 181 180 182
-0.04471775765265634 0.12756132334364648 0.07679948611880966 182 180 181
-0.044517922434730635 0.12680687779403144 0.07384963488793453 180 177 176
-0.044131158014932184 0.12520542564636694 0.07086641421296135 169 165 165
-0.04384971452751719 0.12408102560811525 0.0679053549246676 155 150 148
-0.04351456699919361 0.12271315209372649 0.06493725047157319 139 133 130
-0.04334396421814401 0.12209084024462338 0.06199885390369343 123 116 112
-0.042554804863429746 0.11866501376450078 0.05896420314508378 113 106 103
-0.042558445494001784 0.11883220746931465 0.05605729087873172 107 100 96
-0.04254564602078431 0.11892497046172612 0.053146246243334194 107 97 91
-0.03321414025988648 0.07855049891441644 0.014665524978748071 98 70 51
-0.02698413204522819 0.05072087436760535 0.005844345446531984 78 46 26
-0.026602786021639513 0.04913669346001273 0.00300256025056035 76 44 24
-0.024844005600642254 0.04129960205151088 0.00013737036391006912 70 39 20
-0.02394820548855315 0.03737906335847812 -0.002694327579107723 67 38 21
-0.025417029811786895 0.044193638790997025 -0.005501682076282656 62 35 21
-0.026158862968654904 0.04770846892481129 -0.00833018608790367 57 33 19
-0.027586824425221146 0.054339510308863734 -0.011176134783951736 57 34 20
-0.028399464033416276 0.058177369953306655 -0.014034329422601067 56 34 21
-0.02841775716926334 0.0584083386915246 -0.016888117114419145 56 34 21
-0.02912865066083191 0.06178513470885593 -0.019763791167695402 58 34 24
-0.027919328849835494 0.05644040438148454 -0.022582502952444596 59 37 26
-0.02930511075603541 0.06288347330870728 -0.025496756390789112 57 38 28
-0.031046510159613953 0.07094319066374637 -0.028449549134837077 58 41 32
-0.032895884016075155 0.07949481385596856 -0.03143431270281459 55 38 31
-0.03262020128966937 0.07839223443866049 -0.03431172028780515 41 26 21
-0.04314174480408078 0.12696899982841073 -0.049835576108834614 86 82 83
-0.042453733815057945 0.1239956768824078 -0.052739953410933835 177 176 178
-0.04209552789824015 0.1225213179501644 -0.05567350669344394 169 168 171
-0.042696567196900556 0.12540808392228167 -0.058718072304194416 141 139 142
-0.042751805918150323 0.12581365083300858 -0.061704022036540455 84 82 82
-0.04222522589881606 0.12357364105654119 -0.06461514457609896 56 53 51
-0.03895452216640338 0.10885397054820788 -0.06713651295554972 47 41 38
-0.03754079950067842 0.10257763602327165 -0.06988693295589983 42 34 31
-0.03616778348286104 0.09648551926163922 -0.0726256356040928 50 40 36
-0.03479387129516114 0.090388422529686 -0.07534676162561206 55 43 37
-0.03332413878884437 0.08385452254807196 -0.07803433039301445 68 53 46
-0.0337089644883422 0.08575693114562638 -0.08102761351651963 66 50 41
-0.03268026026643041 0.08122836490203847 -0.08377079501944204 61 44 35
-0.03084981024303597 0.07305102966672161 -0.0863497751323633 57 39 30
-0.031143235534158605 0.07453730873925414 -0.08932118351806367 51 33 24
-0.03096408987460384 0.07387325114594176 -0.09220251734084364 51 31 24
-0.030046273649251703 0.06984724078607937 -0.09492791708126529 55 36 29
-0.02928051730132849 0.06651277910598477 -0.0976751916055514 59 39 32
-0.028214879016249316 0.061812778152119725 -0.10034623765713235 61 40 32
-0.026986433529360955 0.05637092790691275 -0.10296640417968582 66 42 34
-0.02534560266970493 0.04905077935390762 -0.10547278121692687 78 53 43
-0.02439395636016258 0.04486746823059888 -0.10812682874138278 81 55 45
-0.024354380988528587 0.0448366608775773 -0.11099934974777416 83 59 47
-0.023882073043871535 0.04283531213592452 -0.11376081424633269 85 61 49
-0.02371075163201051 0.04220446871380615 -0.1165975564718376 103 79 67
-0.023918312684580667 0.04329924513153952 -0.11953725715670838 119 95 83
-0.015422762370776496 0.005338752080977789 -0.13136121507010035 78 42 19
-0.01537884643809323 0.005285556486895045 -0.13418202238606378 78 45 23
-0.016280747406061065 0.009542657326584908 -0.13730951542665948 74 41 21
-0.01608215164038127 0.008784966173091699 -0.1400881661676451 71 38 19
-0.01621817512313645 0.00955237842173665 -0.14297859128325713 68 38 22
-0.0162634867685838 0.009906492041137641 -0.14584144022358078 67 39 24
-0.016602118814594807 0.011597869173225063 -0.14880977390363634 68 42 28
-0.016762739389943004 0.012478031323085267 -0.15172082237059917 68 45 32
-0.01688844378429811 0.013199206298048268 -0.1546231262145664 66 48 35
-0.01709563730586464 0.014292133651361779 -0.15755934777468467 65 48 36
-0.017226933766876517 0.015039205489290892 -0.1604714252204656 65 48 38
-0.015619733811990763 0.007858086372821222 -0.1627140754423408 64 47 37
-0.020021239478883318 0.02808067481062502 -0.1673046463164836 64 47 37
-0.0195530734758182 0.026394294330912744 -0.1757802751673432 65 48 40
-0.023463312404311085 0.04498983476645209 -0.19201493075294246 62 44 37
-0.022728248553303212 0.041786577561931604 -0.1946049165415827 62 44 37
-0.02218359364825605 0.039451999463844555 -0.19727484730692535 63 44 37
-0.02294997926615727 0.043101923138557846 -0.2005589836334735 62 44 37
-0.02325227532135663 0.04463379913822163 -0.20363303590297605 62 45 37
-0.023238281029946857 0.04472191286440392 -0.20655904700340288 61 44 36
-0.02276385258546216 0.042707742145365116 -0.20925888578335472 60 43 35
-0.025166745719635675 0.053985391991258375 -0.21634979798508203 62 45 37
-0.025577170703530095 0.05601297051099616 -0.21951554189802697 62 45 37
-0.025662796226649118 0.05655741262164022 -0.22251898195532177 59 42 34
-0.025779522644956154 0.057244079414640395 -0.22554198070800524 58 41 33
-0.026219079691624042 0.05940571422828263 -0.22874215762191707 58 41 33
-0.026470109696997902 0.06070645452328529 -0.23184772531504866 59 42 34
-0.02939406347457899 0.07453078211598874 -0.2424278930872309 60 40 33
-0.02791718212281128 0.06840183586543161 -0.25355491583184725 60 40 31
-0.028080732350279643 0.0693047993400908 -0.2566492478299518 59 39 30
-0.028628797112531357 0.0719660035462108 -0.25998254113391384 59 39 28
-0.028640057020747903 0.07217321267182525 -0.26299404137511634 60 40 29
-0.0287554315958079 0.0728566228236666 -0.26607263181667595 59 39 28
-0.029837572117417853 0.07796141821420888 -0.26976606173020995 59 39 28
-0.029421906418291153 0.07621681258690227 -0.27251911061584855 59 39 28
-0.03187620662616706 0.08775648376047956 -0.2801620617728399 62 42 31
-0.031480606224511036 0.08610426045583908 -0.2829397597345597 62 41 33
-0.031195705255132607 0.08495829336900142 -0.2857875891199429 63 43 34
-0.03057053136154555 0.08225530315468721 -0.2884030623138897 64 43 35
-0.029749590284805928 0.07865613734811878 -0.29087746958867455 61 41 32
-0.030985518541746478 0.08446912502792506 -0.29476253132397634 58 38 29
-0.031224730754687055 0.08572158148032313 -0.2979717820563391 56 37 28
-0.031792442625430004 0.08847785218090515 -0.30141814754665436 55 36 27
-0.031995705983183756 0.08956644146493306 -0.30461496416728934 65 47 38
-0.03254936697226352 0.09225931121264849 -0.30806896775359965 64 45 35
-0.03333131045367389 0.09647528079907972 -0.3209115025307491 74 45 26
-0.03259321104886788 0.09325440595048261 -0.3234274962378002 74 45 27
-0.026922325575938856 0.06759789537628774 -0.3251960243064213 74 43 24
-0.02872523805214581 0.07632993511353597 -0.3357319061736264 55 36 27
-0.03049149267036215 0.08458098651110499 -0.3401989156854968 39 23 17
-0.032316475564508 0.09310260144052912 -0.3447414188716973 67 53 46
-0.033007483638770395 0.09642904529903583 -0.3483876175333286 60 44 36
-0.03339241405621555 0.0983533383435428 -0.35179396647930083 60 43 35
-0.03390050077879769 0.10084250968301581 -0.35531024480306433 48 31 24
-0.03375371945301951 0.10033035136568652 -0.3582871183814221 46 29 21
-0.03337913664122473 0.09877388372576465 -0.361071127196376 36 21 14
-0.032753558010784944 0.09606650662065991 -0.3636374156809014 48 33 26
-0.03203771455674724 0.09294488299762949 -0.36611867966655226 39 24 17
-0.03127890014019249 0.08962576916764152 -0.36855394257028024 53 36 31
-0.030455319258493666 0.08600916568453953 -0.3709231612984771 65 45 37
-0.03024551001401586 0.085206884303442 -0.373823820181241 66 44 31
-0.029420879728202357 0.08158463321588115 -0.3761760046930769 66 47 34
-0.029141597611898308 0.08046332225704472 -0.3790073223193652 64 44 33
-0.028956606135376303 0.07977443664758196 -0.3819217341910103 66 43 32
-0.028596959491520035 0.0782842405504326 -0.38467593649987586 64 43 32
-0.029438311125541048 0.08230416088838907 -0.38853155948513396 68 47 36
-0.030005456509481585 0.08506664148752958 -0.39214736493049407 53 31 19
-0.02900464126483644 0.08063449385857893 -0.3943076944544862 51 26 14
-0.030258658209535313 0.08654967624621782 -0.3985798826747808 58 31 19
-0.025503448306797804 0.06488571179803651 -0.3971648784019639 61 33 20
-0.02304299892379907 0.053751184821135944 -0.39787748200279405 63 35 23
-0.018603444819331263 0.03415665259290303 -0.40873780900391754 90 68 54
-0.01705532915180743 0.02720406619588911 -0.41021382101699544 90 67 53
-0.014713509163767357 0.016760688727236385 -0.4138692066930342 89 55 35
-0.015170313014959979 0.01901473873301624 -0.41734157516786063 75 38 16
-0.016196137541137582 0.02388328218551576 -0.4214101978251366 73 36 15
-0.014708359969466622 0.017672721136892458 -0.4319170823038478 77 48 26
-0.04326437633187555 0.1538014235546215 -0.5567985843661445 182 181 181
-0.043040109142537086 0.1529387101511635 -0.5597998239501618 183 181 181
-0.042949049008959295 0.15268971024917416 -0.5629727459879141 183 181 181
-0.04300470937277463 0.15569004010039272 -0.615985221967763 170 166 166
-0.03935480191494549 0.14142444724325692 -0.6604869487482051 110 97 87
-0.03876441003940587 0.13886904251244564 -0.6629029349302827 105 90 80
-0.03820865791501009 0.13647333943004397 -0.6653656668874084 101 85 75
-0.03758401398108968 0.1337589120234827 -0.6677140443907986 99 82 71
-0.036975997122993154 0.13112093347868906 -0.6700808484803852 96 77 66
-0.03389197545968331 0.11789342879482943 -0.6850382257461115 88 67 51
-0.03323023867650304 0.11500452905515111 -0.687269769907888 87 64 48
-0.03400476963723746 0.1191017226023521 -0.6984699935634666 85 62 47
-0.03372527942153038 0.11798064323723273 -0.7013240096903415 84 61 46
-0.03169614981471673 0.10876421969324412 -0.7012596948871975 81 57 42
-0.03106106682951591 0.10599677990559254 -0.7034997410190303 83 55 41
-0.032142287691961285 0.11117132848501979 -0.7086195566977531 83 56 40
-0.031572673472287205 0.10870676130584385 -0.7109679823821455 83 56 39
-0.030468666320210364 0.10376842713758042 -0.7124018435297215 82 55 38
-0.030500828606076672 0.10425973740878455 -0.7190636930436123 81 54 36
-0.02984116691629398 0.101377103169917 -0.7212343397313371 80 53 34
-0.02997102633418184 0.10214959257002176 -0.7247627138905121 77 50 33
-0.02946630413494384 0.09998386351386397 -0.7271922021703637 75 48 31
-0.02724196516595859 0.08985441321176207 -0.7266128275935895 74 46 32
-0.026366983855702637 0.08597256199413289 -0.7283671748052506 73 45 31
-0.02639304807803036 0.08626351528359709 -0.7316975367977355 72 44 30
-0.026949484827510778 0.08901137430359365 -0.7359693408725926 72 44 30
-0.02468712512748893 0.07870149923873238 -0.7352395717127218 72 44 30
-0.023496513722087577 0.07335526250000753 -0.736390131987025 73 45 31
-0.023153089624159375 0.07227251358848415 -0.7455844942310348 72 44 30
-0.023689080845727812 0.07492631528800028 -0.749832641061556 72 44 30
-0.024656748897344757 0.07958152913972785 -0.7548799523881412 73 46 31
-0.025167380096001432 0.08211906797854851 -0.7591065316294097 74 47 30
-0.026665250672267406 0.08923389808453601 -0.7651624747161824 75 48 31
-0.021507430681543194 0.06566164269990213 -0.7621986581463452 77 50 33
-0.024103736763183954 0.07787077915229379 -0.7703181664287547 77 49 32
-0.022916797493277845 0.07253708204124895 -0.7713889768911631 76 48 31
-0.019673403179511054 0.0581725866249717 -0.7783707225034844 75 45 31
-0.01370738570060204 0.03368683282140095 -0.8285823147822045 75 45 26
-0.010519195469465368 0.019542089298191276 -0.8349679219442163 79 45 26
-0.00981036601286198 0.016414644603490958 -0.836722427057878 76 41 21
-0.009475707785371188 0.01586747119381328 -0.8554822890428322 85 49 25
-0.009815957295216737 0.017618963718334685 -0.8594687969829694 85 49 27
-0.01018893779014 0.01952314969446936 -0.8635340478000794 86 50 29
-0.010322881530198513 0.020315467927024572 -0.8670872015961694 88 53 34
-0.007915747086494816 0.009282646473796174 -0.8650915697496235 87 54 35
-0.007880104047813249 0.009285051033966957 -0.8682603988097699 84 55 36
-0.00957913691553934 0.01753087868316877 -0.878515444829991 81 53 36
-0.007421264797969139 0.007822984557200152 -0.8802469001944325 78 50 35
-0.00767804163701814 0.009187236280814998 -0.8840744204255071 75 49 35
-0.008157072415027531 0.011586787775591217 -0.8884069562562583 72 47 33
-0.007821204635335133 0.010191782605076388 -0.8909146775605544 68 45 31
-0.00841289110771902 0.013116731101436352 -0.8955152735551366 64 41 27
-0.008941165337369359 0.015746928577820007 -0.8999840307954088 62 38 25
-0.009113453260845988 0.016719362019163853 -0.9036532712443138 59 37 26
-0.011261719592454051 0.02689783817191252 -0.911842740145915 59 37 24
-0.010792813804608843 0.02488414719397955 -0.9140680340507131 66 42 30
-0.011205887439526382 0.02697993383330119 -0.9183177585948139 71 48 34
-0.011297669102003988 0.02757892367943343 -0.9218343489387716 75 49 34
-0.011731454260289095 0.02977204037671935 -0.9261475730725346 75 48 31
-0.012290217499598872 0.032720254736281096 -0.9340812339720624 75 49 33
-0.010519360206667081 0.024636927426192 -0.9332535078221252 76 50 32
-0.010367912837031344 0.024102374229803464 -0.9362070528908042 73 46 25
-0.01006005848961826 0.02283851621528371 -0.9387910735015962 62 34 13
-0.01080951789456152 0.02650495305345707 -0.9438766016933127 57 28 9
-0.010084451320975376 0.023295527209282296 -0.9454717784878741 54 25 9
-0.001508264996809186 -0.012635894103192519 -1.003508682827812 87 69 59
-1.2812498821603013e-05 -0.019455758594183692 -1.002931987710424 82 62 51
0.0008105675036190613 -0.02313486817718184 -1.0040776135488443 78 55 43
0.0019058418994851063 -0.02808583149141801 -1.0045027922163907 74 49 37
0.0032285594002447356 -0.03410115994094794 -1.004316753197624 70 39 25
0.005242316051002959 -0.04334910385419492 -1.0022975667691667 63 31 12
0.005245042165022733 -0.043193507186116475 -1.0055384709451287 63 30 11
0.008065535433965185 -0.056217225787747196 -1.0013418402397356 61 30 12
0.003094812782009109 -0.03228908486457245 -1.0275624061246726 61 28 11
0.003599220111426875 -0.034479470675767995 -1.02948858242861 62 29 12
0.004348680110308024 -0.037817022281831994 -1.0307486315243366 62 29 12
0.005314861148285888 -0.04216946551098942 -1.0314127223158682 61 28 10
0.004609578970029279 -0.03869883291678594 -1.03659045076634 63 30 10
0.005480210920940278 -0.04260473761829818 -1.0374996923518753 69 35 14
0.006373160961805631 -0.046615794423977425 -1.038335255439372 77 47 23
0.00874425747634255 -0.05754846443322603 -1.0351149207421348 81 53 31
0.009335120106446292 -0.06014699675937196 -1.0367400408070302 88 60 39
0.009637160497708241 -0.0613933732590613 -1.0391520307704754 90 63 42
0.00935956970736623 -0.05992519882473227 -1.043161276517205 91 64 43
0.00891988517975044 -0.057697421716200556 -1.0476264378942362 91 64 44
0.008775603751249434 -0.056852925437163304 -1.0512807050592199 91 64 44
0.009870929448683997 -0.061815569984073254 -1.051484999709732 92 65 44
0.009767619172707454 -0.061163107326524385 -1.055023356121171 92 65 44
0.009326068351667955 -0.058925524938681945 -1.0595142081506939 93 66 45
0.009215854406598927 -0.05824014509818162 -1.0630828882636805 92 65 44
0.008914722926230238 -0.05665978677101899 -1.0671943807550854 89 64 42
0.007837058888291743 -0.05143934926594326 -1.0735111675848101 86 61 42
0.007903284800386604 -0.051579879584316146 -1.0766013551587517 83 55 40
0.007696207779501547 -0.05043910747587564 -1.0804709012045814 75 48 34
0.007334227101121721 -0.048571773240359856 -1.0847887494070398 57 36 22
0.007578005804473622 -0.04954435243818628 -1.0873795000244364 47 29 19
0.007686163482648785 -0.049881060123137005 -1.0903579798382879 38 19 12
0.007944765325484271 -0.05092330713497756 -1.0929031075378977 38 19 12
0.006330420446189113 -0.04318103706303286 -1.1008614105717085 41 21 12
0.010093105812096305 -0.06065937963656276 -1.093255889157642 48 26 15
0.009727670616639407 -0.058775252964982774 -1.097595105424542 52 27 16
0.010472444066065175 -0.06209937539473044 -1.0987037020399097 54 27 16
0.010062661473407335 -0.06000677749333426 -1.103180207957075 55 27 15
0.010338622112770517 -0.06113157359455848 -1.1056533119199055 55 27 12
0.01014063938332969 -0.06003228914261624 -1.1095190801763644 60 31 13
0.010015486822524414 -0.059274534477868734 -1.1131754963138962 71 43 22
0.010055115903640437 -0.05929002091278367 -1.1163483248563764 81 53 30
0.010232117315929205 -0.05995030419830609 -1.1191146379410766 83 57 35
0.009975171399607529 -0.05857332726930044 -1.1231728671426624 83 56 35
0.010716237320159683 -0.061881945158622845 -1.1242558185307445 89 64 42
0.010917690994893495 -0.06265724715903014 -1.1269450461310326 92 67 45
0.010937557142062761 -0.06257984736631104 -1.130178734049883 89 64 42
0.011137617936886834 -0.06334866140622425 -1.1328711202372987 86 61 39
0.011468313691386664 -0.06473114935985586 -1.1351672645709592 86 61 40
0.011714936984960862 -0.06537718535134568 -1.1443075478013807 71 49 35
0.012923239072574113 -0.07037179386483193 -1.1537921935513338 147 142 137
-0.0481225046090292 0.1291942006334567 0.0768597032345241 181 182 186
-0.04818507140866143 0.12962268180612527 0.07395623213732304 179 183 186
-0.047772453125261516 0.12791344573465974 0.07096350088424175 179 182 185
-0.04773473924030141 0.12789082956468326 0.0680404824902911 180 181 185
-0.04744679233464666 0.12674231171756825 0.06507397494136369 180 181 184
-0.04698278001727871 0.12480139057326822 0.06208107835998411 180 181 183
-0.046340571456629676 0.12205829647812196 0.05906503468358176 180 181 182
-0.04628055352075286 0.12193510528483836 0.05614250034424552 180 181 182
-0.04576694220547885 0.11977032632915743 0.05315469492321491 178 175 175
-0.04447707607962002 0.11411107846225924 0.05006723843394978 120 112 112
-0.043758423574125856 0.11102247133546535 0.047068847031412175 100 87 85
-0.031208863494396968 0.05666849111319616 0.003013585700479649 73 43 25
-0.029119060719237533 0.04739270504831998 0.00013002138248808647 71 40 23
-0.02851683282411014 0.04482087421727201 -0.0027080161733136175 66 38 23
-0.029455255473545328 0.04919379834960398 -0.005530772120599405 62 35 23
-0.028551910166259048 0.04526432880985175 -0.008365873498521987 58 33 20
-0.02999273457164061 0.05190320415139243 -0.011209155106828418 57 33 21
-0.030128277745433314 0.052657740907933924 -0.014054428674570834 55 33 21
-0.03024942331487322 0.053347534250908345 -0.01690294517326414 56 34 22
-0.033706180942200445 0.06907984703570466 -0.019850399777817482 59 35 25
-0.03273603907258228 0.06484946368311763 -0.022689802732331742 54 34 23
-0.03306234151591897 0.06646586686799746 -0.02557255173079942 55 37 27
-0.035652824793941856 0.07829553909177672 -0.028573104343038686 61 44 35
-0.03774370870651955 0.0878733993851136 -0.03158298728683166 60 43 36
-0.040095256310821684 0.09862874708808994 -0.034639853332863124 43 28 24
-0.04549799840272209 0.12360082281896133 -0.046846282485833 33 26 27
-0.04505933709021248 0.12177091854983504 -0.049774336414082285 138 136 137
-0.04453222448682927 0.11954157775016414 -0.052688857612864105 179 178 182
-0.04503499682346893 0.12196064911523982 -0.0557126097383579 180 179 182
-0.04563431403273553 0.12481597874824371 -0.058756526440079594 180 179 182
-0.045403302341251284 0.12392330174027946 -0.061706511866381625 141 141 141
-0.04582353312605613 0.12597081141434102 -0.06474117534325134 72 69 68
-0.04205645882053815 0.10911221102588572 -0.06720083388198288 60 52 52
-0.04059875698090592 0.10267913642476344 -0.06994734320471868 56 46 45
-0.03970168867377577 0.09877689192114342 -0.07276117122813827 59 48 44
-0.03784275705341033 0.09053009809639712 -0.07541042904916088 61 49 43
-0.0375928549372346 0.08954942459393131 -0.07830419450306247 67 53 46
-0.03649509973074052 0.08473895799307128 -0.08104881620796307 66 50 43
-0.03604510064373026 0.08285391629470906 -0.08389706013895548 63 46 39
-0.034377120933682496 0.07546623910780591 -0.0865120439233635 58 40 33
-0.03486941673653529 0.07783760235015258 -0.08952631632496577 50 31 25
-0.034239281613471756 0.07513786289432436 -0.09232275282062298 49 29 22
-0.033677582423416313 0.07274701024185287 -0.09512643700360715 58 38 31
-0.032620085653027556 0.06811531382292024 -0.09781708215180773 62 43 36
-0.03165924862033441 0.06391980553259022 -0.10051623247070046 63 41 33
-0.03034012306980449 0.058104329931029985 -0.10312140503784445 71 48 39
-0.02919289021833814 0.05306498637923871 -0.10575055807661468 81 59 48
-0.028220211858562924 0.04881398867425771 -0.10840793447473057 79 58 47
-0.027900636299823776 0.047514951498475316 -0.11121715618819049 87 63 51
-0.027784450083633033 0.047135334539039266 -0.11407605230786705 90 66 55
-0.027298365449537676 0.04508321779914219 -0.11683714384702992 101 77 66
-0.01914173581833287 0.00906064130941174 -0.13168883416913005 78 43 20
-0.018264994770386234 0.005237533488344697 -0.13425474493973077 77 44 23
-0.01887143964672648 0.008124360216049658 -0.13728605595757365 77 45 24
-0.01908149677413639 0.00921816171371765 -0.14019761363821756 73 41 21
-0.01871899781964694 0.0077213406847139385 -0.14292201141470368 68 40 23
-0.018592139948587806 0.007290725548842837 -0.14572362959110935 68 41 26
-0.018674371300602066 0.007806399895626214 -0.14859818649808704 69 43 30
-0.019592931042848358 0.012107561094748212 -0.1517735687957807 67 45 31
-0.01937210936025066 0.011252055371291682 -0.15454970401461102 66 48 35
-0.01896971610713479 0.009574530912208012 -0.1572571895929207 67 50 38
-0.019029551235989185 0.009989412625953289 -0.16013518715775638 66 49 39
-0.01931039943497219 0.01140507647579345 -0.16310075470542446 65 48 38
-0.02416697026739795 0.03353956929940527 -0.16786411355738662 64 47 37
-0.027431783458559934 0.04950318281640087 -0.19255742207553359 64 47 39
