ply
format ascii 1.0
element vertex 680
property float x
property float y
property float z
property uchar diffuse_red
property uchar diffuse_green
property uchar diffuse_blue
end_header
-0.039891772384118084 0.23148749036386163 -0.3835756992704923 105 87 81
-0.03979569094798169 0.23178419378976597 -0.38666617653525726 109 92 86
-0.0367765242213358 0.23582684469732906 -0.3888074605164635 90 74 68
-0.033171475990750834 0.2406194227846788 -0.3907426200274028 100 83 75
-0.025624592381223096 0.2504613682184817 -0.3913597704811036 99 80 72
-0.019777368274140797 0.2581238564517747 -0.3925048194636672 91 68 57
-0.014833050795525868 0.2646281908067773 -0.39392373304407724 88 64 52
-0.010775064349836716 0.26999598288768883 -0.39561778127910924 88 62 50
-0.006647968063941981 0.27545119037893717 -0.3972687204831543 96 69 57
0.004311428115193361 0.28982192148762753 -0.39957678609305936 91 64 50
0.009613849409510947 0.2967780929511349 -0.40075218082194475 91 63 48
0.01775196809235831 0.3081937941538195 -0.4158543438124233 101 72 52
0.013851721651428922 0.3033708512691876 -0.4202724936574652 86 51 31
0.012046571344558166 0.3012288864917332 -0.42394022416610405 81 42 19
0.01648487705794141 0.3070725459725685 -0.4253037074001503 89 48 24
0.019980111636143397 0.3117089964765799 -0.4269975467551464 94 57 31
0.018443535625022794 0.3099105138472531 -0.43056552845385654 99 67 40
0.018381403947638028 0.3099976330538594 -0.4335844853961839 104 74 48
0.016760456585182437 0.3080920663176826 -0.43719853562154076 100 76 58
0.01138540897736405 0.30138838159862713 -0.4422614555535353 113 95 84
-0.05755621401000248 0.23131550923942235 -0.7933382097317562 102 86 80
-0.054142654998585706 0.23581262099648545 -0.7944350232832971 100 81 75
-0.049481987209211854 0.24188450293878777 -0.7947059313927505 97 77 70
-0.03459601286139842 0.2619565703285094 -0.8077780084975671 90 63 46
-0.020317566462783244 0.28123457321011053 -0.8207683394884314 85 58 41
-0.01402352003848141 0.2893522320350959 -0.8196562812528959 86 58 43
-0.007977565973757546 0.2992880178838657 -0.857041030080618 105 67 37
-0.0030148472067850762 0.305715228681839 -0.8566428269839655 109 73 42
0.00189135699833963 0.31206987071198283 -0.8562603660375144 109 75 46
0.002333073461044083 0.3128027344107647 -0.8591168042845658 110 76 47
0.00034942362196045684 0.3104825739530163 -0.863751662775259 109 79 53
-0.003805227113181861 0.3054306184424876 -0.8699970716355292 108 80 59
-0.0034533219742047955 0.30605128963292044 -0.8729348493550732 105 80 64
-0.003892556161192634 0.30567641568609194 -0.8764587121679148 106 83 69
-0.0011742068522371252 0.30927449268315343 -0.8776352361806407 107 86 73
0.0007734969978683004 0.311902336919165 -0.8793740940678392 107 85 73
-0.0015046442329206683 0.30921411225331225 -0.8842723394422185 107 84 73
-0.003775993513286474 0.30671334220818264 -0.8923831465350547 103 82 69
-0.005025178724271086 0.30532082610203387 -0.8965353567843897 95 74 57
-0.0070457966620288 0.30295884429144637 -0.901282096269787 92 69 55
-0.007464067307894402 0.3026118710109295 -0.9048177800522899 93 71 57
-0.012546571892240954 0.2964022737367206 -0.911929333257181 99 76 62
-0.012762402667790058 0.296310800188 -0.9153286380970279 103 80 66
-0.01368425061505349 0.2953322199632556 -0.919274769221538 102 81 65
-0.015779693970744427 0.2928793265473563 -0.9241353251212948 105 82 66
-0.016147616553782655 0.2925975336121867 -0.9276665128117468 107 81 63
-0.017067919599797657 0.2916219986252867 -0.9316313038208475 108 82 63
-0.017271945470237145 0.2915464986728759 -0.935041982341273 111 85 64
-0.016149064208074028 0.29313761803284355 -0.9374135719025488 110 82 58
-0.013830024404712322 0.2962305700168841 -0.9388383154573805 104 74 51
-0.011446406772054336 0.2994039750796542 -0.9402006576710767 99 69 43
-0.009296176944771438 0.3022837151320851 -0.941736308991632 93 64 39
-0.007299677833278853 0.3049698903898357 -0.9433837804302294 89 61 39
-0.009361882393237236 0.3025611397388024 -0.9482613668295643 88 59 41
-0.0024164430529289432 0.3114579006790922 -0.9459367439807095 87 60 42
-0.0020291940071987327 0.31212292113048484 -0.9488460650410202 87 60 43
0.0006638341331735576 0.3156810088054917 -0.9498952049638033 87 60 43
0.026547291462692982 0.35078667859195145 -0.9763066802319863 89 67 56
0.050280282645758845 0.383273365245039 -1.005877646999238 82 41 13
0.04837977165752093 0.3810710421085733 -1.0106886358177494 83 41 15
0.046876120766109225 0.3793653298439853 -1.0151555292102565 84 43 16
0.04836425900446108 0.38139865607183615 -1.0169432189435472 86 47 17
0.0471760383939947 0.38008763449210897 -1.021136206747364 86 47 17
0.04739043702148103 0.38052931252564026 -1.0240686761339117 93 54 23
0.04668880694229856 0.37982673883291257 -1.0278317261752954 98 60 29
0.04753749768235163 0.381060768051816 -1.0301895928226417 102 65 36
0.04641732288773741 0.3798358125156324 -1.0343400722279996 107 71 41
0.04679366718288851 0.38047993457217655 -1.0371284103509788 109 74 44
0.046452909194920386 0.3802286785969541 -1.0405739000002923 113 80 52
0.046383738031368485 0.38031662952715406 -1.0437723429399783 115 84 56
0.04640402428377266 0.38051632480998276 -1.0468896580639948 116 85 57
0.04666282255750909 0.3810137546511463 -1.0497870896268695 116 85 57
0.048541120285620146 0.38353217288539615 -1.05118012869823 113 82 53
0.048116713215781426 0.38317683677827297 -1.0547088313129163 109 78 50
0.04809379735985343 0.3833225971670555 -1.0578658717935747 103 72 44
0.04684191620179641 0.3819353358292358 -1.0621755971747318 97 66 40
0.04539675526100484 0.38030743699565656 -1.0666749027683387 97 66 43
0.04371735277337688 0.3783879036181125 -1.0714039884290494 91 63 42
0.04268856103595464 0.3772802587639872 -1.0755284421276419 81 54 37
0.04180832753410507 0.3763582191230693 -1.079518817345797 71 45 31
0.040983765820136575 0.3755059152775947 -1.0834621978409371 68 41 30
0.04091823663041255 0.3756000939854702 -1.0866875244596177 64 38 25
0.04227434761713268 0.37746627736728744 -1.088554967501147 63 37 23
0.04390100933194527 0.3796692782270385 -1.0901566066101214 69 45 31
0.04618365485101128 0.3826892556914434 -1.0911195413823658 78 51 39
0.047712404500983546 0.3847692900334151 -1.092798084803687 68 38 26
0.04909336151036807 0.3866647995890051 -1.0946122442125532 67 35 20
0.04998650609352544 0.3879523137064846 -1.0968930367953866 78 45 28
0.05324771511427792 0.3921889806235901 -1.0968665863910232 80 47 28
0.051911587715197216 0.3906995440302467 -1.1013077401331417 82 47 25
0.04655471679302596 0.3842040737509411 -1.109690494223653 88 53 29
0.047118043664496234 0.3850810443940813 -1.1122963504927126 95 61 34
0.046864960462108446 0.38494158534314327 -1.1157033216678127 96 62 35
0.04647302954477961 0.38462944002908384 -1.1192497585034793 101 67 40
0.046093731062482726 0.3843331978340969 -1.1227869603795357 106 72 47
0.04526435441817819 0.38347705541204813 -1.1267738406049712 109 75 50
0.045366241808743185 0.38377995195405246 -1.129840001348688 111 80 54
0.04613392740292732 0.3849111937789832 -1.1322425359873116 110 80 54
0.045495466845627414 0.38429309920196864 -1.1360485066529926 106 76 51
0.04498125690400287 0.38382980344140616 -1.1397344775756668 103 75 49
0.045050017987547014 0.3840917288173475 -1.1428380187850224 95 71 47
0.044779760364148824 0.38393213189618164 -1.1462842203029597 84 65 47
0.045820113354195335 0.3854021937651645 -1.1484074954187595 98 82 67
0.04802714970564868 0.3883223827581415 -1.1493429172514875 124 114 102
0.049850697609650954 0.3907652705636021 -1.15065718839419 152 148 139
0.05098224191230817 0.3923475923781372 -1.1526680835993637 173 169 165
0.05104499803074748 0.3926014348444754 -1.1557666053746363 182 181 183
0.022014144169529015 0.28435937228740177 0.02753825726873308 182 183 181
0.020477677748979767 0.2825126102637544 0.024715756261870964 181 182 183
0.021832370454972425 0.28475157003051443 0.01616772015048561 183 182 184
0.022148677245202364 0.28532140835075637 0.013321266556724588 184 183 183
0.020730645069437753 0.28363031072650513 0.010475749544302918 184 183 183
0.020713646004947142 0.2837658589724351 0.007625547540175932 184 182 183
0.021412241981901364 0.28483412749899883 0.0047776832581247555 183 181 184
0.02220914955986851 0.2860303794515261 0.001932991957348966 184 182 184
0.027446576522747373 0.2934839534345252 -0.00938164147084758 182 180 182
0.027591023566561165 0.29382926038005874 -0.012219148669089103 183 182 184
0.028201272134610114 0.2947812378456843 -0.015046746549299703 181 181 181
0.02788421678456171 0.29452550985294257 -0.017894727579389834 181 181 180
-0.002304672731475943 0.2584484420231975 -0.0771217252732638 98 69 55
-0.0010131587702680162 0.2604513201395931 -0.08289160375190097 96 69 52
0.0025655802438608877 0.2652629342337115 -0.08553689848217566 94 66 50
0.002096770152911917 0.264815838860029 -0.08850163023581133 93 66 49
-0.0006026165117253846 0.26147169718734176 -0.09166033773063799 97 71 53
-0.003925839277437365 0.2573181478485835 -0.09488817338025476 96 69 53
-0.0024056989461755246 0.2594551326228882 -0.09769539414440881 88 59 45
0.0013702811435806067 0.2645208745990533 -0.10028655111643475 92 65 54
0.01002571138362103 0.27592074650220566 -0.10239479205675595 101 74 62
0.015170064249457174 0.28276027335505455 -0.10480475734555492 107 79 66
0.027846398779325654 0.2993753447096785 -0.106434958819402 107 78 65
0.03082851811768636 0.3034047459063554 -0.1089996579199208 106 76 65
0.03586227319384652 0.31009595210504387 -0.1113347052023281 107 77 63
0.046844261597543194 0.3254438347896582 -0.12998138409462706 97 55 30
0.04225453446055327 0.31964914559365826 -0.13338768925661892 90 48 26
0.04709231155496221 0.32607896425881455 -0.13561591549073188 89 51 28
0.04436252667747016 0.3226968488622265 -0.1388045039726536 85 51 29
0.043902402793809484 0.3222576326421972 -0.1417069902466008 81 50 32
0.045014077163014476 0.3238558577618701 -0.14440065232542582 80 53 39
0.04680613243091589 0.32633560220009517 -0.14699626750348388 78 56 45
0.0359386449782033 0.3124098981564929 -0.15135451108541834 76 56 45
0.0325993821763093 0.3082417289210254 -0.15469602162879917 75 55 46
0.02809124210285026 0.30335955083405985 -0.17267165173266363 72 52 43
0.027257678945535185 0.30244032397786047 -0.1756971180374779 73 53 44
0.02944208199390616 0.30542851136165705 -0.17823812521662236 74 54 46
0.030553383711598492 0.3070270349722297 -0.18094596128452256 75 55 48
0.03250828948318632 0.3097172232104335 -0.18350817640182845 76 56 49
0.03214052561916178 0.30940090085123406 -0.18645572401594424 76 56 49
0.03151233998594051 0.3087477276716865 -0.1894508925469771 76 54 46
0.02636451039862582 0.3022466528851845 -0.19323955511933652 75 53 45
0.023346532856962324 0.29850264787334924 -0.1966775154275099 75 53 45
0.020503484311407624 0.29498582702367626 -0.20010005505743952 76 54 46
0.015825769060248504 0.28909666281155005 -0.20387190227372154 77 55 46
0.010420450898404404 0.2822677735142789 -0.20780239109188278 77 55 46
0.019345710240883954 0.2939733862136856 -0.2090791393997873 77 55 46
0.019148263145996575 0.2938799477220844 -0.2120422103626705 76 56 45
0.016915779120343102 0.2911553770166944 -0.21539821183049346 76 56 45
0.011755325548138892 0.28464610685434377 -0.2193361768919618 78 58 47
0.009083398017384628 0.2813552170077196 -0.22281036200854884 77 57 46
0.006776010076828293 0.2785363074145968 -0.22622610885487016 79 56 47
0.0031979942373884657 0.2740759102163761 -0.229911188644158 80 57 48
0.0034961321609656287 0.27462562504368626 -0.23282200681672857 80 57 48
0.0035132174468725658 0.27481215253559443 -0.23579052832233688 79 57 45
0.003307931505788536 0.2747114258730731 -0.23880656199273587 79 57 43
0.0027551342897797343 0.2741618737717479 -0.2418983240961502 82 60 47
0.002317819516271649 0.2737617007605014 -0.244969053064947 82 60 47
0.0013638020391166933 0.2726943379433081 -0.24815515393620544 80 58 44
-0.0004832399597146514 0.27047400084054085 -0.2515431694525809 86 63 49
-0.0017954171761911525 0.26894490585277786 -0.25482261243851356 87 64 50
-0.002769219914086185 0.2678531284149729 -0.2580336073334929 88 64 48
-0.004490858429363323 0.26579619751279115 -0.2614203619337657 87 62 46
-0.005943778284798279 0.2640866862177992 -0.2647550309721497 89 64 46
-0.006944573203615259 0.2629612149434941 -0.26799301133875353 87 62 44
-0.007812745922587225 0.2620072408894857 -0.27120588760428566 87 61 45
-0.008159708478584674 0.26172617182654184 -0.2743004870010509 86 60 44
-0.011323943250480806 0.257810027897037 -0.2780731884186091 93 67 52
-0.011311555584966021 0.25799328657888765 -0.2810933074107067 93 67 52
-0.01489905167107268 0.25353254065380715 -0.2849954344295159 91 64 51
-0.015074142540073845 0.25347457241426313 -0.28807284508705366 100 73 59
-0.016653866636132608 0.25160504216657353 -0.2915029926129325 100 72 59
-0.017189794025310387 0.2510821293469377 -0.29467875225771323 92 65 52
-0.016344807051043853 0.25234011134442486 -0.29750634230280054 95 68 51
-0.015150608213380962 0.25404817390303175 -0.30024082230034377 98 71 55
-0.015925128136549588 0.25321784446649054 -0.3034818709225189 85 57 44
-0.017598446962945213 0.25122916117045724 -0.3069636525555335 88 60 46
-0.018537115980490723 0.250356760737122 -0.31331163430952713 88 56 40
-0.017068838764732197 0.2524177708458326 -0.31596766104689133 90 58 40
-0.016318763857813598 0.2535530061189373 -0.31881297379984835 96 64 44
-0.009083869166833194 0.26304302804026053 -0.31987228003848756 103 72 50
-0.02525437653066026 0.24305977338291196 -0.33969103600930056 114 103 97
-0.04793653938136216 0.21489390678574943 -0.3650396829526801 141 138 138
-0.04413917539445843 0.2199537979215519 -0.3670213064628144 93 84 81
-0.04203581912212253 0.2228332317018458 -0.3695062698186781 84 71 67
-0.041072436256605394 0.22424564378398226 -0.3723354721478201 82 67 62
-0.038450303562489394 0.22779146571478792 -0.3746417198693644 92 75 68
-0.03639378022289398 0.23060915427016798 -0.3771141441114452 91 73 64
-0.03396063292093661 0.23391066204023614 -0.3794573897476275 93 74 64
-0.03208219935921558 0.2364982580799302 -0.3819671394389641 94 74 63
-0.030163476803012443 0.23913718386536975 -0.3844553649225181 92 73 63
-0.030149137899469117 0.23932738796431496 -0.387555035705943 93 74 65
-0.029906701866982924 0.23981085055166257 -0.3905808091685335 96 77 67
-0.02518989268645741 0.24604521239866933 -0.3921265577504416 91 71 61
-0.019183018103893237 0.2539362427903835 -0.3932193954746724 90 66 54
-0.014275285608721822 0.26041322133444567 -0.39465181207551747 89 63 52
-0.006622900759963357 0.2704154156474444 -0.3951315699804403 90 64 51
-0.004374239987812681 0.27347314955268565 -0.39741558726013143 93 67 53
-0.0010599127087374538 0.27789925625645295 -0.39932315234488147 90 62 48
0.008412677929920384 0.2904013395723579 -0.40209937910524013 89 61 46
0.019877621037180715 0.30595289433880446 -0.4130487881062134 114 85 69
0.020927060567537834 0.30746537528821727 -0.4156590479026386 96 68 48
0.01931204843650762 0.3055582578502054 -0.41924126373791404 89 54 35
0.019088867932843645 0.30543762777969274 -0.4223191770401572 81 43 19
0.020450731864079502 0.30735079482235017 -0.42481033229598003 89 49 24
0.02458577281714186 0.3128213420253242 -0.426258097694715 101 64 38
0.024366676938977427 0.31270546612891104 -0.4293256997797443 104 72 45
0.02335591566057811 0.3115743037775546 -0.43269562963618574 105 74 50
0.02237363990180795 0.31048001504738154 -0.43606085880830164 104 77 59
-0.05385703426284354 0.2304759997550163 -0.7861327998492572 104 89 83
-0.04996148846501601 0.23559826100614528 -0.7869285032414838 99 82 75
-0.046489057206470744 0.24018296668285113 -0.7879775216394095 96 78 69
-0.033625967749695077 0.25739098047887293 -0.7959239028473716 89 64 49
-0.03109262986373438 0.2607807326550326 -0.7975015191444386 89 63 48
-0.03075424346741834 0.26138903149299797 -0.8005228714078442 90 63 48
-0.03115297739188974 0.2610635472837316 -0.80403447870222 90 63 47
-0.014496035916903259 0.2835836232855903 -0.8186026173795108 84 57 42
-0.017000339393556156 0.2805923890119022 -0.823543231233235 86 58 43
-0.0093088194998929 0.2905024688903673 -0.8214362381381342 86 58 44
-0.0083665970222307 0.29204866634644144 -0.8271818213388573 88 60 44
-0.0019221573680603399 0.30214174901388524 -0.8577627259736973 107 69 39
0.004503586124489922 0.3104355954012763 -0.8562671752740866 108 72 41
0.005835589489937759 0.31229391582900484 -0.8584706073594199 109 74 45
0.0038203867761103516 0.3099246873196837 -0.8631295422093315 108 76 50
-0.0012219843857483592 0.30391048490915595 -0.8732327226764985 106 78 58
-0.001894539574881747 0.303238424530756 -0.8769318733684054 106 81 63
0.003606427587471775 0.3103595523403361 -0.8760294620333229 105 82 68
0.003619305004214493 0.3105522257206412 -0.8792081910816298 105 81 69
0.0022178957017087025 0.3089601010291808 -0.8834507828651288 104 80 67
0.0038267064836912806 0.3113435253015725 -0.8886227835614076 95 72 58
0.0017476232053463547 0.30889724216133013 -0.8933941313704336 90 66 50
-0.0010344721735734905 0.3057423165733795 -0.9019210446214633 89 66 50
-0.004277258816650767 0.30183029173879566 -0.907618829800732 90 67 51
-0.006235036981208392 0.29953965874044175 -0.9123452997764332 95 72 56
-0.006331906518240379 0.29959595433210623 -0.9156449045306649 95 74 58
-0.008204292344357725 0.29741398548123765 -0.920323422452854 97 74 58
-0.00823193863666153 0.2975579839509806 -0.9235771853083794 102 74 57
-0.010517225588530632 0.29485656713281666 -0.9285956476080457 102 75 56
-0.011667894927266755 0.2935857735908579 -0.9327382355031404 101 75 54
-0.008999338926604684 0.29712792023139695 -0.9338843523142064 102 75 53
-0.007648663477872769 0.29900889163402367 -0.9360572425409038 101 71 50
-0.000801468316863535 0.3078139425252706 -0.9338713201172594 96 66 40
0.0024027182832190297 0.31202815361331115 -0.9345442313080466 92 61 39
0.0016805654017407953 0.31165209111247716 -0.9447613370092952 86 59 41
0.008183390231257984 0.3209033322979542 -0.9587524300003258 84 60 46
0.01025590306419856 0.3236882138911808 -0.9602552421570146 83 59 47
0.007392224889550075 0.32026287193339775 -0.965817068968978 83 59 47
0.006755395906214115 0.3196394629179622 -0.9695537869475078 83 59 47
0.01509687051440639 0.3308381329911515 -0.9754224122122115 85 62 51
0.016787582746219595 0.33331684298097675 -0.9803869209770059 87 67 56
0.0257271390368225 0.3447285795767855 -0.9760157273287946 88 68 57
0.03265951611062519 0.3536153963131939 -0.9733006873708869 88 67 56
0.05005914465323434 0.3778902676646115 -1.0020852709048738 83 45 20
0.05348917602261828 0.38253750760039373 -1.0052633668286461 81 39 13
0.05138242212683418 0.38006767316692386 -1.010260986124486 80 39 14
0.04990842064742984 0.37839195590635444 -1.0147030741649752 81 41 15
0.05097831988202259 0.37990620329879443 -1.0168632383252476 83 42 16
0.050324789626455035 0.37925966852289916 -1.020575486264883 84 43 16
0.05119372246554822 0.38052174417064966 -1.0229129073079155 88 47 18
0.05072770860205342 0.38011051102351096 -1.0264598860711647 90 52 22
0.04842391983571659 0.3773964516304984 -1.0316857568715418 95 58 29
0.05023846661092313 0.3798434628143777 -1.0331599080186296 100 64 35
0.05037670737098357 0.3801898110796222 -1.0361624513908712 104 69 40
0.050068526400487784 0.37997694236077123 -1.0395759363848303 108 75 46
0.04991489049662069 0.3799578032224923 -1.0428496231983475 115 82 54
0.04976130710303084 0.37993883656068883 -1.0461251900003643 115 82 53
0.04960743040980743 0.3799196093664612 -1.049402958282488 115 82 55
0.04945367557580295 0.3799006416485841 -1.052682545044747 114 83 54
0.04935715653932496 0.3799534369672121 -1.0559106330589398 110 79 51
0.05210999605887448 0.3835731311954147 -1.0564725630285479 105 74 46
0.050980861572504546 0.3823332076572804 -1.0606657031749367 95 65 37
0.05262948055678751 0.38457001709235306 -1.0622501281570664 98 68 41
0.0482843759174164 0.3793062154618037 -1.0694877887737706 92 65 41
0.046051747815286356 0.37668689627133184 -1.07474935603218 82 58 39
0.04409162839031071 0.37440923504197493 -1.07976541882488 75 51 38
0.04476591121903384 0.3754275532502732 -1.082283354633583 67 41 30
0.045561624981003176 0.3765976035768621 -1.0846826393874132 62 36 24
0.046681192887329276 0.37817247581722924 -1.0867682859818668 65 39 25
0.04817856205177844 0.3802194783315802 -1.0884857676282729 67 43 30
0.051191773086770656 0.3841612959431535 -1.0887350971503333 65 38 25
0.05218240385069782 0.38557379158134614 -1.0909238633588365 64 35 23
0.05271211702895212 0.3864099144765448 -1.0935550362938984 64 32 19
0.056850061691176276 0.3917555460297587 -1.0926768378187204 74 41 24
0.05694037871139175 0.39221527354109753 -1.098857500253588 79 44 21
0.04981356682592902 0.38348488381493784 -1.108980369504555 87 51 26
0.04953048339445543 0.38330592124624996 -1.1124153428622716 92 56 32
0.04941296940368527 0.3833339100935417 -1.1156897428737367 95 60 35
0.04929542752446715 0.383361960888992 -1.1189659194884094 96 60 35
0.04917778893518099 0.3833899877555585 -1.1222439420837658 98 63 37
0.04881731518622072 0.38311491058114894 -1.1257651472712367 103 70 43
0.0485760426158329 0.3829888196484046 -1.1291706080492465 108 76 49
0.04955907315575751 0.38439113793830226 -1.1313545001249896 108 78 52
0.050497631866575424 0.3857377091816441 -1.133578629566687 100 70 44
0.048533219896355645 0.3834612209494278 -1.1387170216147862 101 72 46
0.04909056589811825 0.38433209848090955 -1.1413252873141726 97 72 47
0.04901638987714331 0.38441493667624593 -1.1445699393196678 82 62 40
0.04945271876191108 0.3851347205707723 -1.1472986458153913 91 74 58
0.050501570097442605 0.38661846751253826 -1.1494034641562938 112 101 90
0.05289073064842617 0.38977359526296707 -1.1501375430090095 146 139 131
0.05417419609371149 0.3915491896278213 -1.1519894257207706 168 164 159
0.0679029091821449 0.4093611685613615 -1.1504574050494796 193 192 190
0.021370202731341728 0.27862403689758064 0.030351029080638147 182 173 171
0.020334494566634456 0.27742565025510785 0.02751845122911955 175 163 158
0.02241623284440042 0.2803062516940548 0.024641538498109468 167 153 146
0.020886658395200833 0.2784620294592377 0.021809477744529217 158 142 133
0.021126569064085388 0.2789328705690366 0.018955880074071382 144 125 114
0.02160484397600307 0.2797154625725088 0.016101328829799894 137 117 105
0.022721412833070248 0.2813327362207173 0.013246544147819492 132 115 101
0.02280212759228173 0.281595213864469 0.010396397379615917 132 115 103
0.023125760352608243 0.2821753432474979 0.007546276008826409 134 115 104
0.023343431537717424 0.2826169034913061 0.0046962975500734055 135 116 106
0.023763075224982416 0.2833224870024734 0.0018479037179361252 136 118 107
0.021948537237565985 0.28110765455546594 -0.001020916900928412 143 124 115
0.021097195710667788 0.28015225008293543 -0.003887894422700003 148 130 122
0.019716437805232467 0.2785052552602493 -0.00676765892963558 148 136 128
0.023901253381650625 0.28413133688591136 -0.00956064434319645 152 140 135
0.024070994739033735 0.28451030099453994 -0.01241206817455369 156 145 140
0.024076959079198004 0.2846753040348325 -0.015267177065328097 163 153 148
0.023686291937742285 0.28432223039277704 -0.018132834035031367 168 160 155
0.023383791992949585 0.2840844759925361 -0.020998979450360215 173 166 164
0.02360366589302923 0.2845290998498198 -0.023852285528945597 177 173 170
0.02322187018428322 0.2841879879147956 -0.02672449758617064 181 177 175
0.02317692605786574 0.28428688395161505 -0.02958802901296914 183 181 179
0.02368985552038498 0.28511422751827736 -0.032432324965186866 181 180 180
-0.003685246493865091 0.25147338659970603 -0.07159597846567936 100 77 69
-0.00010794616383925926 0.25629929711050525 -0.07428452844233946 97 70 56
0.0028683367656074377 0.26066329973483443 -0.08285780499561664 96 69 52
0.008273478585686778 0.2678686475397006 -0.08535111036827506 96 69 52
0.007480554163639588 0.26699606126523867 -0.0883348454649352 90 63 46
0.0059562137324862124 0.2651707556858205 -0.09138616249550854 91 65 48
0.003995230268772271 0.26277705904178666 -0.09448447760047983 96 69 54
0.004676795250021709 0.2638262990853595 -0.09735382344247709 81 52 38
0.003946011509785699 0.2630357841748571 -0.10035231938823075 90 63 51
0.0153568283830232 0.27805863563364813 -0.10219448151434096 98 70 58
0.02402726460459613 0.289509760421345 -0.10425000953898073 108 79 66
0.038711217622891245 0.30894582307323926 -0.10850907045663369 103 74 62
0.04576865984112655 0.3182905132766967 -0.11061556804800712 108 78 64
0.0448360276780921 0.3181708429170734 -0.13059162027540314 93 49 24
0.04403907265975787 0.31729075868041096 -0.13353490297285012 88 47 24
0.05207323592838557 0.3278968652530347 -0.13535446901623394 83 46 25
0.050214149072629416 0.32563482931074056 -0.1384239977780068 80 46 27
0.047647431000409746 0.32245318759317504 -0.14159763569406328 77 47 33
0.04871775908709461 0.32400121973574014 -0.14429305944666004 78 53 40
0.04260230538562104 0.3162069745160457 -0.1479737993841168 76 54 43
0.040271402769193235 0.31333412663338056 -0.15115521750401906 74 54 43
0.037731217079347235 0.3101899427605366 -0.1543790296882246 74 54 45
0.034155619726363426 0.3057008214437399 -0.15776674596968007 74 54 45
0.0356982464495077 0.3084976194864024 -0.17192522921718842 72 52 43
0.028635540413300506 0.29948283652877883 -0.17593546649000785 72 52 43
0.025396621025243524 0.29543600434316847 -0.17936005550396594 72 52 44
0.034526896140865126 0.3074523162564886 -0.18075950745003058 73 53 46
0.034864698036639635 0.3080497836560296 -0.18358801013217738 75 55 48
0.035156343479169475 0.3085872863056478 -0.1864236323411963 75 55 48
0.033247388100822894 0.3062680450846233 -0.1896385572462653 77 54 46
0.03159220243147115 0.30427877815986026 -0.19281953512563393 75 52 44
0.028616230874261794 0.30057580019058927 -0.19624428678369654 75 52 44
0.02425130262900048 0.29507118839823304 -0.1999349908216971 75 52 44
0.02176776488063445 0.29200912819226943 -0.20330496324610553 76 53 45
0.017710232749527377 0.28690560183585145 -0.206979632533845 76 53 45
0.016074872222961015 0.2849455958414168 -0.2102212067885992 75 52 44
0.008705164922001823 0.2755475577124181 -0.21456193174986457 75 55 44
0.007248738791784393 0.27382143705422035 -0.217801703108886 76 56 45
0.006213731930792513 0.27264231641750625 -0.22096753148204162 77 57 46
0.007577019582123534 0.2745735868178914 -0.22366564279465118 76 56 45
0.006145719369538491 0.2728809652578986 -0.22691709304787894 76 54 43
0.00642025351994556 0.27340040779618646 -0.22983109393169035 77 55 44
0.009921360756693462 0.27810263715175887 -0.2320829095626733 80 58 47
0.006933519457603496 0.27439282021576017 -0.2356653526617568 79 57 44
0.006708353675959622 0.2742645486370635 -0.2386832648138145 75 53 40
0.007681151950861206 0.2756888929287792 -0.24144856760354566 80 58 45
0.006018467964946608 0.27369793816060134 -0.24477697191737338 82 60 47
0.004369697937638001 0.27172552520557647 -0.24811168100847633 80 58 44
0.003569766555017076 0.27085332152824637 -0.25126877612009896 82 59 45
0.0022388749229295263 0.2692935901875142 -0.25454911013889336 82 59 45
0.0016941704598555374 0.26875259602217805 -0.2576600840878318 89 64 49
0.00026760258740927967 0.26706968961403477 -0.2609755889616378 94 68 51
0.0004750903415340485 0.2675033023485902 -0.26392307676163007 93 68 50
-0.00022660477228916842 0.26675966459258976 -0.2670821096108545 88 63 44
-0.0017335163590867092 0.2649737598344043 -0.27043509281066286 88 62 47
-0.0017202540658690924 0.2651562906306814 -0.27343521572316903 87 61 46
-0.004486726737417929 0.26174071202110505 -0.27710418822356947 86 60 45
-0.006891540418167946 0.25879404625498115 -0.2807002837979336 86 59 44
-0.008719761416990865 0.25659429931651134 -0.2841680487648742 88 59 45
-0.010788351609308064 0.2540840749943975 -0.28770560588028976 90 61 47
-0.010846750171551622 0.2541754086009967 -0.29075132490513655 86 57 43
-0.010838945991126628 0.2543524625105815 -0.29378160457471625 99 71 58
-0.010665416631322297 0.2547439506992587 -0.2967705258136545 99 72 54
-0.015564684211545263 0.24857401639603216 -0.3010680065241001 97 70 53
-0.01610482223056156 0.24804322758864983 -0.30425587807581317 82 54 40
-0.009593279287215123 0.2566317094314756 -0.30559304023131284 80 51 37
-0.015176148705675643 0.2497478073767176 -0.3131587105706364 89 57 42
-0.013948632760690333 0.25150263830807995 -0.31587685789325687 90 57 40
-0.009440961426077726 0.2574971756138654 -0.3176940344008263 91 58 40
-0.007509426779431921 0.26016090782389273 -0.32019945441085634 98 66 45
-0.007516354575557979 0.2603190035270575 -0.32323529429901815 100 68 46
-0.01280930245902176 0.2536465544799373 -0.32775586768750903 101 72 49
-0.015760204838646832 0.2503384939065641 -0.33775766658996337 88 70 59
-0.02727107393715246 0.2356390346409289 -0.34416508501428933 132 121 114
-0.03256778367050528 0.2289684558624562 -0.3488089677257855 138 130 126
-0.03993532440328986 0.21962521635026347 -0.3540934815556261 143 135 132
-0.04292653214525845 0.21593492039536305 -0.35811041267652866 156 150 145
-0.04350675100442324 0.2153583086461533 -0.36141795261974075 139 134 130
-0.03942087432704763 0.220805588830396 -0.3633133179561846 101 94 88
-0.035884504763143824 0.22554247731097715 -0.36535714671217123 89 79 72
-0.033010871526211086 0.22942306315062932 -0.3675885577197872 82 69 62
-0.03407403346268502 0.2282223685680403 -0.3710312306755588 87 70 63
-0.0315817063050958 0.2316099794852675 -0.3733651142458589 88 67 59
-0.029019920664974844 0.23508656815770257 -0.3756653978035894 87 66 57
-0.026448871511872765 0.23857444723661558 -0.3779507327119835 86 65 55
-0.02496590228935959 0.24065807783588808 -0.3805736157985838 89 67 55
-0.022932916883991142 0.24345077424746875 -0.38301186473110277 90 68 55
-0.0251426268173109 0.24077121848839064 -0.38682556558390163 90 67 54
-0.02349339994922159 0.2430686097593086 -0.3893822105193087 87 65 52
-0.018013709834490785 0.25030461016279526 -0.3906617436395551 85 63 50
-0.013846354760391935 0.25584718338204965 -0.39235273989761416 90 66 54
-0.009434302157872165 0.2617040884257934 -0.3939411522352871 92 66 54
-0.0032143905723027444 0.2698901099672269 -0.39489497501562343 85 59 46
-0.0003499849609476108 0.2737497218864464 -0.396964611949086 88 61 47
0.0030836636734039025 0.2783421693215744 -0.39882468967920875 92 63 49
0.003965710428352046 0.2796458120327061 -0.40155312707043006 92 63 49
0.019652421347620172 0.30068363723841235 -0.4110882084650983 102 74 60
0.020028961142196988 0.3013335869816063 -0.41394988383402315 111 83 66
0.02316690949435335 0.30553900869520323 -0.4158035771898427 98 70 50
0.022235212965098644 0.30450419845634963 -0.4191367858200833 91 57 37
0.02227754715626082 0.3047235698716312 -0.42211556098944997 88 50 26
0.0249036016747632 0.3082686273135499 -0.42413301380628937 91 51 26
0.028225291424491622 0.3127082895484713 -0.4258771915224069 98 60 34
0.02736335986512413 0.311763290411598 -0.4291846563484761 99 66 39
0.0239709651392873 0.3075625686724397 -0.4334592805248301 103 72 49
0.027266459445672853 0.3119674183984076 -0.43519332602290756 107 80 61
-0.0517402270195747 0.2272732163599714 -0.7733549790915427 114 104 100
-0.04716176396622108 0.23328209332659167 -0.7737513269544048 108 96 90
-0.04971404109217337 0.2302147025141533 -0.778657007074384 106 92 84
-0.04589927944701078 0.23525025140997163 -0.7795134037454815 100 83 75
-0.04233546466915106 0.23996545151013876 -0.7805115233388238 94 76 67
-0.03115835961659534 0.2552595230355718 -0.7928300640097611 86 59 45
-0.02565824975499347 0.26243104177132354 -0.7924535340546937 87 59 45
-0.02641363398852458 0.261649053913812 -0.7961911447525277 88 60 46
-0.024791157792114417 0.26388972563271296 -0.7983529716473025 88 61 47
-0.022485574296024907 0.26699814552471873 -0.8000512891274623 88 61 45
-0.031003588874300603 0.25635179871471225 -0.8089920811233594 88 61 44
-0.018039556809528096 0.27353580160053936 -0.8131967450974749 86 57 43
-0.011498658894132693 0.2820205090709516 -0.8119520098748362 85 56 42
-0.008678867386569526 0.285778014539646 -0.813226765642084 85 56 42
-0.005662321760064037 0.2897845759328199 -0.81435203596403 87 59 45
-0.005172274840579721 0.29058271527488594 -0.8172093769466143 89 61 47
-0.004545560662049572 0.291554260786275 -0.8199703227497462 88 60 46
9.904811546888881e-05 0.2997333250338615 -0.8582103383300838 107 68 38
0.0083753149037048 0.31039845807760874 -0.8553521120610251 109 71 40
0.010222402582780232 0.31291400571023753 -0.8571717953682784 110 75 46
0.008406783907387985 0.3107881455551791 -0.8616821821251662 109 76 49
0.004178046957937408 0.30560563895574866 -0.8679884425145322 108 77 52
0.004214506993629165 0.30582750383176777 -0.871152011383052 107 78 57
0.005303596505345627 0.30738271082592805 -0.8735321704073474 105 78 59
0.011253827409880714 0.31509420586019643 -0.8722724828632384 104 78 62
0.010572570948168027 0.3144063184154004 -0.8759586374499155 103 78 64
0.008836795724799396 0.3123834758321932 -0.8804437759313216 103 80 66
0.009204827001301367 0.3130247067326033 -0.8833491735727709 102 79 65
0.009000077449012753 0.31294081138217933 -0.8866881657310861 96 73 58
0.008083732059572399 0.3119563407343474 -0.8905710530092976 93 68 52
0.006028296615025852 0.3095305779302442 -0.8953301687727748 92 66 49
0.004411746421068535 0.30766087057371777 -0.8997649975665487 88 63 47
0.0028239920948875466 0.30582813903946215 -0.9041874897173526 86 62 45
0.0008015443970717656 0.30344598851145876 -0.9089552442889685 89 65 50
-0.001414613081202526 0.3008194570124322 -0.9138850887403807 93 71 55
-0.0027258877280900845 0.2993381864674342 -0.9181245227762638 96 71 55
-0.00673815226212536 0.29444142051634636 -0.924479261375471 100 72 55
-0.006183033492715546 0.29532160696137455 -0.9272813089991967 101 73 54
-0.005688218016310746 0.29612544181162404 -0.93012884035462 101 74 53
-0.0033151896004007878 0.2993037313211033 -0.9314943398825547 105 77 56
-0.000988446677668696 0.3024228657509304 -0.9328847286635499 104 75 55
0.0020616196752639634 0.3064556183852509 -0.9336895818016645 97 66 41
0.005371042584197419 0.3108153003320864 -0.9342725009564399 91 60 38
0.005516985025026261 0.3113533071018978 -0.9405776427355705 86 56 39
0.008197326740604388 0.3149164198997516 -0.9416337238103359 84 57 39
0.007685235324218637 0.3144460740299291 -0.9452532593035432 83 57 41
0.004172089065240081 0.3101854212721231 -0.9513072065544637 86 61 47
0.011379648718142343 0.31999410895785574 -0.9582755474459317 84 60 47
0.012286640926676931 0.3213154434044653 -0.9607328588790466 84 60 48
0.0119475339023256 0.3210637831006074 -0.9642158449360781 82 58 46
0.010196673787533042 0.31903062929553294 -0.9688719703027584 82 58 46
0.017401309185016478 0.32829870406722433 -0.9660912360908668 82 60 47
0.03390350162915738 0.3499893510719183 -0.968115537020867 87 67 56
0.03499218508162037 0.35153574090395256 -0.9703452038467539 88 68 57
0.03974830123576309 0.3577058287671818 -0.969450277412038 89 69 58
0.036714232136889055 0.35422706639076723 -0.9783269802198549 88 68 57
0.0470473644189216 0.3686287173135673 -0.9944813975018082 97 74 61
0.04537851241345041 0.3666996960163229 -0.9990811144947614 98 73 58
0.04319603385127399 0.36412457438912504 -1.0041448015485048 86 58 44
0.047962460144067964 0.37098776152467844 -1.0155929723056336 76 35 10
0.05202701815970054 0.3762740346258684 -1.0150704591286637 75 35 10
0.05193533671707955 0.37633076696111645 -1.0182782050167085 78 36 11
0.054577468486005934 0.3798261947948374 -1.0190124672998053 78 35 10
0.054836836237599634 0.3803241876975486 -1.0218970967507013 84 42 14
0.052616618731734274 0.3777040727507951 -1.0270399009464124 91 52 23
0.05338434662531881 0.3788415911199179 -1.0294662230943552 92 55 26
0.05420437843642477 0.3800446935478272 -1.0318414838992835 96 60 32
0.05412974748164642 0.3801229713117808 -1.0350355949515677 98 63 34
0.053718073344670006 0.3797777021417691 -1.0385418997366107 100 66 36
0.05355669258335699 0.37974717302606686 -1.0418201366007076 106 72 44
0.053162518062711106 0.3794242248802019 -1.045316226241872 108 75 46
0.05291508121731357 0.3792858238183827 -1.0486790935143229 109 76 48
0.05259382093103408 0.37905481381018935 -1.0521132769814832 108 77 48
0.052906688436375235 0.3796205153552904 -1.054957031000446 108 77 49
0.05552852473265464 0.38308622299776146 -1.0556335259534049 106 75 47
0.05517097280734612 0.38280956615218503 -1.059100584810721 100 69 41
0.05526786235346598 0.3831037136328897 -1.062141772013664 99 69 41
0.053831007446033044 0.3814722228770283 -1.0666353909263881 95 67 41
0.052289522183879625 0.37970987753103247 -1.0712373615894926 83 59 40
0.05044867816517472 0.3775722965339322 -1.076133963930214 74 51 38
0.04854066343379035 0.3753510308837722 -1.0811059655115711 64 40 28
0.048283709151283466 0.37520236514010086 -1.0845084410328258 51 27 19
0.05068666721780542 0.37839142757265504 -1.085358784389942 39 16 9
0.051681346833674854 0.3798129619638232 -1.0875533847564691 41 17 9
0.05305953684114274 0.38171535617953223 -1.0893731289389876 54 26 15
0.05478550845200643 0.3840536196493618 -1.0908494439537897 60 32 18
0.055486241884165136 0.3851055995397222 -1.0933133105915673 68 39 23
0.057797618275785875 0.3881771931901176 -1.0942052178236772 69 37 23
0.059832093715974796 0.39090094731710767 -1.0953559606240175 74 40 22
0.06139206523604021 0.3930292518397004 -1.0969614433151 78 43 22
0.05342784473753889 0.3832180380154679 -1.1079174899063857 87 51 27
0.05292693445955429 0.3827638489799964 -1.1115649175097453 91 55 30
0.05374121194584876 0.3839581327017636 -1.113916676353906 95 59 34
0.052375176063686135 0.3824200831301158 -1.1184254472115123 100 64 38
0.05166029444924285 0.3816983717711422 -1.1222958756715982 102 67 40
0.05208327367460079 0.38240244243869204 -1.125037576340311 104 71 44
0.05267550493977573 0.383318456257769 -1.1276089141823544 104 73 45
0.05234283496991399 0.383075923721765 -1.1311048008856734 108 77 49
0.051936362881195464 0.3827411288730307 -1.1346777929019805 104 74 47
0.0501521973245148 0.3806813987841633 -1.1396422294841275 101 71 45
0.0492932098410232 0.3797806237858635 -1.143682965843535 101 73 49
0.04799762817042032 0.37833361194114984 -1.1481719015618561 91 67 44
0.04605321003661032 0.376074895981348 -1.1533282968650678 85 67 48
0.045315163454525687 0.37532669258384543 -1.1572677360657986 102 89 77
0.054997588367800734 0.3876191035181541 -1.1505684087112573 134 126 117
0.055891317750935976 0.3889116550473759 -1.1528179540393306 161 156 151
0.056856561786562676 0.3902934657995657 -1.154990178454153 177 174 175
0.0032978102960631167 0.2480846473979652 0.06820547107613564 182 182 182
0.0029779417701023547 0.24782233823775002 0.06533490689415272 182 182 182
0.0041876073154009374 0.25051936399975944 0.04506986196086846 182 182 183
0.01770212788683101 0.2684250273257054 0.0418157107898325 184 182 181
0.01770747748004696 0.2685886786761796 0.03895677749997825 185 178 173
0.01811448312130509 0.2692797278210945 0.03608809242392534 173 160 152
0.017183036024189288 0.2682135977658481 0.03324666090584108 147 121 110
0.017393124278784575 0.268646223791681 0.030380185330187638 126 94 81
0.01564822248474096 0.2665128549533107 0.02754253959700445 121 86 69
0.015804131357981657 0.2668746276353658 0.02467213480887554 121 87 68
0.014656667732037013 0.26552603840035977 0.021814353479593672 121 87 65
0.014977174430092055 0.26610397906311484 0.018939195943388346 118 83 59
0.015297712453896911 0.2666819266009112 0.016064662924671968 119 83 57
0.015618208579606732 0.26725978492457303 0.013190755142634632 118 84 58
0.015872731315568142 0.26775106965664597 0.01031747603594418 117 84 59
0.01625885564497624 0.26841494604474797 0.007444814763516376 114 79 56
0.024475831431793507 0.2793486428836247 0.004610981755393748 111 76 53
0.030759283147658037 0.2877447027240807 0.0018023219229672885 113 79 54
0.03038675138628917 0.2874118370324148 -0.0010412893303329215 108 73 50
0.03020443250868808 0.2873285029324771 -0.0038853388327681967 100 66 44
0.02959304220039337 0.2866827875843157 -0.006737488640047695 99 67 42
0.028980599105639118 0.2860359074156617 -0.009593583664997789 100 68 47
0.022061685825748217 0.27712361517712175 -0.012576750602904585 97 66 48
0.021768503451174107 0.27689641187296976 -0.01544915611162604 94 63 46
0.021444796614485256 0.27662933990421273 -0.018324685127751775 93 65 49
0.020621345272058958 0.27570761356053014 -0.021216176269918494 92 67 56
0.01972891967019942 0.2746957955449414 -0.02411467266478283 96 73 64
0.019412686572883114 0.27443907356653563 -0.027000176134696824 107 90 83
0.017511029997727356 0.2721058182471011 -0.029942465356050205 127 113 109
0.017776878256719003 0.2726119453298076 -0.03281549521000748 153 142 140
0.019302919870028662 0.2747683803727841 -0.03563882312536479 173 166 165
0.021658436063182462 0.27801061044535247 -0.03842108209380572 184 181 179
0.024581893435982077 0.2819958710149554 -0.04116767794894475 183 180 181
-0.007115821964355132 0.24162500071265142 -0.0632148703520674 97 82 76
-0.011657301821756935 0.23584551783550384 -0.06645837311542552 105 85 79
-0.00858073111128635 0.24003248347811676 -0.06922070260525713 102 81 76
0.0019001326163092525 0.2539032230404092 -0.0714601921402178 100 77 67
-0.004250120284247483 0.24602052180027015 -0.07483245419303855 95 69 53
-0.0012658740623486125 0.25008466678153757 -0.0775634620593888 95 66 48
-0.0008213070915371878 0.25082727778072067 -0.08047397417023489 99 72 55
0.009422854966945435 0.2643820426357989 -0.08261332280996464 94 67 50
0.007348097701166373 0.2618297102036158 -0.08570133700851446 93 66 49
0.0068466863722539545 0.26133459577184237 -0.08866917720783105 82 55 38
0.006357800267603603 0.26085604064771584 -0.09163938325667886 91 65 48
0.007958360430522421 0.26310833033463926 -0.0944281517165948 91 65 49
0.00939975526862663 0.2651522504128456 -0.09722444044250947 76 47 33
0.009430616280816387 0.2653528138102857 -0.10014630770467327 88 61 47
0.020754180488964158 0.28030705839802994 -0.10198627521537719 93 66 53
0.03211791198065504 0.29531075584008015 -0.10376718376859254 103 73 62
0.04802186360249694 0.31779627109517705 -0.13340627794260534 83 43 20
0.05174061515058494 0.32280387898750595 -0.13577208737848168 79 43 22
0.05138416840842963 0.3224941354556109 -0.13865262282250188 73 40 21
0.05354653464175568 0.3254701700393673 -0.14120060872823925 69 40 25
0.05456988049529268 0.3269600428023739 -0.1438932111993567 71 45 33
0.05002784663795479 0.32119152522151967 -0.14735011973672058 73 51 40
0.04732086395797229 0.31781725369404207 -0.15057263028531181 73 52 41
0.0447740790213107 0.3146526527078398 -0.15378664735913142 74 54 45
0.04215101955944432 0.31138935546602264 -0.15702539960309697 74 54 45
0.035462033348590105 0.3028264146810098 -0.16088010766632987 74 54 45
0.03599741793528698 0.30384006055214574 -0.16656326926266005 72 52 43
0.03322209181863367 0.3003811686529553 -0.16987754568346197 72 52 43
0.04051374222470737 0.31004106769458506 -0.17161582981870627 72 52 43
0.031546071825682614 0.29867290679208885 -0.17882519966406035 72 52 44
0.03800184647849457 0.3072413377324932 -0.18065426338338686 73 53 46
0.03858150141381152 0.30815427194367273 -0.18343928245328894 73 53 46
0.03794976114997592 0.3074893953980281 -0.18642891607949627 74 54 47
0.037161322180466805 0.3066206835192763 -0.1894497750005856 76 53 45
0.03538669476183684 0.30446811223469816 -0.19264862444732758 75 52 44
0.032050468439266136 0.30028291726215767 -0.19613530256016976 75 52 44
0.030470302100416236 0.29838479522447636 -0.19932263823320134 75 52 44
0.028292170005187217 0.2957087870369527 -0.20262829123907794 76 53 45
0.02669513646803036 0.2937897661081984 -0.20583800946304748 76 53 45
0.019665663391353144 0.28480131770459455 -0.21007817990433442 75 52 44
0.013304903966203346 0.2766850425381983 -0.214227139258749 74 53 43
0.010883459563766879 0.2736962137825056 -0.21764849391860475 74 54 43
0.01002996650522718 0.27274803093559963 -0.22077635343012209 76 56 45
0.009451680105172416 0.27215814647052594 -0.2238549696906139 75 54 43
0.010669465120685603 0.2739046952467319 -0.2265772267518235 75 53 40
0.01006143448096461 0.273276304318081 -0.22966514969317994 74 52 39
0.010704282017349812 0.2742748566161055 -0.23249993507318278 75 53 40
0.011355497174379503 0.275284166575311 -0.23533073448317327 74 52 39
0.012130455099505208 0.2764542401318918 -0.23813318320851137 73 51 38
0.011785526688833675 0.27616824497201525 -0.2411714085433027 75 53 40
0.010307708893858403 0.27440974106900506 -0.24445666188414733 79 57 44
0.008362308159471463 0.27204394578893737 -0.24785234702438885 79 57 44
0.0074949318128643555 0.2710797818737315 -0.25102090972196694 79 57 44
0.00649330348315276 0.2699414510490047 -0.25422479402800036 78 54 42
0.005771980825718809 0.2691676693000232 -0.2573714437575978 81 56 43
0.004915609807200905 0.2682186830039234 -0.2605535427478876 90 64 49
0.004764349054631856 0.2681859860937022 -0.2635782421070352 92 66 50
0.003968938901532326 0.26731666927662523 -0.2667549639693938 91 65 49
0.003505807225990018 0.26687919310726715 -0.2698583414799093 89 63 48
0.003691411952722337 0.26728439471406346 -0.2728104442894314 88 62 47
0.001410921729611242 0.264487294437364 -0.2763565520282461 86 60 45
-0.00029453236250438775 0.262437503290486 -0.279775223831424 85 57 42
-0.003494501313232798 0.25844797557961113 -0.2835709980866084 88 59 43
-0.0033457396330775213 0.25880643528071196 -0.2865520518384812 96 67 51
-0.0035836316829378767 0.25866304029215026 -0.2896303879001609 88 59 43
-0.006614108625476789 0.2548954352806656 -0.29341877495046503 83 54 39
-0.008777118341263546 0.2522544392453393 -0.2970014194294685 91 63 44
-0.008875107832695392 0.25229359354331626 -0.3000621451605703 94 66 48
-0.009488790535939248 0.2516637570318061 -0.30325900490250385 81 52 38
-0.01315696514217847 0.24707159471346168 -0.3072651168153142 76 47 33
-0.01523044640297179 0.24471647774033203 -0.3139222165534362 90 58 43
-0.011159515196968797 0.25016342281444975 -0.31587503548255674 88 55 40
-0.0046684170980450385 0.25874760010438314 -0.31714579042724 88 55 37
-0.00625141617002313 0.2568612149911862 -0.3206151734176429 94 61 41
-0.0067922328839387786 0.2563264663607546 -0.3238030442064657 102 70 47
-0.004551509128331119 0.259397675525168 -0.32621214504485774 97 66 42
-0.019221536069587097 0.2410542781916473 -0.34263353786936435 94 77 66
-0.02471697613227808 0.2341028150233242 -0.3473254719526678 108 92 83
-0.03068190893943626 0.2265447202603964 -0.35218560503923196 98 82 71
-0.03158597808851137 0.22554388620070379 -0.35556335433348485 82 68 56
-0.031586362588238104 0.22571381450132924 -0.3586741423659076 87 72 61
-0.031342421519711616 0.22620021660115208 -0.3617116490618745 104 90 80
-0.030785587014172153 0.22709178039395767 -0.3646529768169441 88 75 66
-0.026474617933682956 0.23284403530051878 -0.3664314025369929 91 75 66
-0.024917164008056797 0.23503032389239908 -0.3690475510909097 87 66 57
-0.0242733290623144 0.23603355126594022 -0.3719440267431075 80 56 47
-0.02421448027396425 0.23627947049366768 -0.3750236573651934 81 58 47
-0.0229134562478895 0.23813308374592151 -0.37770717443836527 82 58 46
-0.01919242531021724 0.24311808445518424 -0.3796057775175688 82 58 45
-0.017389353312395647 0.24562036831855172 -0.38210896530395916 83 59 44
-0.017196374988401777 0.2460390570088217 -0.3851306993398956 89 65 49
-0.016084843276374175 0.2476460490145621 -0.3878496467383727 85 60 45
-0.015394947372319667 0.2487073899450299 -0.39070403449321145 82 58 43
-0.010571476320134138 0.25511490055080904 -0.39217203369404907 90 66 54
-0.006281443529172856 0.26083125050942285 -0.39379636931691325 85 59 47
-0.0012507767111106932 0.26750417312544517 -0.39514805584146706 78 52 39
0.005350661216028285 0.27620669504016326 -0.3959371102050254 83 56 43
0.007472102600653049 0.2791155701418149 -0.39823910605219687 92 63 49
0.009736706332117193 0.28220896997483336 -0.4004815019487932 84 55 41
0.010102844357863475 0.2828479383217932 -0.40337804735262967 92 63 49
0.01435776880989939 0.28851274463734383 -0.40490215870191654 89 59 46
0.027358770001071495 0.3062962604432786 -0.4182215456549135 94 60 40
0.024575011155652124 0.30286494118020324 -0.42224098295269974 91 52 28
