ply
format ascii 1.0
element vertex 679
property float x
property float y
property float z
property uchar diffuse_red
property uchar diffuse_green
property uchar diffuse_blue
end_header
0.03398288226050447 0.041915990642632066 -0.4409209672047595 92 65 52
0.07057853403886709 0.05649229909360986 -0.43501509916713377 89 63 48
0.07869158572426527 0.059765365444451934 -0.436122071230081 89 59 45
0.1564934073757096 0.09068652615837759 -0.4196229556871259 85 49 31
0.15539061417629435 0.09030058499930682 -0.42289878610678966 84 49 29
0.15455528107406585 0.09002083049444864 -0.426111427958079 84 50 30
0.16512202249463315 0.09426383805852223 -0.42639350894291933 83 51 30
0.16673196891355765 0.09495375493535779 -0.42896160026464847 84 53 33
0.16599303026641263 0.09471204307911016 -0.43213823367833953 89 58 37
0.1678842417765949 0.09551342840450854 -0.4346283081441372 87 59 43
0.15722325883817287 0.09133731847203128 -0.4404302561473916 93 73 61
0.15417910481945674 0.09018199127730495 -0.44424438080103035 106 92 83
0.15081939693748633 0.0889017584491591 -0.44815485643764114 136 130 127
0.14277875029927553 0.0857659989315614 -0.4533393638565346 183 182 185
0.1346599217977179 0.0825997469548046 -0.4585741405385948 183 182 187
0.1264625381164309 0.07940286183709541 -0.4638597123619535 183 182 187
0.1345399717787047 0.08265716521177854 -0.4647065121842869 182 183 187
0.12769661016224615 0.0827741619005917 -0.6310067352606639 196 195 199
0.12101918723740493 0.08019239781705997 -0.6366112638684833 196 195 200
0.13170312263745196 0.08446375730650765 -0.6358094131855956 196 197 199
0.13222006808509834 0.08472179575198022 -0.6387556353250752 197 198 200
-0.006058855358450202 0.030204235085345248 -0.6936088148956941 199 199 201
-0.02619813224977445 0.022315166835994077 -0.7045615004421888 199 199 201
-0.03309546404047249 0.019652461906059036 -0.7105879818101823 200 200 202
-0.027660617858566786 0.021855955740858468 -0.7119630490677173 201 201 203
0.013040553045574957 0.03797265554104652 -0.6998818460263001 201 201 203
-0.008280507447447155 0.03044044710431535 -0.7591164445583998 208 208 210
0.003050845956090051 0.03496428252314117 -0.7578965872966363 208 208 210
0.00793751142312625 0.036948202158642904 -0.7592886487793908 208 208 210
0.012802537354555388 0.03892332425079996 -0.7606738376452834 208 208 210
0.01764509061015329 0.040889322387266974 -0.7620526040851051 208 208 210
0.020487581487385775 0.0420671980785679 -0.7642490550424512 208 208 210
0.02450972734065912 0.043709573312780824 -0.7659433402115967 208 208 210
0.028752615794543093 0.04543866897046561 -0.7675320982301772 207 208 211
0.03241740786346012 0.046939864409764415 -0.7693512743874182 207 207 211
0.03606963947429245 0.048435915781069656 -0.7711642752898593 206 206 208
0.039709530168859905 0.049926910549427335 -0.7729710666683755 188 186 186
0.04317319708709791 0.051348324266837844 -0.774841752857117 145 141 140
0.055367490494690516 0.05620678397755869 -0.7729543531119993 115 107 103
0.06028793701947447 0.05820104253274318 -0.7741598702565214 106 95 89
0.06420308437546393 0.05979930240565352 -0.7757844249050645 98 86 81
0.0692440739241891 0.06184048554017741 -0.7769072308718978 93 80 75
0.07428515213787974 0.06388141937207341 -0.7780134830214721 88 74 68
0.07907418810377498 0.06582287918832108 -0.7792136518815485 86 71 62
0.08073517303103231 0.06653314253362302 -0.7817745215791889 82 65 55
0.0866142471249283 0.06890307101642375 -0.7824674706430312 81 63 52
0.10256531321154866 0.07523549385785754 -0.778672911515284 78 59 47
0.10478959942869467 0.07616657068704849 -0.7809363809640144 78 58 46
0.10878610694469658 0.07779470833256522 -0.7824008681704508 79 57 45
0.1100593739195263 0.07835141799609792 -0.7850752798812183 79 57 45
0.10711384120860216 0.07724871033047855 -0.7896485730524727 78 56 42
0.10273494631138672 0.07558247828351966 -0.7948828569801094 76 54 40
0.10488486166423301 0.07648409365316873 -0.7971676835355567 76 54 40
0.11075717262956065 0.07884937205988853 -0.797748042726566 76 54 40
0.11550434462896134 0.080771905380864 -0.798824114169208 76 54 40
0.12162596766497961 0.08323456452964004 -0.7992525476273751 77 54 41
0.12461685538617147 0.08446605302249202 -0.801105745736913 77 53 41
0.12854023493428673 0.08606395279493631 -0.8025175030045475 76 52 40
0.1324463416063903 0.0876548454575975 -0.80392465603775 70 46 34
0.13535878349238203 0.08885496534067927 -0.8057833618081391 65 41 29
0.13621064707817984 0.08924509233923122 -0.8085993085063916 65 41 29
0.13153324934285482 0.08746228332230585 -0.8140165154324578 68 44 32
0.13224943388694618 0.08779921534167975 -0.8169035753851489 72 48 36
0.13395143626035755 0.0885234785104601 -0.8193219781941115 72 48 36
0.11626310806305697 0.08162939594281009 -0.8309690221742545 73 49 37
0.10402832493042527 0.07687892002015344 -0.840075196560505 73 50 38
0.09330321070730598 0.07272227686876748 -0.848503119216061 75 52 40
0.09033564404313296 0.07161346729318921 -0.8532353789940349 78 56 43
0.10177223898952469 0.07616231800178483 -0.8510162753403048 80 56 44
0.09541410057742918 0.07372189398854541 -0.8573925249613291 78 55 42
0.0908065155817203 0.07196934242768485 -0.8629408693831906 79 56 42
0.0842526481670215 0.06945286002271295 -0.869459225489744 81 58 44
0.08590084035356431 0.07015726738902717 -0.8719779638873433 78 55 41
0.07390376250731304 0.06550435980999571 -0.8812136390020652 81 58 43
0.07259792709739998 0.06504936360172803 -0.8852090005124755 84 59 43
0.04380347427072062 0.053803960444426764 -0.9028514246008713 85 58 41
0.0662186383306966 0.06266086169688222 -0.895095464561516 83 56 39
0.09596389001302716 0.07439330808430952 -0.8835949702222462 80 53 35
0.17693053992980268 0.10622577298340004 -0.8462886622437341 80 51 32
0.17881140822290717 0.10701840097848292 -0.8485109123692981 84 50 30
0.17712501020312 0.10641118657241552 -0.8525306495021849 86 53 33
0.18176208819462952 0.10828515867197717 -0.8533507848984269 91 57 35
0.1825307948459075 0.1086412085729428 -0.8561246497060906 93 64 35
0.18545355726722765 0.10984225732043267 -0.8577967873368971 97 71 46
0.1830517920931778 0.108954542476499 -0.8621897171662287 97 74 55
0.18326334749605255 0.10909202794952783 -0.8652483355674685 95 73 54
0.18025932116444157 0.1079683820817527 -0.8699682238095278 93 72 53
0.17643589266509557 0.10652361109724273 -0.8751253504926368 93 71 53
0.16935116191021993 0.10380023909073055 -0.8819941932462156 95 72 54
0.16533519400721203 0.10228061405507692 -0.8872890705623091 95 72 56
0.16647581131782174 0.10278302015221041 -0.8898995671427334 93 70 54
0.16734560782253732 0.10317920863283116 -0.8926497826372883 91 70 53
0.16593688954489483 0.10268217312393715 -0.8966001310026892 89 66 50
0.16715547685024307 0.10321509565642971 -0.8991666897246002 84 58 41
0.16709197560386896 0.10324546047327668 -0.9024112771396148 84 57 40
0.165607436300548 0.10271893358990457 -0.9064150438060361 83 56 37
0.16155586889859336 0.10118655873746253 -0.9117987487185979 89 64 44
0.16032412379646088 0.10075941394506836 -0.9156857306990934 102 77 57
0.1612051054558098 0.1011601780418731 -0.9184411428987669 106 80 59
0.1616587766079004 0.10139349940372873 -0.9214257903847253 111 84 63
0.16223092150449397 0.10167323185613027 -0.9243461169282431 109 81 58
0.16132053086700432 0.1013722136494882 -0.9280725015525871 106 78 56
0.16160027040904656 0.10153744308088111 -0.9311541537629441 100 72 52
0.1609437272518233 0.10133597940131624 -0.934749224895658 82 55 37
0.16169607145495024 0.10168634243049282 -0.9375739862476768 69 43 27
0.1651746230634782 0.10310425244241517 -0.9388941436936041 65 39 24
0.1652514669007499 0.10318998689687547 -0.9420852361412589 67 41 26
0.14730312054551675 0.09621833237304561 -0.9552848488776977 69 43 30
0.143504518480952 0.094787456763081 -0.9606708104555252 70 44 31
0.12895004143848063 0.08914628658012176 -0.9720839042510442 75 52 39
0.11573446456927709 0.08403016736657454 -0.9828019432516454 75 54 42
0.12420579563110676 0.08740323355235816 -0.9813694364101668 80 61 51
0.11581341907287056 0.0841758273185725 -0.9894261808202209 81 63 53
0.06321190105321704 0.06364824823669904 -1.0225530528451796 88 68 59
0.1752519002621952 0.1076049264668389 -0.9655576884721598 79 59 50
0.17345889555205946 0.10695902526653002 -0.9698140233170354 81 61 52
0.1824586205961828 0.11053549250461886 -0.9678858607031839 81 61 52
0.20033902586313254 0.11758533651728031 -0.9608134633902167 82 62 53
0.19396988942629564 0.11514894938537078 -0.9676806368926277 83 63 54
0.18399283865161178 0.11130189401535559 -0.9766635980171094 85 67 57
0.3556160839208143 0.1784760441181964 -0.8801277353956143 85 67 57
0.34840111629380166 0.17570459435747388 -0.8872382160397575 86 66 58
0.34041834404062155 0.1726334091829842 -0.8948263074068782 88 68 58
0.331906081338831 0.16935574043464305 -0.9027564815336564 88 68 57
0.4529462744273645 0.21677445892322816 -0.8371725441353475 82 62 51
0.4528156751256209 0.21677035250188337 -0.8399778539335134 83 63 52
0.17659450939298993 0.10907844931322891 -1.0198929760406854 92 70 57
0.10031212906353311 0.07933137912424933 -1.0692055133697598 91 69 56
0.23087909832214398 0.13056050636698918 -1.0030037975443784 75 39 17
0.234868023279261 0.13217271523055957 -1.0037193751857776 71 35 10
0.3152926918083083 0.16368455844872365 -0.9604135857633985 71 35 13
0.24523581432971303 0.1363836511797658 -1.0067747666274147 69 33 11
0.24753634295698845 0.13733582975501768 -1.0084874654407405 69 33 11
0.2508909767462558 0.13869937658631765 -1.0095367263347497 71 35 12
0.2491962839624828 0.13809179130118326 -1.0137282411808142 75 38 15
0.25333946337242425 0.13976289280857243 -1.0142708576515342 74 37 15
0.24679081588320373 0.13726102826014952 -1.0215170109399294 75 39 17
0.24634485001153714 0.1371411257230829 -1.0249436709112236 78 42 20
0.2452953896147978 0.13678579149365028 -1.0287550526901659 80 46 24
0.2454117278644219 0.13688541761630607 -1.0318328912785963 86 54 31
0.2465707244151586 0.13739184783275402 -1.0342488605526579 92 60 37
0.24781889340765645 0.1379330164774604 -1.0366051361768542 96 66 42
0.2487477183446423 0.13834956209999658 -1.039162525421252 100 70 44
0.24819929015896483 0.1381898807286512 -1.0426657284988992 104 74 48
0.24832370520908825 0.1382926786829376 -1.0457396361169258 103 73 46
0.24999169102213142 0.1389974548786729 -1.047818468358606 97 67 40
0.25012052858996314 0.13910196490921176 -1.0508887890149317 95 63 38
0.25194182868807313 0.13986640664011019 -1.0528614866156298 99 67 44
0.25110604788091084 0.1395948131664357 -1.0565588102175727 101 69 46
0.25026863612933936 0.1393226658533785 -1.0602619627573957 97 65 42
0.24637348138314735 0.13785864797973618 -1.0659723876221188 95 64 43
0.24182950488168697 0.1361420141228023 -1.0721253982675747 92 64 43
0.24409116018431257 0.137078193508623 -1.0738144044837035 88 61 40
0.24101770542552028 0.1359350736894615 -1.0790208397079473 82 57 36
0.2403653651268959 0.1357356509110314 -1.0826365519670667 74 49 29
0.23870549008421577 0.13514371228898744 -1.0869257990720482 70 43 25
0.2451142261807618 0.1376955818196126 -1.0858464725463535 58 32 18
0.23631697538847168 0.13432304020602046 -1.0949058255865518 49 27 13
0.2396390286476151 0.1356721994165714 -1.0958783749000156 51 28 15
0.24717975883990057 0.13866442062087508 -1.0940044765039696 55 29 18
0.24666828693987547 0.13851995503175732 -1.0975305288068868 54 27 15
0.24691332242084119 0.13867017451806612 -1.1005487995790508 54 26 13
0.24707632454088657 0.1387884599663397 -1.103623336457106 61 31 13
0.24764340750166836 0.13906410590251414 -1.1064241717467431 74 39 15
0.24775658061186917 0.13916301049559243 -1.1095338528000547 79 38 12
0.24774227225549522 0.13921230403213097 -1.1127318482680508 83 43 16
0.24844853660542632 0.13954213609287847 -1.1154375360586903 89 52 25
0.2491210523281211 0.13985881224914978 -1.1181653140968484 93 58 32
0.25359078814015956 0.14165343070284186 -1.1182744400944267 97 63 38
0.25527968963511427 0.14236551274887035 -1.1202903321532942 101 67 42
0.2548350838687772 0.14224724520340265 -1.123780302754547 99 68 43
0.2548625177849289 0.1423127157275518 -1.126945454973729 100 70 43
0.25466562490657313 0.1422909289963664 -1.1302684769018982 103 70 44
0.2515068225978294 0.14111683541078074 -1.135664226061687 102 70 45
0.24996687611678514 0.14057275043985512 -1.1399390729744576 97 68 43
0.2495723103129247 0.14047433623146077 -1.143416439093287 92 65 41
0.24893255932930458 0.1402806097753705 -1.1470697461591166 92 65 42
0.24718986996188802 0.13965799583241642 -1.1515066071528015 78 55 35
0.2453877689214634 0.1390124210836375 -1.1559939248702917 75 56 40
0.24433941051859634 0.13866009167015983 -1.1599542352675942 93 81 68
0.24542325909228685 0.13913691092848327 -1.1624009866423763 119 112 104
0.24532299142344755 0.1391533138726332 -1.165691165723712 149 143 142
0.24775560342883096 0.140154424324647 -1.1671688233144377 165 160 160
0.2457777534469483 0.13944095287768477 -1.1718068483162325 175 170 169
0.24474906967473176 0.13909657238211737 -1.175770513686431 179 177 175
0.18195388646814067 0.11474635720986762 -1.2243481120167115 184 183 181
0.17531963433128062 0.11222578152686298 -1.2325021671388168 187 186 184
0.1737191369027967 0.11166174189456704 -1.2370287148769137 190 189 187
0.16659150980471743 0.10895023955355254 -1.2455871225256017 192 191 189
0.3803057622790211 0.19209240331268512 -1.095936173558257 198 196 195
0.38254790483091894 0.19301452653717213 -1.0972631528699206 200 199 197
0.38478484512498656 0.19393450477438784 -1.0985867359529808 200 199 197
0.3950180802053733 0.19796002804345997 -1.0940037424269156 200 199 197
0.3789808551022555 0.19178262667004903 -1.1088149251467485 201 200 198
0.36959413804490604 0.18818886194871123 -1.118757713966397 202 201 199
0.36127081190944227 0.18500865519933235 -1.1279478842465036 202 201 199
0.3533667975683369 0.18199183330063168 -1.1368594406514254 202 201 199
-0.013927374930990985 0.011179661718956941 0.03475838980836605 181 181 183
-0.009663322272436792 0.012949509446241637 0.03168042257581898 181 181 183
-0.005709656419600024 0.014594102879657594 0.02861566407297013 181 181 183
-0.008022930673718896 0.013713865823344952 0.025573080373342664 181 181 183
-0.004434511630292596 0.01521111880551247 0.022520787704871918 181 180 184
-0.0029912490756752825 0.015844139854192835 0.019475457417269203 181 181 184
-0.0015495684585023388 0.016476469398534498 0.016433327079835778 181 181 183
-0.0001756095970495532 0.017081470213539483 0.013394085587829053 180 180 181
0.003989533715288162 0.018810473439187854 0.010375188462687332 181 180 180
-0.002004034062791752 0.01644848001426945 0.007288805936306606 181 180 180
0.0002770935477260728 0.017418734393507527 0.004259763650347203 180 180 180
0.0006818253181765255 0.017633387773927024 0.0012159527233209498 181 181 180
0.0017380380485531206 0.018110333785117682 -0.0018197494386305003 181 181 181
0.020542504574685788 0.0257323374612831 -0.00460131321273053 181 181 181
0.0200544649266869 0.025587091596174488 -0.007629069689472129 182 180 181
0.022906528979118112 0.026786373245086745 -0.010601629934669052 181 181 183
0.017869206580074765 0.024810057203621706 -0.013716420490388948 180 181 183
0.017188326593832935 0.02458738166180389 -0.016758944716867147 180 180 181
0.015834579095721085 0.02409397514976436 -0.019819991888981706 180 180 181
0.01630099386111728 0.0243331300698665 -0.022843420333487324 180 180 182
0.027632865727456615 0.028944431827898794 -0.02559050998149502 180 180 182
0.02921194709361105 0.02963098287702115 -0.028566220689189115 180 180 182
0.027647449615375384 0.029052698754347458 -0.03162826354004715 181 179 182
0.04736774154173636 0.0378519065984191 -0.0820722243496879 179 180 182
0.048061686514428756 0.03818185966439244 -0.08504519030949449 178 179 181
0.05490179491613202 0.04098142156119404 -0.08765290141932407 178 179 181
0.05968668624024352 0.042954869589309594 -0.09036501449573586 179 180 182
0.062494495849337285 0.04413376475760013 -0.09318662734780728 179 181 182
0.06472521629093421 0.045080693203558675 -0.09603753812813465 158 154 154
0.08626714817198723 0.05378494049772324 -0.09761236580813157 105 94 91
0.09968565240131924 0.05922502366305769 -0.0996661394661659 104 90 83
0.11304371687015984 0.06464011501269497 -0.10168185486784426 104 85 78
0.1273724691222499 0.07044434333772219 -0.10358692782093057 103 84 77
0.13445328801575318 0.07333706916790214 -0.10597060696066138 105 86 79
0.15343872860193383 0.08100993733290703 -0.1074527968669419 105 84 78
0.15729243107008398 0.08260578207376573 -0.11001743622896056 103 79 70
0.07461228795992057 0.04945702625540699 -0.11924773812922246 100 72 58
0.07863424820252272 0.05112243370420004 -0.12191763108662873 102 71 51
0.0787596951402721 0.051223359320989426 -0.12488914876824966 105 73 52
-0.027942877364641565 0.008493947037025898 -0.13978499667098673 99 67 46
-0.020957315179385334 0.011351355211135969 -0.14234874522242405 97 65 43
0.0687922489387799 0.047425437364196577 -0.1376952086513208 91 59 38
0.0694568143399774 0.047743093991862225 -0.1406409476445536 87 55 34
0.1661056617469863 0.0865783659158751 -0.13492684923767773 86 53 34
0.17260521162936646 0.08923469944739872 -0.13717814800206052 84 54 33
0.18060564411202917 0.09249290219529405 -0.1392691948223309 83 55 33
0.17999337297169798 0.09229519956706718 -0.1421546215726588 79 51 33
0.1818957052477785 0.09310636182080681 -0.1448000576214923 77 51 34
0.1825954293953985 0.09343501175192792 -0.14755890840331787 74 52 39
0.1812497197661022 0.09294317162642962 -0.15052139621831517 79 63 53
0.17830080774148163 0.09180838957975171 -0.15365261817888817 81 66 59
0.17493629428217763 0.09050710917436133 -0.15683777032994173 79 65 57
0.16577345329158516 0.08688067158041261 -0.16064386221699475 80 66 58
0.1618175119521169 0.08534280179403131 -0.1639263173268754 80 66 59
0.1570685238077645 0.08348717492542279 -0.16730894206316932 80 66 61
0.1501783357475614 0.08077330550906056 -0.17094379910300678 80 67 61
0.14591281473912607 0.07911214953330079 -0.174309926521524 81 68 62
0.14145431683939003 0.07737388963955416 -0.1777132742341536 80 67 61
0.13285193585369556 0.07397472781888237 -0.18160845164475786 80 66 62
0.12933563424457412 0.07261480278796713 -0.18494095108560352 81 67 64
0.1258037354478257 0.0712488456969857 -0.1882882401966972 80 66 63
0.09940786990901314 0.06071946272952073 -0.1943867905082488 84 70 67
0.09733303110590565 0.05993852049263179 -0.19762090092642517 84 70 68
0.12296733879539967 0.0702617133718502 -0.19745332076051245 85 71 69
0.11841325579260012 0.06848682712008633 -0.20096736817040572 90 76 74
0.10273699441480746 0.06225580762204634 -0.20590326241635395 91 78 77
0.09934219621493606 0.06094625725712435 -0.209320117189353 95 84 81
0.09591636180923478 0.05962448701756079 -0.21275360992590095 99 88 85
0.09284243524228994 0.058443904697814575 -0.2161536146807809 102 91 87
0.09070641674405382 0.057639212486048697 -0.21944047010332274 105 95 93
0.0876691008804971 0.05647366035780946 -0.22285714097873585 107 98 97
0.0847231789850143 0.05534490680851088 -0.2262728199570024 112 104 101
0.08180204100895141 0.05422626817505172 -0.229696249262354 116 110 108
0.0784563350509234 0.05293779797815179 -0.2331900433013786 131 128 126
0.0750968902595718 0.05164403856689917 -0.2366982886447348 156 153 153
0.071723387751669 0.050344863569727755 -0.24022110801799082 172 171 173
0.06812880123223004 0.048957387400846014 -0.24378851157097162 180 179 179
0.06522210491071836 0.047845528437280606 -0.24726868294492654 180 179 179
0.062304887267438255 0.04672964568080065 -0.250761497730034 179 179 181
0.0594963064495697 0.04565743731686142 -0.2542491947234454 179 180 182
0.060780005098315715 0.04622337250119656 -0.25712881686730243 180 180 183
0.06235374072575739 0.04690534061869213 -0.2599612641423369 179 180 183
0.060794134061760104 0.04633328103769928 -0.263274176967232 179 180 182
0.050285109764256264 0.0421800306370851 -0.26799177702259536 180 180 182
0.06409089075024049 0.04775680753154175 -0.2689069325813346 180 180 182
0.06333749310852226 0.04750748074543004 -0.2721004346668647 179 179 181
0.06258289694156505 0.04725774149062842 -0.27529808344245066 179 179 181
0.0616118299193967 0.04692146837528149 -0.2785349524961342 180 180 182
0.06320941392822874 0.04761281287700016 -0.2813538231024364 180 180 182
0.06207844856855986 0.04721266635517036 -0.2846223565168151 179 179 181
0.0606730707677238 0.0467028506976884 -0.2879421870167755 180 180 182
0.0047316669569361924 0.024489686485807644 -0.306882491049377 180 180 182
0.012569668341449285 0.027677815406794502 -0.30869974352059304 180 180 182
0.022946750565751583 0.03188072968572431 -0.3100447026897162 180 180 182
0.028852806734149715 0.03429554842666425 -0.3121519381913616 180 180 182
0.03569344863709955 0.037083680516810484 -0.31407299660467014 180 180 183
0.04215477895356849 0.03971982017256165 -0.31604135821906915 180 180 183
0.046283629285860994 0.04142328289239415 -0.31841628154499 180 181 183
0.041887024774586085 0.039719000202692874 -0.32235299992847316 179 181 181
0.03960558830781093 0.03886034321988956 -0.32591184762454295 181 181 183
0.05588153986115235 0.045417978334072594 -0.3259909642107101 180 180 182
0.057925617111742225 0.046287595462683066 -0.32871642054523187 181 181 183
0.06416335827025468 0.04883280649598704 -0.3306339386898078 181 181 182
0.0612893829732625 0.04773712712349281 -0.3342909446713398 181 181 182
0.050870126025817655 0.04362715708297753 -0.3394284006654844 180 180 183
0.0497513760866102 0.04323326590961539 -0.34277563850322273 180 179 184
0.04655732000406592 0.04201045905312534 -0.34653924162948263 180 180 182
0.05149248698695908 0.04403493793497593 -0.3486909731729541 180 180 182
-0.06862967068862755 -0.003436049382081488 -0.4027475896449493 180 179 184
0.013207073650793329 0.0292855448831133 -0.38836222919562735 180 179 184
0.01777764291303465 0.03116418547494626 -0.3905746548389271 181 180 183
0.025058138136857443 0.03412408979299047 -0.3921767092646181 181 179 182
0.03301332001016655 0.037352841400244224 -0.3936059557304441 136 132 132
0.048863056724121216 0.043731334046124185 -0.39324551973185756 94 85 83
0.06264555281964998 0.049284105730149255 -0.39329825061496215 85 75 71
0.07524350203759819 0.054363505908686424 -0.3935743912102332 77 65 59
0.08670574510647161 0.058989121191561786 -0.39406878449364063 73 60 52
0.09828427160481124 0.06366048786610469 -0.3944989036273369 80 65 58
0.10702746502794658 0.06720023378283493 -0.39554880358716316 80 64 56
0.11547933306591228 0.07062330228665671 -0.3966384790888686 74 56 49
0.12376453470610416 0.07397943593016514 -0.3977400569152758 85 68 60
0.128345578933243 0.07585789582398861 -0.3996930144269847 84 66 59
0.1375730671094123 0.07958898502559673 -0.4005223332144833 81 63 56
0.14909016641530295 0.08423253061168669 -0.400771015192218 86 68 58
0.1040274098420339 0.06631626986180084 -0.4146848043311656 82 58 48
0.08735822460429082 0.05972272595199809 -0.4218287775206155 78 51 40
0.07874184314361243 0.056340469147414356 -0.4270533462370154 84 56 43
0.03637554881923291 0.03950511506108506 -0.4406555142415067 94 66 51
0.06293114443031998 0.050144360270042064 -0.4372411159084949 91 64 47
0.07195615402072157 0.05379494533436236 -0.43813284929761687 82 50 34
0.08549469392568068 0.0592438539673081 -0.4378558136546406 83 50 30
0.09834304943518776 0.06441695609236434 -0.43770934191468364 83 52 31
0.11202413707717372 0.06992116582022002 -0.4373072897953302 86 56 35
0.16368420317508042 0.09055743437874626 -0.4270773798930464 89 60 39
0.16443139809285476 0.09090583062508852 -0.42987303174746494 90 60 41
0.1733105075258337 0.09449391849109097 -0.4305450800169369 91 61 41
0.162229274612739 0.09013000157731589 -0.4364320572724232 91 66 50
0.15968080790593892 0.0891656652585915 -0.440102118027909 98 79 67
0.1535457828343289 0.08677294914514891 -0.4447369283026442 116 104 96
0.1443548517071727 0.08316351405024922 -0.45021283295817277 162 157 156
0.13631070971376147 0.08001134670555318 -0.4554126028126128 182 182 185
0.12830320166388956 0.07687426134154529 -0.46063154060987604 183 182 187
0.1202190760174765 0.07370715939590841 -0.46590039904633784 183 182 187
0.15081585939494718 0.08594180282236447 -0.46057095222733824 182 183 187
0.13914268596590845 0.08406602285006452 -0.627236102318961 196 195 199
0.14228073524276075 0.08536344533477477 -0.6292026877313063 196 195 200
0.14279427441649684 0.0856199966531482 -0.6321325770740696 196 197 199
-0.0011821144383491605 0.028642911566958362 -0.6922560058630758 199 199 201
0.01757696964701122 0.03613714398359504 -0.6885812670375979 199 199 201
-0.016711580738394738 0.02260142996276724 -0.7048815254162262 200 200 202
-0.0254818398150629 0.01918285569801488 -0.7116196366904617 201 201 203
0.02365850799500653 0.038717956388996305 -0.6963083896722052 201 201 203
-0.011791496554478975 0.024840459711369722 -0.7200429220058808 203 204 206
-0.017144863468292 0.022777085182043542 -0.7255311806563648 203 204 206
-0.0022881034781302018 0.029414204817735073 -0.7640074583835067 208 208 210
0.0010859729422518505 0.030807617507343926 -0.7660279123830027 208 208 210
0.007968447822531768 0.03358940935643238 -0.7665814433176308 208 208 210
0.012144226330441973 0.03529963603614258 -0.7682405266349005 208 208 210
0.016303599532812296 0.0370031452492377 -0.7698931786244416 208 208 210
0.019570081661088173 0.03835312217949452 -0.7719080584757214 208 208 209
0.023270486169784485 0.0398746137973605 -0.773729626228271 208 208 210
0.026958107868651895 0.041390851036588586 -0.7755449909143485 207 208 210
0.030633377743611676 0.04290200541726434 -0.7773540292901766 206 207 210
0.03441085817760241 0.044453395109601015 -0.7791078016720913 206 206 207
0.04159737792208891 0.04735298479388779 -0.7793854978002108 186 185 183
0.049595001025549125 0.05057296128456737 -0.7792891918083314 144 139 137
0.05597812317734925 0.05315398093325452 -0.7798649835509224 118 110 108
0.061691759178478744 0.05546989331114587 -0.7807105925963962 106 96 94
0.06508624124202435 0.05686845545088001 -0.7825499964009013 98 86 83
0.06956238127858949 0.0586945089529932 -0.78390451102816 94 81 74
0.07101489449986806 0.059324912612139374 -0.7865757698961802 87 73 67
0.07776224527258889 0.06204842985026611 -0.7869026440111755 84 69 61
0.08404319485031325 0.0645871967084958 -0.7874138349954714 81 64 55
0.08802608288997113 0.06621726889895585 -0.7889282030285674 79 62 52
0.09168958549809945 0.06772089320600397 -0.7905727253369379 78 58 48
0.10743799677749706 0.07400029282316145 -0.7867758731447397 78 58 46
0.10987153008390668 0.07501710465286278 -0.7889301561348935 76 57 44
0.11287364890655725 0.07625846518415348 -0.7908197115423349 78 56 42
0.11388196903685169 0.07671189985156904 -0.7936066202999837 78 56 42
0.10653712239911571 0.07386514075846565 -0.8002049360392482 77 55 41
0.10905523470542573 0.07491520227247439 -0.802310836426294 76 54 40
0.1123591296709688 0.07627553395679627 -0.8040476331276668 78 54 42
0.11775405061810794 0.07846161698434768 -0.8048080782434657 78 54 42
0.1228077125690371 0.08051261309298728 -0.8057088254531946 78 54 42
0.1277295883493534 0.08251127962980773 -0.8066541900716362 73 49 37
0.13185210030418984 0.08419400587357753 -0.8079569036070117 68 44 32
0.13414409399387967 0.08515370006152716 -0.8101051409322432 67 43 31
0.1339687718862121 0.0851391025709065 -0.8134088162266192 67 43 31
0.13154746734701778 0.08423782422930547 -0.81777671491202 68 44 32
0.1326283631456728 0.08471928970489344 -0.8204926164443088 69 45 33
0.12320868390682244 0.08105571467173057 -0.8282095338411015 72 48 36
0.11383497287975831 0.07741089183320747 -0.835940322515985 73 49 37
0.1064394230171305 0.07454741263298434 -0.8427570641577443 75 51 39
0.10533161572306234 0.07416586077869618 -0.8465719917333605 76 52 40
0.07442748743398725 0.06202627470873833 -0.8648070727648203 75 51 39
0.06771035870002877 0.05943247629530203 -0.8714114497521771 74 51 38
0.05632575068131315 0.05499754396408604 -0.8803169676097347 75 52 38
0.04352706429972425 0.05000545625115099 -0.8899575040381583 75 52 38
0.055381198409484494 0.054739556343878545 -0.8875402828321823 76 53 39
0.05461566865028834 0.05449497116617345 -0.8913015583616892 84 61 46
0.05479600057536822 0.054623538883782366 -0.8945993565286017 84 60 44
0.041423762141268416 0.049406988394950585 -0.9046276579637827 85 59 42
0.04574738830981065 0.05116999775069473 -0.9058873317888293 82 55 38
0.16811908098918893 0.09948361143804053 -0.8480843506881669 80 53 36
0.17229985527031022 0.10118614753764987 -0.8491712791374413 84 54 35
0.16272883115490586 0.0974664473231663 -0.8571735785490903 87 54 35
0.17813138733359019 0.1035930739251005 -0.8525833057397996 87 55 33
0.17830258533615995 0.10371435842172921 -0.8556685938762865 89 58 30
0.1790662291706429 0.10406919057917888 -0.8584530386993967 94 67 36
0.17667363251667012 0.10317996472692328 -0.862849734068503 97 72 48
0.17656435316152816 0.10319081622396303 -0.8660853371862407 96 74 57
0.17849763471002789 0.10400665226284392 -0.8682712306256813 95 75 57
0.1734832261494025 0.10208460126672977 -0.8740415884719377 94 74 57
0.17145994189574174 0.10134147286694278 -0.8782808834750367 94 72 55
0.1606472504049832 0.09713550934002767 -0.8871031916838927 92 69 51
0.16291727924906554 0.09808437386681314 -0.8891345706056352 92 69 53
0.16340813580103933 0.09833224847298522 -0.8920916037051934 90 67 51
0.1653384741170647 0.09914713389770559 -0.8942913532709096 88 66 49
0.16684820143043044 0.09979625915748018 -0.8967075548208738 83 60 44
0.16464869888485473 0.09898447607212202 -0.9010842264993973 85 59 42
0.16495086736792122 0.0991580357807583 -0.9041410669690026 82 56 38
0.16089256120512374 0.09761454990522075 -0.9095238409236001 83 56 37
0.15918155629981073 0.09699558439453093 -0.9136670341274206 95 70 50
0.1585133807194588 0.09678732975695066 -0.9172581454518757 106 81 61
0.15896430445371407 0.09701971416052342 -0.9202502975244293 110 83 64
0.15958466777041824 0.0973187974827035 -0.9231507627754476 110 83 62
0.1594222100876449 0.09730973499300129 -0.9264752499540795 106 78 57
0.15891028770932017 0.09716316452056323 -0.9299921874008168 103 76 54
0.15888496071132288 0.0972081564417934 -0.9332468168048063 89 62 43
0.15901895127836527 0.09731587267896827 -0.9364158186777178 73 46 30
0.15934998131148476 0.0975011415712686 -0.9394775621389531 67 41 26
0.16384075471931975 0.09932312100290941 -0.940244253430972 66 40 26
0.16457732977078335 0.09966782577903609 -0.9430744854781299 68 42 28
0.14878958127925657 0.09351184590907108 -0.9550833997385045 71 44 32
0.13545704730687275 0.0883226918288589 -0.9657840785492776 72 46 33
0.1834559129842212 0.10725829901570787 -0.942236295283731 75 53 39
0.10062497697675232 0.07473486448314151 -0.9919216608134194 75 55 41
0.10028335592864042 0.07465755831766036 -0.9954777152797588 77 58 46
0.08614730863770238 0.06915575342641331 -1.0068282769386763 78 60 49
0.17901654788411628 0.10583979825500546 -0.9640403878001425 80 60 51
0.1850055244470435 0.10824886387691786 -0.963838762910788 81 61 52
0.18990941621239704 0.11023104805890174 -0.964239390160479 83 63 54
0.3609892193414076 0.17762683249874134 -0.8746842617746478 85 67 57
0.3588719754675309 0.176843915836984 -0.8788091985048445 85 67 57
0.35248636700099184 0.1743840089840637 -0.8854341118423226 85 65 57
0.34444822925902746 0.1712752637579486 -0.8930517302690253 88 68 58
0.33567911668524375 0.16787988159405062 -0.9011301750765937 90 70 59
0.32836899668091313 0.1650582177425715 -0.9083834143556293 93 73 62
0.054995939101835326 0.057904908519265434 -1.0833424255650386 88 69 58
0.05763688008706251 0.059000968142698985 -1.0852431299968484 89 68 57
0.19346907368803082 0.11244766288807163 -1.0103934049807706 91 70 57
0.19450535833156438 0.11290919111534069 -1.0129933219729503 95 73 60
0.19408003824312114 0.11279693718441253 -1.0164767266728616 91 67 55
0.2288974424488492 0.12651790971212495 -0.9985386704132181 84 54 42
0.2368654140290664 0.12975226324256667 -0.9999944497468569 77 41 19
0.23598838224985297 0.1294615591373049 -1.0036847536553692 72 36 10
0.22897232158781017 0.12676208415476728 -1.0111582709599904 71 35 11
0.22522283989581332 0.12534473229376603 -1.0166432383575603 69 33 11
0.23477582447197531 0.12914646374388747 -1.0139065625234083 68 32 10
0.24011807170264948 0.13129579051885468 -1.0137507692362098 69 33 11
0.24338098265271832 0.13262917069937913 -1.014871816598023 69 33 9
0.23678189959835616 0.1300942649261248 -1.0221449593504264 73 37 13
0.24269106861502723 0.13246543519006881 -1.0216044392076498 74 37 15
0.2451856032294229 0.1334971729875649 -1.0231898900059047 75 39 17
0.2450710148148889 0.13350566988964366 -1.0264127565720027 77 41 19
0.24469973194653602 0.13341355232142177 -1.0297999886728968 78 44 22
0.2451074432218135 0.13362689982413167 -1.0326960235385492 84 52 29
0.2468094874357064 0.13434766570513254 -1.034768527892636 94 63 40
0.24682798279658485 0.13440840062718412 -1.0379105563790294 98 68 44
0.24723137082275498 0.13462002595625044 -1.0408077305702688 99 69 43
0.24953639335350147 0.13557696683470893 -1.042484138327492 104 74 48
0.24907503603043654 0.13544963739323418 -1.0459345829199957 106 76 51
0.2518415828180171 0.1365872808849125 -1.0473038319308212 99 69 43
0.25206845964039204 0.1367296359810339 -1.050309043436875 99 68 43
0.253165321281752 0.13721286733512536 -1.052749835050219 107 75 52
0.2519052421241425 0.136772670311587 -1.0567235675561053 106 74 51
0.24888924999430123 0.1356447201195051 -1.0618510035756437 100 69 46
0.2477251946475759 0.1352424097697672 -1.0657779326398635 96 65 44
0.24015646430485943 0.13233164834494757 -1.0739201614908893 92 64 44
0.24198091878642758 0.1331001787913532 -1.0759015709070574 87 61 39
0.2407695946909924 0.13267977511709272 -1.0798843720169236 81 56 35
0.24018790790068564 0.13250602926617658 -1.0834559826707488 70 44 25
0.23827752259007162 0.13181210199604781 -1.0879148159726153 70 43 26
0.235682991163994 0.13085047351137416 -1.0928387293935273 61 34 19
0.23662518920190487 0.13127360253435288 -1.095409212850243 54 32 18
0.23946447962613976 0.1324393113878614 -1.096705502389839 53 30 16
0.2513137739778345 0.13713152179895702 -1.091933135351885 58 32 20
0.24908243589621423 0.13631206344683194 -1.0966134130532854 58 32 19
0.25033256771820206 0.13685525358124273 -1.098949146193345 61 33 17
0.24926808596240546 0.13649263876636847 -1.1028516164705373 70 37 16
0.24913349320882314 0.1364939727325701 -1.1061272719792146 80 43 18
0.24899876934128334 0.13649529133700944 -1.1094051360156645 84 45 17
0.24749934306401528 0.1359627461877871 -1.1136186218309885 86 48 20
0.24763599492099383 0.1360703401905194 -1.1167172020204403 92 57 29
0.248638729140017 0.13651672533096462 -1.1192211046822793 97 63 35
0.25282116677140803 0.13820672668622466 -1.1195293882518338 97 63 36
0.2544991618885662 0.13891701948867233 -1.1215555682106515 95 61 36
0.2544368699121865 0.13894667766907656 -1.124784047259291 92 62 36
0.254221956068138 0.1389166882202158 -1.1281205329525874 94 63 37
0.2541129818325538 0.13892816162177735 -1.1313855603220813 97 65 41
0.25021020360590757 0.13745644633459875 -1.137306152929634 94 64 40
0.24850014046784635 0.1368422045156133 -1.1417055177441409 92 65 41
0.24856905486861278 0.13692349347166624 -1.144861945427212 89 63 40
0.2479348835486062 0.1367299964949135 -1.1485155636920927 86 60 39
0.2461341535575793 0.13608064440897216 -1.1529982037048256 72 52 34
0.24445303557756304 0.13547818177042711 -1.1574046130553004 80 64 50
0.24450298591793843 0.13555229389949033 -1.1605883007180555 101 94 80
0.2457323528356276 0.13608726358579754 -1.1629325303572038 130 124 117
0.24546694617307163 0.13603817655492212 -1.1663422517989765 153 149 148
0.24976306697976097 0.13777115972105106 -1.1664847117028394 166 163 164
0.25091486353664416 0.13827561667374436 -1.1688722365399546 175 171 171
0.24594557306316234 0.13638913895946217 -1.1756685463060885 181 178 177
0.17965470768605216 0.11055292894528095 -1.2268008673758666 184 183 181
0.17275938048408016 0.10791700058814613 -1.2351537384469744 188 187 185
0.17366373092997262 0.10832732599365849 -1.2378682299193149 190 189 187
0.16451702633578782 0.10481301968413681 -1.247903067720713 193 192 190
0.15858362997180828 0.10255392918304172 -1.2556280599027412 197 193 192
0.4079269266479555 0.19995543097393478 -1.07641649702913 198 196 194
0.41084630680012885 0.20114459059135031 -1.0771932260461785 199 198 196
0.40686201572142544 0.19963884110397637 -1.0830431102507878 200 199 197
0.40665081494545796 0.19960602281057954 -1.0861245908300703 201 200 198
0.41006130758480386 0.2009866762057938 -1.0865276704308877 201 200 198
0.41115915612931164 0.2014646536642042 -1.0886352140349604 202 201 199
0.35718178669228107 0.18045211044524945 -1.1317205164032043 202 201 199
-0.010342272419685985 0.009446663188881268 0.02550295689772579 181 181 183
-0.014059668089805494 0.007993827272773361 0.02244638485724746 181 181 183
-0.012099750534955801 0.008837883150704101 0.019384925177104 181 181 184
-0.019379359876883315 0.005944394856255802 0.01629995728985432 181 180 182
-0.017571769578208538 0.0067269215228498835 0.01323273988715206 181 180 182
-0.015083956443785244 0.007784494677653114 0.010174141824304712 180 180 183
-0.017400683461684434 0.006898867847111241 0.007084324106388734 180 180 183
-0.016935326272900716 0.0071384668803625324 0.0040120005858357635 180 180 183
-0.010959993337068406 0.009606159067409473 0.001000665385691108 179 180 182
-0.011054382806155895 0.009619275946976586 -0.0020697781778042153 179 180 183
0.027496537692025088 0.025257538369080852 -0.0045910575177133695 180 181 183
0.027376535992342105 0.025259323874294234 -0.0076034649113806895 181 181 184
0.026500981700994502 0.024955693442845768 -0.01063083017368053 180 179 182
0.026128068933807893 0.024855321285786706 -0.01365280588948322 180 180 182
0.025266792108869694 0.02455758863086184 -0.016687454440014862 180 181 182
0.02452636571930874 0.024308771531902054 -0.019723562281410596 180 181 182
0.024017995798778197 0.024153805401731364 -0.022757895913748657 180 180 182
0.03460914381821728 0.029494450411686607 -0.08595246662453691 179 180 182
0.04789978280891442 0.03490885938059005 -0.08820020683313243 179 180 182
0.060069694302299095 0.03987031270395272 -0.09047458820585016 180 181 183
0.05930235446649944 0.039610776319108504 -0.09352079860836193 180 181 182
0.06478890525742631 0.0418746632699072 -0.09616921731484526 170 169 170
0.07880111768995418 0.04757803112096894 -0.09823978014782536 109 102 100
0.09733500356344327 0.05510484872642458 -0.0999610932395382 104 89 85
0.11120348219671713 0.06074863512472213 -0.10194591609089355 106 88 81
0.12157441255770736 0.06498085806349113 -0.10413436880978769 105 87 80
0.13406737550863415 0.07006846245437091 -0.10613689014660528 105 88 80
0.14534439616591963 0.07466499206407748 -0.10819004619095812 105 87 80
0.15630061146492047 0.0791315508304988 -0.11023206806288065 105 83 73
0.16039363741047408 0.080829825393398 -0.11276983239731703 103 75 61
0.0896751919441948 0.052360806521181635 -0.12119595061582784 101 72 52
0.07282962444427607 0.045617977646818506 -0.12551723496145015 103 72 50
0.07653559730892986 0.04716220465525739 -0.1282069196664758 101 69 46
0.07723024096361242 0.04749220598361766 -0.13113813752129777 97 65 43
0.07023219207621222 0.044721018441769456 -0.13472540991429283 94 62 40
0.06429974483057355 0.04237978568653447 -0.1382441958662218 88 56 35
0.07326478255946128 0.04604374663864007 -0.1404628734849032 87 54 34
0.08061410204149973 0.04905602495562539 -0.14279953076268823 87 54 34
0.1443910491468301 0.07480956788297871 -0.13992574602741928 86 55 35
0.1772579658583712 0.08810303152140193 -0.13973693938806347 84 54 35
0.1740446797563442 0.08685553411453364 -0.14287707714613804 80 53 36
0.1728665187703841 0.0864282702295673 -0.14583195985520855 78 52 37
0.1709742523522729 0.08571337006265899 -0.14886235696354622 75 54 41
0.17934580099132 0.08913374647039388 -0.15087258073778698 82 66 57
0.1771982434571821 0.08831597032045765 -0.15392718229141458 83 68 62
0.17247610944843017 0.08646121352873332 -0.15725639186980567 83 68 62
0.16238281208093522 0.08244321158096302 -0.16116668800488554 83 68 62
0.16653649237621704 0.08416413521121072 -0.16359138427417985 81 66 61
0.15155166530202194 0.0781768356162005 -0.16807721487656085 81 67 62
0.14732573809483213 0.07652322380467043 -0.17143035699326473 84 71 65
0.14562309276019314 0.07588597771835376 -0.174517078100229 87 74 68
0.1384139157592868 0.0730315510494995 -0.17823450596971596 83 70 64
0.11233541756189627 0.06258001608652579 -0.18414552331091089 83 70 64
0.12985145810744542 0.06968160789639541 -0.1850620472325487 83 69 65
0.12022065983820618 0.06585337255308568 -0.1891314387277053 86 72 69
0.11630105545733166 0.06432476919942397 -0.19254937927439214 93 79 76
0.1122441882265483 0.06274115264567376 -0.1959983078551759 93 78 74
0.10901390714998714 0.06149048498145125 -0.199360199883644 94 81 78
0.10475505553485552 0.059826045994855595 -0.20286252815479747 98 86 84
0.1004432187451564 0.058140541624900136 -0.2063870164354224 100 89 87
0.0953106599775821 0.05612502489007554 -0.2100323032244188 105 95 93
0.09432025474884903 0.0557765801840118 -0.2131584043989189 110 101 99
0.0895475643882129 0.053906360888394504 -0.2167862937312102 114 106 104
0.08423988276803454 0.0518211829526843 -0.22050258473987366 120 114 115
0.0805243205432337 0.050376844573696386 -0.22402333500051935 136 130 131
0.07643583126790239 0.04878271428796121 -0.2276086755154808 157 152 153
0.07232702558283216 0.04718066178842223 -0.23121179001737552 173 170 171
0.06819791921665187 0.04557069526576281 -0.23483278788174375 180 179 181
0.064047978470434 0.0439526019324571 -0.23847185615901226 180 180 182
0.059791528805802255 0.042291928018396346 -0.2421413635879589 180 180 182
0.054969210391388815 0.04040395482854316 -0.24590831839187566 180 180 181
0.05603596034359441 0.0408843498082856 -0.2488308324308742 180 180 181
0.05293440355922714 0.03968869117824504 -0.2523682272995711 180 180 182
0.04982133103781564 0.03848859899670521 -0.2559191030487526 180 180 182
0.05391180506357695 0.040184749985904426 -0.25839156171611377 180 180 181
0.051753929470105806 0.03936884385065629 -0.26180790856876024 180 180 181
0.056012007489949375 0.041132134509620284 -0.26424050214587835 180 180 182
0.041399216992184705 0.035310121472848115 -0.26961064526117823 180 180 182
0.06217476497321027 0.043712200915820024 -0.26943931675314914 180 180 182
0.061546747641662555 0.043511238498402854 -0.272617778642297 180 180 182
0.01666993497591193 0.02600399965572156 -0.31140574005115784 180 180 182
0.02507078481479961 0.029430619814774666 -0.3130801906202431 180 180 182
0.033150721350660974 0.03272792941637856 -0.3147856381968752 180 180 182
0.03184984461027533 0.032258152026959606 -0.31816738324155547 180 180 182
0.018893995863325526 0.027109002165513166 -0.3236890586920999 180 180 182
0.024309995259847037 0.029336383968395642 -0.3258609030841046 180 181 182
0.023602373731760343 0.029105197144813817 -0.32915787924312756 181 181 183
0.049719539115398365 0.03964196515030461 -0.3274117583351961 181 181 183
0.05186856035509925 0.040556774809637805 -0.33012909232989046 181 181 183
0.05014517483695349 0.03991726111341908 -0.3335822714487857 181 181 183
0.05266636136160917 0.04098134874494379 -0.33622270091164375 180 180 182
0.041361727662518735 0.03649697320121596 -0.34155045527938954 180 180 182
0.058744479410393964 0.0435247907459953 -0.34127891104090635 180 180 183
-0.0016019346899440456 0.019902346453190875 -0.3886352633222732 181 181 184
0.016515836588914937 0.02722048413715528 -0.38794244780057074 181 180 183
0.019885741713779048 0.028625085849131114 -0.39041272834226975 181 181 183
0.025554752078926872 0.03095118603815923 -0.3923667477095877 180 180 182
0.031192173622315463 0.03326432764809187 -0.3943100525178261 167 163 165
0.04188477437094325 0.03760340562163434 -0.39510523275599485 96 88 88
0.05819129784717652 0.04419193060902289 -0.39460061481036157 85 75 72
0.07238026988190327 0.04993091202919052 -0.39452282084566775 83 70 65
0.08243504414288956 0.054012383716001165 -0.395343878687321 81 67 61
0.09553596401860821 0.059313927040536875 -0.39543028541130065 81 65 60
0.10483650227243291 0.06309201020751434 -0.3963557624886187 79 62 55
0.11209475751054784 0.06605134327137499 -0.39772858696363517 84 67 59
0.12071598210087633 0.06955632547941946 -0.3987571083321542 85 67 60
0.124902931563242 0.07128449094643155 -0.4008096914082117 86 67 59
0.13233419861289425 0.07431200809666967 -0.40207422125110737 86 67 59
0.1432663682955773 0.07874137152082074 -0.4024723380685881 87 66 58
0.09413658967738643 0.05911473400894937 -0.4173911587623688 81 57 47
0.08210197274418668 0.05434684272082251 -0.4234254802772113 79 52 40
0.07106425175304276 0.049978872738335976 -0.4292573760072237 85 57 43
0.042004539217725984 0.038395116080553945 -0.4395886397959154 92 64 48
0.06137683788030232 0.04620501114730834 -0.43795179953770813 88 60 42
0.07282595261981586 0.05084164221970994 -0.43823815962313595 86 55 38
0.08592275335671651 0.05613727563111 -0.43807059774360224 87 54 35
0.09689634483286874 0.060582242979197315 -0.43839966957354404 86 55 35
0.11345987327949042 0.06726415373101641 -0.43726136864604703 89 60 41
0.16187261033137346 0.086692868740182 -0.42785844939186124 88 59 40
0.16222457541265548 0.08688376246070215 -0.43076131141747515 91 60 42
0.16376686005578947 0.08755102006504634 -0.4333534951597479 91 62 44
0.16011125669946039 0.08613819186565963 -0.4373083469923261 98 76 61
0.15367235198433649 0.0836118928733374 -0.44201369467556195 108 92 82
0.1474200656610522 0.0811606551581998 -0.44669289201183093 129 119 114
0.13864430551673002 0.07770020793193341 -0.45207145143527133 181 178 179
0.13026622841286153 0.0743993828932101 -0.4573743493262208 182 183 185
0.12195697784928432 0.07112659595967724 -0.46268883910657943 182 182 185
0.128620143625496 0.07384319159905642 -0.46394265824274655 182 182 185
0.12708776560932247 0.07328149378964424 -0.46742827661061354 182 183 186
0.02182021533687846 0.03403642481302496 -0.6674383796373392 196 196 198
0.15123255770523875 0.0857045076917584 -0.6263285924688967 196 196 199
0.15381196364073596 0.08678394478528378 -0.6284780345651282 196 197 199
0.013410882177686295 0.03096559008039017 -0.6872627964387635 199 199 201
0.0025045618097768035 0.02667795386664836 -0.694721058723485 199 199 201
-0.0026224921773945337 0.02469254369968573 -0.7000349140564192 200 200 202
-0.03291733633304815 0.012685309645210294 -0.7149270827223764 201 201 203
-0.022008617423957766 0.01725821473007927 -0.7244838525338049 203 204 206
0.1738301793541301 0.09532363675030621 -0.654879642611482 204 205 207
0.21606247939860757 0.11218387021215118 -0.6413993192561955 205 206 208
0.20923830175241134 0.10951831165902379 -0.6470985345899589 205 206 208
0.0059461497845711975 0.02935051543495272 -0.7713420677584254 208 208 210
0.00662043160859728 0.029675515052229713 -0.7744669490374892 208 208 210
0.0102869672456595 0.031190007895012105 -0.776331944018532 208 208 209
0.014708519401664163 0.03300442661961079 -0.7778663855562983 208 208 210
0.018308141430836103 0.03449191659845078 -0.779735430024563 208 208 210
0.021458513150286268 0.035800668913646146 -0.7817846652837075 207 208 210
0.02555603655051271 0.037485665868338625 -0.7834188808904958 206 207 209
0.02738997537908955 0.03827094459778205 -0.7860128420597203 206 207 209
0.03572896868470367 0.04164091387007344 -0.7857944877405791 205 205 206
0.04349440810074305 0.044782525985736815 -0.7857963442818942 181 179 180
0.050815439885264664 0.04774714062815286 -0.7859652870186288 138 133 133
0.057893451531169725 0.050614800418401586 -0.7862156974289581 114 105 103
0.06282919271650622 0.05263109130976437 -0.7873821975493157 100 89 85
0.06907884195768622 0.055168993835080525 -0.787953668156752 96 82 80
0.06650148742233863 0.0542007442463107 -0.7924090369875709 93 78 74
0.07582264262071697 0.05795802474517455 -0.7915903028518622 87 72 65
0.08309101781946536 0.06089959562266452 -0.7916550451210043 82 66 58
0.08623340342655796 0.062202417465607396 -0.7935427105956088 81 63 55
