ply
format ascii 1.0
element vertex 681
property float x
property float y
property float z
property uchar diffuse_red
property uchar diffuse_green
property uchar diffuse_blue
end_header
0.02583197306932372 0.010187769977854144 -0.16526023987788335 63 44 37
0.027985622028657276 0.014656477797349469 -0.16850920979935852 61 42 35
0.033318653737281954 0.02562302456231852 -0.17813705547026243 61 42 35
0.0369666189938191 0.03312956790141905 -0.184641901440493 63 44 37
0.03670693636752363 0.032387462691515385 -0.18749254488741973 63 44 37
0.03464505366796302 0.027758830032318674 -0.18997006546682701 63 44 37
0.03266544521758135 0.02330849160057588 -0.1924508063510336 63 45 35
0.03347912506253373 0.024881696671988446 -0.1955148284649126 64 46 36
0.035034122246941524 0.02805269581439679 -0.19874654154973226 63 45 35
0.03569590189511225 0.029297451603364777 -0.20179298389254946 63 44 36
0.03880084837006996 0.035442384752219946 -0.21122503354924624 64 45 38
0.045550832238088326 0.048142305943768275 -0.24223848722019392 64 44 33
0.04801280562244032 0.0532568243732324 -0.2458560314058384 66 46 35
0.04578038361619529 0.047896332203762076 -0.2541055963353234 61 41 30
0.046339799190192536 0.048914812520080876 -0.25721893478812896 63 39 31
0.04793196276185038 0.05215481814887716 -0.26063610478832505 63 38 31
0.048349577367191254 0.052867419870308734 -0.26372133368319206 64 39 32
0.050186909781255284 0.05663348372918586 -0.2672316861184654 66 41 34
0.052772107510035485 0.06200709197410395 -0.2709808004084548 64 41 33
0.053260720279620595 0.06287083627679765 -0.2741121230194892 61 38 30
0.05559275851628025 0.0676981149077924 -0.2778148772501493 61 38 30
0.051118824686964555 0.05789135547099727 -0.2794170165250797 61 38 28
0.052665328356656216 0.06102922795253764 -0.2828831995973125 60 38 27
0.0548982700639903 0.06564188379787624 -0.286580056767442 62 40 29
0.055605058960208446 0.06697326611486844 -0.2898023098767133 61 39 28
0.05171604319904418 0.05842742123223825 -0.29153333609126464 52 32 21
0.06013826869141281 0.07633860915838767 -0.29729228351735965 55 35 24
0.059940782533183024 0.07572519371826306 -0.30024257167748636 53 32 21
0.05981913954796384 0.07527475967165542 -0.3032177800909781 57 35 25
0.0591530645735097 0.07365478573886604 -0.3060076512997224 83 64 57
0.05801254559138497 0.07101597591043869 -0.3086303171908779 75 58 49
0.056371250381413884 0.0673021002842504 -0.3110714456201405 92 72 58
0.05369778514336096 0.061372330065434466 -0.31313892992052117 87 60 41
0.05520634399118374 0.06442369879675808 -0.3166718100088682 83 49 27
0.05352185097709195 0.06061868499729696 -0.3190717765697815 79 43 19
0.05268935212599201 0.05864346875289132 -0.32176883746093937 77 41 18
0.055395736919689964 0.06426512609290347 -0.3257551274181647 74 38 16
0.0583215906105774 0.07016731590727823 -0.3328615300457895 75 43 28
0.061042842981541015 0.07581758129268887 -0.33690600060462683 66 40 29
0.063363426841819 0.0806068445542793 -0.3408187413267191 37 18 12
0.06623187017185236 0.08657040002387376 -0.34495962565678095 50 30 23
0.060393323295421394 0.0738541651149789 -0.34574688124648356 67 42 31
0.06146173865918204 0.07595593610745895 -0.3491951437520899 68 41 30
0.061778408836491244 0.07644484999357419 -0.3523551215853436 65 38 27
0.06934435117551441 0.09247988663318893 -0.3584079229488134 60 33 22
0.0671267454619057 0.08753248278193793 -0.3605812029047952 66 41 27
0.0714507866256475 0.09661183818917177 -0.3653945223588143 69 43 30
0.06970940405382381 0.09268581284279262 -0.3677560188534684 59 38 30
0.0674560546096359 0.08766307121578121 -0.36989406113064854 38 21 18
0.06384913123247783 0.07974007390733201 -0.37145216972657796 65 47 41
0.06062739044562873 0.07264418643713094 -0.37314671644480346 77 56 46
0.060520922876593206 0.07222553996604383 -0.376140042887831 80 55 41
0.06077222937700401 0.07257349329751227 -0.3792865003619422 74 47 31
0.06123915597956608 0.07338323920825338 -0.3825286746872376 73 44 30
0.06275669362847716 0.0764433821178371 -0.3862323149370615 79 48 32
0.06313157785961887 0.07705519771321677 -0.3894464481191661 86 59 43
0.06206865358727045 0.074587314911668 -0.392027908997796 81 56 44
0.05824757663160537 0.06621313723522937 -0.3933717790126871 66 39 30
0.05475936611852888 0.058553438318400805 -0.39483820754053683 65 36 26
0.04694953304749021 0.041454474645777464 -0.3973157829327495 69 41 29
0.04397297738306916 0.034894889983161814 -0.39894066830700414 73 44 33
0.04196739607433181 0.03041490051051926 -0.40099556407759335 70 37 26
0.04028298882350487 0.026623151072264747 -0.40318692398325284 72 38 26
0.03876239520228102 0.023182677842194466 -0.4054440277090882 107 80 66
0.03651123353349739 0.018179647885296177 -0.40734336552283407 107 84 70
0.036176259477440284 0.017277254067423323 -0.41014523037996614 112 84 70
0.036235150334451155 0.01721754012731086 -0.41313563575589884 92 58 39
0.036107883963231655 0.016759553800546376 -0.4160367089444703 89 49 27
0.03516143990293615 0.014549525141645578 -0.41853606733119514 88 49 22
0.03574947503993369 0.015621458956446718 -0.4217871772779331 82 40 16
0.034122260192711466 0.011956134987166925 -0.423941132001311 80 38 14
0.034589449180607766 0.012769554417651152 -0.42713379139174595 76 34 10
0.0342572767457936 0.011873777687741727 -0.4299270605037697 80 40 16
0.03743829251447313 0.018488027221605058 -0.43450562860455777 82 49 26
0.0387859904631127 0.021182210783426886 -0.4381691962926811 84 54 35
0.08732533190274992 0.12354361488762833 -0.48515898424862336 97 74 56
0.08299854758221663 0.11390776791497073 -0.48912711129676434 95 72 55
0.0832336226443739 0.11421221945632186 -0.4924057555901602 97 74 57
0.083517587001712 0.11462087982729775 -0.4957140323600202 97 74 57
0.08414152554850972 0.11575507388615326 -0.4992145001943581 100 77 60
0.08419856410963478 0.11567893343785397 -0.50240281908065 98 75 57
0.08423240730527068 0.11555320937972091 -0.5055793450847424 98 73 56
0.08414297053607914 0.11516434369518674 -0.5086870050410166 100 74 57
0.08405342720886959 0.114775237710618 -0.5117948104611393 97 70 55
0.0878998964472706 0.12278349138105088 -0.5171663537577981 96 70 53
0.08384861235704304 0.11394210263962615 -0.5179961472620962 100 74 57
0.08378485025707547 0.11360795549270014 -0.5211194918244009 103 77 61
0.08300735480074323 0.1117515503204612 -0.5238248505516052 102 76 58
0.08279937582162747 0.11110997039478053 -0.526861272558445 105 79 60
0.08317036204460729 0.11170296658066606 -0.5302406950974247 104 78 59
0.08345190010018914 0.11210502533757172 -0.5335703088153709 102 75 56
0.08384979589012585 0.11275495550855119 -0.5369728121769793 104 77 58
0.08402432664495224 0.1129285180847096 -0.5402440636609764 106 79 58
0.08251752478543634 0.10951838388296323 -0.5424945089175977 107 80 59
0.08271661476132054 0.10974440526793017 -0.545778888685437 106 80 61
0.0828972537670976 0.10993096195777086 -0.5490542537549861 107 80 63
0.08307810689897202 0.11011783618379015 -0.5523319638170695 110 83 66
0.08255531999828969 0.10880550127988711 -0.5551733262352159 111 85 65
0.08271271629351759 0.10894229342518122 -0.5584381460525552 107 82 61
0.08287023427608932 0.10907921676504838 -0.5617050842575171 107 81 61
0.0830277752018243 0.1092160608609524 -0.5649740804048667 106 80 63
0.08318543767901028 0.10935303563209907 -0.5682451985208666 107 80 61
0.08334322162611156 0.10949014076689016 -0.5715184407541334 111 84 63
0.0835010283397154 0.10962716598258858 -0.5747937455851239 117 90 69
0.0836590549956295 0.10976453096180686 -0.5780712421406706 119 92 71
0.08381710428215335 0.10990181550260206 -0.5813508048749685 116 90 69
0.08397527473962828 0.11003922926451477 -0.5846324996047938 118 92 71
0.08141477838428951 0.10439086788734206 -0.5861206594486836 118 92 71
0.0909615175439324 0.12450645747766036 -0.5956321438844077 117 90 70
0.09104207283700003 0.12447678875594913 -0.598893013019523 116 89 68
0.09080511997979898 0.12377155430521705 -0.6019421148635159 116 89 68
0.0887304366848363 0.11915718338418874 -0.6037491844949047 116 89 68
0.08732126364109788 0.11595923448343903 -0.6059936155743739 123 96 75
0.08744735080958263 0.11602695307952554 -0.6092767400731335 123 96 75
0.08769665798652916 0.11635658262796023 -0.6126462858042665 121 93 74
0.08760243939171407 0.11595561882110324 -0.6157814418422012 116 90 69
0.0864512078497909 0.11330741831419153 -0.6181831839840857 112 87 66
0.08903485582938891 0.11859923707113673 -0.6231832602002035 110 85 63
0.08945974546920855 0.11930124868159801 -0.6266891620270624 111 85 65
0.08734141886535103 0.11459787628947884 -0.6284055713097288 109 82 63
0.08727411006405611 0.11425401425751297 -0.6315611396627111 105 78 60
0.08700432673547538 0.11347990152270386 -0.6345727850962054 107 80 61
0.08761415326746819 0.1145746872423109 -0.6382134899110823 108 81 62
0.0873866226184534 0.11389027078763905 -0.6412565900110034 107 81 60
0.0871592204469692 0.11320617840099588 -0.6442989670273366 109 82 61
0.08693184838933482 0.11252220109797031 -0.64734055048797 108 81 60
0.08670460475487388 0.11183854765524132 -0.6503814122974266 104 77 55
0.08647739120708423 0.11115500919226379 -0.6534214812673892 101 73 52
0.08575427604230068 0.10941862269509867 -0.656094313203942 99 72 52
0.0861129700999995 0.10997916531064311 -0.6595660163190479 99 75 55
0.08552622120088116 0.10853256192279681 -0.6623356212576081 99 76 55
0.08501760551543995 0.10725201617350544 -0.6651603259033814 99 76 55
0.0857556084384989 0.10861730495883745 -0.6689219193997964 96 72 52
0.0852545987592312 0.10735297331151493 -0.6717512070661786 92 68 49
0.0847539895694801 0.1060896714100874 -0.6745779287039466 94 68 54
0.08407998972150298 0.10445869135867929 -0.6772691119542118 89 63 49
0.08490417208385909 0.10600609807135764 -0.6811080754903699 89 63 47
0.08184263255477026 0.09931111280999799 -0.6819517945721139 85 59 42
0.08041329495141931 0.09607916905540184 -0.6840406645297435 85 58 42
0.0861690052890533 0.10808456000186543 -0.6917252180195677 85 58 44
0.08639977004357326 0.10837220534791901 -0.6951227719741924 83 57 41
0.0849471441423109 0.10509065667922955 -0.6971969729165757 81 55 38
0.08345888808969186 0.1017342042911315 -0.6992329431573515 80 54 37
0.0823302724197396 0.09914071744563235 -0.7015445972709611 79 52 35
0.08060119229020456 0.09527506124550723 -0.703368898655819 78 51 32
0.08049922685034451 0.09485834664812917 -0.7064872078148604 77 50 31
0.07803817973269915 0.08944281529294576 -0.7077030539416785 77 50 31
0.07587665722931419 0.08466300131455562 -0.7091439478912072 77 51 32
0.07719653936569755 0.08725948006353626 -0.7134033930665926 77 51 32
0.07679598367454915 0.08621095271522917 -0.7162667071341966 77 51 31
0.07596653613679491 0.08425415784383514 -0.7187755275118293 76 50 31
0.07557814926743608 0.08323177035565761 -0.7216430001353243 79 53 33
0.07493730702744092 0.08167492495432327 -0.7242991182476802 81 55 36
0.07422187999580288 0.07996040798368752 -0.7268891678160788 82 56 36
0.07796179287424372 0.08767845769229234 -0.7332022298969477 82 54 35
0.07690327838959744 0.08523719246447663 -0.7355117262776073 80 51 34
0.07773628904365107 0.08679997589631205 -0.7394109270759618 80 51 35
0.0774381241778387 0.08516557426983203 -0.755162546196176 79 50 36
0.06339901925294628 0.05467668742702403 -0.7556519772874319 81 55 40
0.06416794029250154 0.05451943783837987 -0.7847688994898974 80 55 42
0.06485861550711015 0.05577980862301439 -0.7885662112969576 87 62 51
0.06588823230411954 0.05775559067977841 -0.7926814391534563 86 63 50
0.062385497479936915 0.04936734799860547 -0.8052659602357852 84 58 41
0.05984529720738484 0.04321448664357737 -0.8155035480009234 86 59 43
0.06156265083061235 0.04663921806697541 -0.8203064625884522 87 60 46
0.047455033692545945 0.015903693827095416 -0.8223590264605358 85 58 43
0.046917972523181806 0.0145762021815396 -0.8249481835037327 86 59 45
0.048949826439773886 0.018663669063508637 -0.8300634282786111 87 61 46
0.05037368976644106 0.021468733158362674 -0.8345941061626512 87 62 47
0.047388690555599425 0.01459102321098027 -0.8410010896050368 87 54 37
0.04493034207269683 0.009216602476131958 -0.8416545835930378 79 44 21
0.039957474564960155 -0.0018412133600020641 -0.8459461028773254 81 44 18
0.03829494289629292 -0.005536008772513354 -0.8473479977128872 83 46 20
0.04028667269454397 -0.0015363632721699383 -0.8524755414377176 91 56 29
0.04035378443570584 -0.0015893648829091167 -0.8556433668036181 92 58 34
0.04583775331279054 0.009759623066320722 -0.8643942632159145 91 59 39
0.04764195093751565 0.013361166693580062 -0.8693821746480352 88 61 41
0.04715032306223364 0.012130351777742798 -0.8720015099300148 87 60 44
0.05119654377142085 0.020448279857657792 -0.8793460082908907 87 60 44
0.04770187834644074 0.012898453446909125 -0.878836530700573 86 60 44
0.04791822001463068 0.013157186334426058 -0.8821961413410767 86 60 45
0.04700281667003655 0.01103515287345766 -0.8843660949766846 85 59 46
0.0487519138906741 0.01451759815800896 -0.8893469336793408 79 54 42
0.04972541586525786 0.01636806821770212 -0.8935190961288403 74 50 38
0.04903399145267509 0.014717069928630394 -0.8959266010341361 73 49 37
0.05012664740169581 0.016817417516755057 -0.9002364189592493 71 47 35
0.049751020762858957 0.01583044083297705 -0.9029806388603643 68 44 32
0.05017515204606031 0.016524713499659588 -0.9065837383675517 68 44 32
0.05212616343208133 0.020427923343977583 -0.9118404182009495 70 46 34
0.05055821101111409 0.0169348274172422 -0.9132980228639566 75 52 39
0.049858325007584976 0.015266515319869278 -0.9156888780076851 82 59 45
0.05209942283824684 0.01977771966411565 -0.921286192047144 85 61 45
0.05584479242134317 0.02744801706401412 -0.928549762654042 87 61 45
0.054399180229107044 0.024212301440242723 -0.9301356101347699 87 62 43
0.05419457481207762 0.02358378090264865 -0.9330804699972551 85 59 38
0.05476560928499442 0.024584234646578912 -0.9368834178708247 82 53 33
0.05290978293878016 0.020488261143718767 -0.937995335089627 70 40 19
0.05081413810563462 0.015889597592521926 -0.9388264836990639 58 31 12
0.04918679994745705 0.012275048031281599 -0.9401662889683442 54 27 13
0.05087119091758641 0.015613035930910124 -0.9452121342491145 57 30 14
0.0503497234612402 0.01432026582307469 -0.9477870861280385 72 48 31
0.05004034879000825 0.01347280360650549 -0.9505986318628437 79 57 44
0.05125138539081897 0.015815900280680084 -0.9551330471775896 82 59 52
0.05434665979461503 0.022111826850100297 -0.961821956909226 88 66 57
0.048439418510092314 0.009321525334072822 -0.9614134328203616 90 76 64
0.049513846762661025 0.011377085307117951 -0.9658068662500643 90 74 65
0.04832270298360414 0.008680682967945885 -0.9675962839764866 92 74 64
0.045356007529145065 0.002261521953564466 -0.9673225429040417 92 74 64
0.04056278284657541 -0.007985993590927276 -0.9649058697884022 91 73 63
0.039032076119130336 -0.011391418317563795 -0.9662539624056434 90 72 61
0.03773018599991612 -0.014316500941620791 -0.9678585641142343 89 70 62
0.03809766031063459 -0.013742017122065547 -0.9714117394287817 93 74 67
0.03638543616705937 -0.017526313408342847 -0.9725216068470093 95 76 69
0.03550828057695664 -0.01955993426864841 -0.9746048992135355 94 75 68
0.034642120850521194 -0.021570145164620858 -0.9766953031134168 92 73 66
0.034332606515131155 -0.022413801101260955 -0.9794413032896946 92 73 66
0.03334214233793493 -0.02468380762486512 -0.9813740178739351 93 74 67
0.03236642257523806 -0.02692250522884468 -0.983317570419564 94 75 68
0.030569813693598413 -0.030879974231227264 -0.9842694923824395 93 74 67
0.02972132072808885 -0.03285121352027352 -0.9863496382862251 91 72 65
0.028212120778537807 -0.03659351016530564 -0.9938152871731574 85 65 55
0.026259309177372556 -0.040875005551777005 -0.9945301916530949 83 63 49
0.023727146676005464 -0.04636809668050776 -0.9945221977576013 81 56 41
0.02453652059786729 -0.045254279925097576 -1.0047647314266586 73 36 14
0.026210152165592814 -0.041946727213327456 -1.0099237044998532 74 36 16
0.022786042052466288 -0.04930261822026806 -1.0087624244374065 74 36 16
0.01621413625885875 -0.0634317450299116 -1.0067080916983484 71 35 13
0.015651251870897765 -0.06480033437547007 -1.0090591630229568 71 35 12
0.015455165277761616 -0.06559343642138171 -1.0149239925582836 73 37 14
0.015497002942264724 -0.06569762257063963 -1.0180336265157404 75 39 15
0.016909364818454828 -0.06293759762669075 -1.0228846954067432 74 39 14
0.018049795798471893 -0.06074656378023498 -1.0274012795482725 75 43 18
0.01877814993057608 -0.05941714744014956 -1.0314011613278011 79 48 23
0.02123767296406334 -0.05447140569524869 -1.0376259998392388 83 52 29
0.020591227987218488 -0.05601510935467095 -1.0398786152368376 86 57 39
0.020578898790907553 -0.05623407504344992 -1.0429445944536304 88 62 42
0.01861613339685793 -0.06052648487634697 -1.0434891375075421 89 64 42
0.019226205523630996 -0.05944536643380886 -1.0473563424518588 90 65 45
0.019366398178450844 -0.05934569256395557 -1.0506178849135703 90 65 45
0.01934796160558361 -0.059577315176898335 -1.0536744024284634 90 65 45
0.01964681111944328 -0.059146656537682946 -1.057146898042735 90 66 48
0.020015273397043686 -0.05857090094591952 -1.0607139766589972 90 67 49
0.020412902233471347 -0.05793451026606959 -1.0643232050312221 90 67 49
0.02130542154170401 -0.05626566123416889 -1.0685899071693554 89 66 48
0.02217692547121208 -0.05464115282962739 -1.0728366266763327 85 62 45
0.024335598586340507 -0.05033176978203388 -1.078800784345568 76 54 40
0.027703233266312355 -0.043501600611978844 -1.086393296982242 69 45 33
0.02832305892565154 -0.0424044072408275 -1.0903416205114957 60 39 28
0.03347247977281767 -0.03186103834397841 -1.1003655089888353 49 31 21
0.027722304849261168 -0.04404883882253077 -1.0957820512272036 51 31 22
0.027617734660044208 -0.044462654630977275 -1.0987639849886757 55 35 25
0.026856120777052225 -0.04624626451655685 -1.1008578009052405 56 34 24
0.027756256421848206 -0.04456558538879635 -1.105199371075375 57 35 24
0.02362425812620509 -0.05395897501132299 -1.1120407751367802 55 27 16
0.022959642389045576 -0.055538735575783246 -1.1142397162681879 64 36 21
0.022776590835448227 -0.056115098726822354 -1.1170985111587426 73 44 26
0.02254599176301097 -0.05679045948947324 -1.1198909840133375 78 50 32
0.023721806585787465 -0.054536814050069396 -1.1246333420749113 86 59 39
0.023121343449887675 -0.05598257926324007 -1.1269149931719105 93 67 44
0.02293795769529341 -0.05655971883080302 -1.129774607265852 94 69 46
0.02339099386161726 -0.05581190382500008 -1.1335239347767918 93 68 46
0.022603287624567103 -0.05764707114706118 -1.1355371905453244 91 66 44
0.021245014987159985 -0.0606694440302038 -1.1367424996500035 91 66 44
0.020860952789823157 -0.06166378652265925 -1.1393122940904978 92 67 45
0.025958400340059747 -0.05125185279687944 -1.1496341039402032 93 71 47
0.026160769392221762 -0.051027154724990906 -1.153053064566038 89 67 47
0.027094341931870592 -0.04928145598103195 -1.1575146246424435 76 57 41
0.02751942288831057 -0.048593986773844355 -1.1612591070776273 90 75 61
0.02756297162074766 -0.04870031392168758 -1.1644621031623381 119 110 99
0.021943221625451082 -0.061171218178526415 -1.168907706315951 188 187 185
0.0609593861769233 0.10938899337050936 0.08835138234457918 132 113 101
0.06032981988413831 0.10783016536023506 0.0853439733684595 131 111 101
0.056999794398702966 0.10036811020170466 0.08199437979745419 131 112 102
0.05647877724275764 0.09904760517827248 0.07901729862815383 127 108 99
0.056077398080351504 0.097988767520471 0.07605758470313777 125 108 98
0.05570477369932082 0.09699289918044701 0.07310329603240873 122 105 95
0.055284937136441725 0.09589397718199351 0.07014547137918767 121 107 98
0.054745906142571604 0.09453475193579988 0.06717666082882076 122 109 99
0.05572402176606756 0.09649033757544227 0.06437308031786387 122 111 102
0.05540106400265898 0.09560317896269652 0.061427298899950314 123 109 103
0.05457041496094249 0.09360714637826689 0.0584323149575519 121 108 103
0.05344927901715123 0.09097697421947677 0.055414428672208804 120 110 105
0.05220431615708305 0.0880768221827769 0.05239218509650231 128 119 114
0.049881368401901494 0.08282320292554918 0.04928172180048039 140 131 126
0.048317147164443734 0.07922720223299905 0.04625194010038348 148 139 134
0.046248132458178354 0.07452976079456924 0.043190937701545244 150 140 135
0.044207370171196886 0.0698948583765306 0.04014600544843993 148 136 130
0.04232219692255959 0.06560042595777385 0.037126416568158405 143 128 122
0.04078400051563855 0.06206407843842299 0.034144228829388626 143 127 119
0.039919809587524877 0.05999927762376892 0.03121802291121787 138 121 111
0.039130877339930974 0.05809903428170428 0.02830201622142082 134 117 107
0.038296152177801385 0.05609917512689333 0.02538802978702255 138 121 111
0.03739789047043383 0.05396101953963792 0.02247553264577075 138 125 117
0.036387429850686936 0.05157845437193128 0.019562578852153494 144 131 124
0.035378422845164105 0.049199458310667556 0.016656086401133953 146 134 127
0.03428693611770475 0.046640969794554066 0.013752112943436269 151 139 133
0.033550766903808316 0.04485779390821526 0.010870482656804 156 146 140
0.0340386258703494 0.045743991331524375 0.008041931698708125 160 150 146
0.03353662945061152 0.044471681656110644 0.005173338447967892 162 152 150
0.033424735916253584 0.044050025513360846 0.002320268897140788 165 158 156
0.03290702111492463 0.042743713116879134 -0.0005445792141993743 169 164 162
0.032772957997643085 0.04227382699757914 -0.003396723286374328 171 168 165
0.03263396335233012 0.04179320417323404 -0.006248792244974379 173 171 168
0.03262099253537114 0.04158723313856489 -0.009098318869099054 174 172 169
0.03274583369292161 0.04168151692856 -0.011946470333460744 174 173 171
0.0329989106584138 0.04205509925012696 -0.014794824199247065 177 176 177
0.032868456288759715 0.04159296347838793 -0.017648730177380164 180 178 179
0.03348231210242796 0.04275222004103569 -0.020499332868965943 180 178 179
0.03394748475451549 0.04358730246403206 -0.023355170385927167 180 180 180
0.052418811388425454 0.08107969162289105 -0.06728980087058462 78 68 65
0.04993297613960235 0.07549089406703859 -0.07008587378651837 81 68 66
0.04707824292569179 0.06910103426357361 -0.07284287948166314 93 78 75
0.046106964519431456 0.06680730296076481 -0.0756998613003029 106 91 87
0.045887505952896826 0.06614835388242644 -0.0786011112929262 102 86 80
0.04488987661099305 0.06379794351623425 -0.08144661186863733 90 70 60
0.043852771746653973 0.06136212973786845 -0.08428283762832149 76 52 38
0.04426115020037879 0.062068131972927224 -0.08722487989164515 65 39 23
0.048325249227994256 0.07071789676464586 -0.09046809541880801 64 36 20
0.04460631162126196 0.06245475587913342 -0.0930800346236745 59 34 19
0.04281158442113931 0.05837373575842708 -0.09583648789600441 78 57 47
0.04150692513859 0.05535807247896912 -0.09862601782598074 82 64 57
0.038868404932044506 0.04944561310657781 -0.10127935447315398 85 65 58
0.037033209148552175 0.04527903556847114 -0.10399432110384128 88 66 60
0.03434318700228878 0.039256810723269864 -0.10660899688842618 92 67 62
0.028228337892206027 0.025798839744470947 -0.1088406350379567 96 72 65
0.02468005193780707 0.017916188956095598 -0.11131159250784432 99 75 66
0.021643169377247348 0.01114534413513766 -0.11381597614294356 101 78 68
0.02170618557307007 0.011105058937749199 -0.11666264737139805 133 111 100
0.017334293439013167 0.0014384072134401606 -0.11897486237175127 137 115 102
0.017814719132036853 0.0023048864821464676 -0.12185997598410676 124 98 84
0.01889612499550884 0.004475304778518593 -0.1248262106669106 93 59 38
0.019398245149374656 0.005388198288882769 -0.1277247701044549 81 41 13
0.019876806253512937 0.006249703367428822 -0.13062452132902386 80 39 11
0.019198897904909723 0.004602040230469284 -0.13336802911197948 77 39 14
0.020339610078475137 0.006899636498508218 -0.13636629057052124 75 38 14
0.018147642176969007 0.001968075798381437 -0.13888717922413735 69 34 13
0.01833435859411934 0.0021962932736543754 -0.14174875385050725 66 32 13
0.018118063071031445 0.001550425163317451 -0.1445507297501354 63 35 20
0.018115323829515653 0.0013676668874105895 -0.14738538808616006 61 39 27
0.018345021468412517 0.0016888098154302263 -0.15025806127480978 61 41 30
0.018120468927031348 0.0010250406410087995 -0.15305869681976414 63 45 35
0.03667542153971956 0.03943647276600398 -0.18517802203663833 62 43 36
0.03588928615030555 0.037552545091381354 -0.18793010143153308 62 43 36
0.032822702393944615 0.030731333536862047 -0.19020479007744237 61 42 35
0.0309337232764662 0.026460919037205266 -0.19270636469213062 61 42 35
0.0318064047349467 0.02816956339188168 -0.19578724326526203 62 43 36
0.03287632235476287 0.030304684236408322 -0.19891822341007864 62 43 36
0.03451003749011353 0.033659489962920265 -0.2021826974919222 62 43 36
0.03682499075879615 0.03848774692011781 -0.20561324216485607 62 43 36
0.03801340108460838 0.040877261954602354 -0.20880347480120415 62 43 36
0.03714739421381168 0.03882124420690036 -0.21152543517630557 62 43 36
0.03677583880611822 0.037835253723519695 -0.2143586758432899 63 45 36
0.035282196351719676 0.034240281969864075 -0.21983681507364455 64 46 38
0.04365609568453574 0.051064802162662945 -0.24252022321745667 64 44 35
0.0458223400714501 0.05556216651679073 -0.24606282743558755 63 43 33
0.04567856144344433 0.05469733120482508 -0.2549082355949011 61 41 30
0.05086939350447481 0.06572582430646758 -0.25936065214359844 63 41 32
0.04281655236989126 0.04814577289597985 -0.26000379563076914 63 41 33
0.04403784189138515 0.05059920655046564 -0.26331742084951293 64 41 33
0.04514584838615354 0.05280739763942078 -0.26660699766825513 65 43 35
0.0466014936624305 0.05576569378753642 -0.2700102382819738 64 41 33
0.04789215659344979 0.058367069061095636 -0.2733745466457262 61 38 30
0.047413442290657075 0.057147985810994756 -0.2762028065124484 61 38 30
0.048922778123259666 0.06022052213730768 -0.2796493952192516 60 38 28
0.049196325407274935 0.060624999967225354 -0.28271726894969906 57 35 24
0.050149266624679244 0.06249555019239745 -0.2860051187015376 64 42 31
0.05217427381324885 0.06667907331348365 -0.28964732009019833 60 39 28
0.048108498608940134 0.057719450741104524 -0.2913137855256651 50 30 19
0.04921307194171698 0.0599165904012304 -0.294660661599001 54 34 23
0.055805128122866164 0.07395110689788223 -0.2998504912264935 55 33 22
0.05600792757841251 0.07420073556247485 -0.30293043703215067 70 48 37
0.05564055585680372 0.07322047226274253 -0.3058179575898474 86 68 58
0.05373275880648745 0.06891827760526081 -0.30817190372064085 82 65 54
0.05168288332311107 0.06431052938396009 -0.31046318479687535 89 69 54
0.04955781583744575 0.05954154033771598 -0.3127138150444635 83 56 38
0.04992998742037995 0.060157252749060156 -0.3158390832003096 82 48 26
0.047562879681110434 0.054867770847706825 -0.3179823439133207 81 45 22
0.048284957434799186 0.05623786754969461 -0.3212318483106675 84 48 25
0.051626271149845915 0.06325259010820915 -0.32544895079609654 77 41 20
0.05317466132077148 0.06621428722357445 -0.33203663349072854 73 41 27
0.055519282486865766 0.07107805378082002 -0.33593392758027096 63 37 28
0.05788219030961229 0.07598009363126099 -0.33985618607283735 38 20 15
0.06070856337867707 0.08187933970134878 -0.34397518195517574 39 22 16
0.05808361506669957 0.07603595936345142 -0.34599489199440353 60 38 28
0.06038249879851898 0.0807977568161446 -0.3499298357622403 63 39 27
0.057032783434057974 0.07339484393523349 -0.35164351111268377 63 39 27
0.06477597426553962 0.08987817179220671 -0.35777102828467383 66 42 30
0.06514653785108358 0.0904851737363335 -0.36097980209025265 64 40 28
0.06714055648805994 0.09458676415529119 -0.3648534741530546 68 42 29
0.06610005299580929 0.0921556710774166 -0.36749531697221083 62 41 31
0.06389241331418266 0.0872130425859946 -0.3696463523270654 37 20 16
0.06053273883629476 0.07979217855076859 -0.37130004740941247 52 33 29
0.057348246525039295 0.0727497545064147 -0.3730038531316213 72 52 43
0.05671822125795367 0.0712048126251649 -0.37577258477218 80 55 42
0.053352148139768914 0.06377397705718624 -0.37736269943069745 72 47 31
0.0564648848121211 0.0702811782617113 -0.38173463096622184 73 44 30
0.06122930274943226 0.08033944865944777 -0.3868516134341954 72 41 25
0.0587923126653788 0.07490785888366719 -0.38883287972787683 78 49 35
0.0582742726046289 0.07360386181181916 -0.39164924504410087 81 56 44
0.05379874836638982 0.06379074825312087 -0.3926906180285494 66 38 29
0.0503860078950636 0.056264568298762724 -0.3941796865209079 64 35 24
0.04331337363052452 0.0406854984369045 -0.39697157205981837 66 38 26
0.04115459609553897 0.03585901481331163 -0.398966791186089 64 36 23
0.03907074255014221 0.031194485567427724 -0.40098186019875026 71 39 26
0.0379181363929017 0.02853192905414227 -0.4034199441773644 72 38 24
0.036521820374905915 0.02534622293174897 -0.405734948204407 105 78 63
0.035111317675775904 0.02213062986685066 -0.4080337075221934 110 87 72
0.03423363243621247 0.020060186388741547 -0.4105791190990903 115 88 73
0.033698194999931055 0.018725203866334875 -0.4132847244779124 94 62 42
0.03248789152337944 0.01594103906388325 -0.4156576696523325 89 50 25
0.031112652553037936 0.012803194264215195 -0.41794135499168233 80 39 14
0.03350123642845489 0.01774758323042637 -0.42208128997089933 82 41 16
0.031624125065649 0.013532535758670847 -0.424109580022077 79 37 13
0.03160315121540584 0.01330293137065773 -0.42705854709835883 78 36 12
0.031236346993859063 0.012330960497026394 -0.42983292705432913 81 41 17
0.03377907038016462 0.017603742504369302 -0.43409053650142415 85 51 28
0.03454233293995203 0.01905650660802606 -0.4374528786488869 84 55 35
0.08011269740728594 0.11528314814548514 -0.4860424402341762 94 67 46
0.07995331110049529 0.11474503596647533 -0.48910413853445023 92 66 45
0.07982619127356544 0.1142761140382256 -0.4921833066263976 96 70 50
0.08051420988330675 0.11555444670748295 -0.49571468024486814 98 72 51
0.08063469516109985 0.11561603007694117 -0.4989350235480153 99 73 52
0.07869215262077658 0.11125635588621281 -0.5009971561695535 96 69 47
0.07910578357858966 0.11194635125285489 -0.504379286076786 95 68 46
0.07952114110367195 0.11263980031821964 -0.5077663375387279 95 68 46
0.07951383772812791 0.11242751785601504 -0.5109149874320031 96 69 48
0.07950650407566262 0.11221511968699636 -0.514064435178211 96 68 47
0.07952653145285969 0.11206127472319723 -0.517230590403335 92 65 43
0.07855052130039145 0.10977420338394787 -0.5198155382874903 90 63 42
0.07808233251010117 0.10857498759241699 -0.5226928332684256 91 64 46
0.07811298947430836 0.10844405588843367 -0.5258628222736879 91 63 46
0.07830195433829594 0.10865198557296543 -0.5291282122115828 90 63 46
0.07975892599854716 0.11157422284291482 -0.5331559380491986 90 63 47
0.07987617190909006 0.11162806070907694 -0.5363873418154051 95 68 51
0.08246170299215998 0.11696455553691168 -0.5411183812307728 95 68 48
0.08390381807430393 0.11985285623590979 -0.5451713984473714 95 69 47
0.08406964820440302 0.12000944677094648 -0.5484520085638092 98 67 46
0.08304126632531311 0.11681784455903962 -0.5637110833864332 105 76 50
0.0813291504488945 0.11295827864380512 -0.5658018424571652 104 75 50
0.08117395797436365 0.11242841498725638 -0.5688777481731797 104 74 48
0.08101199326056686 0.11188409021662449 -0.571949011452102 99 69 42
0.0809840036310112 0.11162618466474743 -0.5751067403656888 98 68 41
0.08019448193969778 0.10974048737735632 -0.577768932115257 101 70 43
0.08056144732017234 0.11032678717855256 -0.5811839795790242 103 73 46
0.08089379486193563 0.11083888283712133 -0.584579831743222 106 76 49
0.08156668274111611 0.11207842463144392 -0.5882047556589447 109 79 52
0.08203741706433129 0.11288568961921731 -0.5917008470759744 109 78 51
0.08187742233818787 0.11234525229412166 -0.5947785783526843 110 79 52
0.0817660433947783 0.11190868128589954 -0.5978887621896659 109 78 51
0.08164415776582888 0.1114496667002792 -0.6009918735652154 110 80 53
0.0785680586939824 0.10468162905764777 -0.6020816709571754 111 82 53
0.07894901093878239 0.10529705217792261 -0.6055182286730719 112 83 55
0.0791036221734816 0.10542897385465201 -0.6088025733556536 114 85 61
0.07934686051201764 0.10574997857041799 -0.6121503507216322 117 88 63
0.07956929799782987 0.10602641178246709 -0.6154863439334844 117 88 61
0.07986060208373622 0.10644967730310194 -0.6188731072890612 114 85 58
0.08006960062095196 0.10669709506923719 -0.622204995738437 113 84 57
0.08027880282990077 0.10694479467804276 -0.6255394780814422 111 79 53
0.08163475699096691 0.10963920377835552 -0.629692290065106 109 76 51
0.08156959537256293 0.10930097419270614 -0.632839749444358 111 78 53
0.08149334204528523 0.1089390583198143 -0.6359796307684085 108 77 51
0.08139345588955631 0.10852671334304367 -0.6391027455332191 105 76 49
0.08129366270569063 0.10811455816491143 -0.642226063990926 104 74 47
0.08119376648030344 0.10770217470575782 -0.6453494441098762 104 73 46
0.07956382527086046 0.10402722460413917 -0.6473499213389632 99 69 45
0.07944120877682306 0.10356674096580012 -0.6504510629737282 95 67 44
0.07931869156007601 0.10310647122303025 -0.6535522421417119 93 65 43
0.07928911306975048 0.10284431419986773 -0.656722650068419 92 64 43
0.078767078648598 0.10153249990217708 -0.6595248588634053 91 63 42
0.0790195831734525 0.10187153849026162 -0.6629070907948245 91 63 42
0.07874307884439972 0.10108312710692643 -0.6658918868573678 89 61 40
0.07857692662050975 0.10052991595766661 -0.66895939081428 85 58 37
0.07793712603883315 0.09896764257882804 -0.6716646255839273 86 59 39
0.07737575076016211 0.0975726773015832 -0.6744261473198682 87 60 42
0.07663017412817905 0.09578557493678892 -0.6770421946432563 87 60 41
0.07582519757682467 0.09387226089560685 -0.6796074525796442 83 56 38
0.07684974585258168 0.09585526475630492 -0.6835930018802572 82 55 37
0.07629985143305809 0.09448530744555692 -0.6863545005148045 81 54 37
0.0761430648867617 0.09395249643742971 -0.689421993174272 79 52 34
0.07549793368356367 0.09238011272633108 -0.69210317192552 78 51 32
0.07480837272334295 0.09071340542131616 -0.694745081860196 78 51 32
0.07427750785178107 0.08938472595450864 -0.6975093146626655 78 51 32
0.07419210495254283 0.08900422883917213 -0.7006275904588216 76 49 30
0.07524272220858547 0.09104101369076352 -0.7046612414580294 76 49 30
0.07211200084808733 0.08418091105889948 -0.7053195973791058 76 49 30
0.07137623913548505 0.08241724969968252 -0.707902565663132 77 50 31
0.07517896289725026 0.09030795386775048 -0.7141883302905582 78 51 32
0.07419417357383834 0.08801414358593808 -0.7165747304554423 79 52 33
0.07304138054487724 0.08536345124472886 -0.718816059653895 79 52 33
0.07262854320094032 0.0842867262169753 -0.7216624179537795 83 56 37
0.07246022709879699 0.08373004517632869 -0.724709987573782 84 57 38
0.07319009386170754 0.08508290528082167 -0.7285078804680997 82 55 36
0.07367945269791333 0.08592410757441463 -0.732110258051565 81 53 34
0.07375003024216456 0.08587490123388818 -0.7353640381738608 81 52 35
0.07450263261316833 0.08727509261771439 -0.7391970336977959 80 51 35
0.06661187743336146 0.06991196536070182 -0.7420226464457051 79 50 36
0.06605740345807339 0.06853625754219052 -0.7447164140258734 79 50 36
0.0628961742334527 0.06162378117667722 -0.7451490832829707 79 51 36
0.06305130525849817 0.061756199754917196 -0.7484436135902185 79 52 35
0.06200358191220118 0.05933409159910415 -0.7506892510585219 78 51 35
0.05985580152157643 0.05221494890681187 -0.7898287221520912 83 60 43
0.05429822429882224 0.04003820033436173 -0.7909792721516482 80 55 37
0.05668052565139865 0.04489229544181621 -0.7963475595292315 86 60 41
0.05959276172463334 0.050868441598887246 -0.8022321828486566 86 59 41
0.06122807797470666 0.0539391544405772 -0.8101076813058865 80 53 36
0.06141759046234643 0.05414288777111442 -0.8134594799446156 79 52 35
0.056926415617613677 0.044429840702082835 -0.8123498266593114 82 54 38
0.055171049188980456 0.04051438603756706 -0.8138262395890233 84 55 40
0.056509340341283826 0.043152548163517324 -0.8182640547497618 84 55 41
0.051296291414444 0.03113160804669264 -0.8289485131079499 80 52 37
0.043066645598170736 0.013515799009070531 -0.8239903582159528 86 58 42
0.04583535547982027 0.0191816863442498 -0.8298371992303255 87 59 43
0.04766504042137806 0.022858991979406995 -0.834774696191407 84 58 42
0.046062342054170965 0.019272430696805787 -0.8363093730823623 83 56 39
0.04610496251763049 0.019167689408152278 -0.8394772352203829 83 53 36
0.04499023502297812 0.016614472743940595 -0.8414850324644741 82 48 29
0.042133236888007956 0.010376330913526993 -0.8417303132741453 78 43 19
0.03602753431201906 -0.003117190327847519 -0.8448513882824755 81 42 17
0.036266376493476346 -0.0028050418383572945 -0.8481876361926671 87 48 23
0.03744801952293361 -0.0004998945810373856 -0.8524942732463662 90 53 27
0.03698963262326822 -0.001662147807982628 -0.8551212312819996 92 58 33
0.037513996975102964 -0.0007470803657859404 -0.8587617785704161 91 58 38
0.042269175650308244 0.009108970051871973 -0.8667984625587483 88 62 40
0.04078854970450439 0.005785600886618947 -0.8683763431845293 87 60 43
0.04430813771527074 0.013027806923804869 -0.8751719609998451 87 60 43
0.04663411081962671 0.017746575569598938 -0.8807428776459603 85 59 42
0.045877842376513205 0.015953203583477293 -0.8830860561995785 84 58 42
0.0448743850005589 0.01363803343292308 -0.8851629846762051 84 58 44
0.04493021338594981 0.013560431669017187 -0.8883569615988637 80 56 43
0.04499538266523344 0.013502473315347457 -0.8915621950150089 74 50 38
0.044803268628115483 0.012901186863262692 -0.8944938556667296 73 49 37
0.04559583948226424 0.014378818062656618 -0.8984810291603458 71 47 35
0.046613775854344494 0.01633175413236565 -0.9027177709001144 68 44 32
0.04563389048564524 0.014067277163140796 -0.9048051076662171 67 43 31
0.047656998377031926 0.018141012003066198 -0.9101413098669039 70 46 34
0.048311364560984255 0.019325328362700456 -0.9140048694235064 76 53 40
0.047530169137549 0.0174802226130632 -0.9163070038959051 81 58 44
0.04836732321307381 0.019049784811627835 -0.9203771682616091 83 59 43
0.052536070721994996 0.027646987410512636 -0.928117846257839 86 60 43
0.05078081578448242 0.023746688702224766 -0.9293551442368942 87 62 43
0.049167021078702626 0.0201455261741518 -0.930736413024057 88 61 41
0.05005851935498384 0.021828268188201827 -0.934889754724947 82 54 34
0.04969877911943226 0.020872204381613857 -0.9376557817042602 70 40 20
0.04755722032522874 0.016159603189944582 -0.9384263629404277 58 29 11
0.04581890121573942 0.012298042569528767 -0.9396339972544736 54 25 10
0.04932485747920114 0.01949138061498093 -0.9467370902146754 59 31 13
0.04656038384320277 0.013467394689759882 -0.9467798992015614 68 43 24
0.04616840109584089 0.012444383784611351 -0.9494933270294853 74 51 36
0.04814414297622327 0.016410587739618093 -0.9548994802260754 77 54 43
0.04921221382737741 0.018463429251031005 -0.9592852208099418 86 64 53
0.04685662691017324 0.01330329297552224 -0.9597569177736657 88 69 57
0.04341701010593745 0.005860842512498854 -0.9589648640539451 92 76 65
0.04291058249764873 0.004597748203339608 -0.961530946893586 91 75 66
0.0435629945668165 0.005775258700657843 -0.9654353862982856 92 75 65
0.04049508631196644 -0.0008813727064185539 -0.9650249624594308 92 74 64
0.03960864665519377 -0.0029436478958476675 -0.9671336702203048 91 73 63
0.0378169593824105 -0.006911265452354987 -0.9681780064954475 89 71 60
0.0346980835304956 -0.013671730928687315 -0.9676524795454193 88 69 61
0.03692402816452186 -0.009181479377704582 -0.9733940687841043 94 75 68
0.034797149106475814 -0.013852710111619149 -0.9740139887461462 93 74 67
0.0328021889247577 -0.018245379667058442 -0.9747745592284408 89 70 63
0.031271181609611225 -0.02166099157229591 -0.9760719559969866 91 72 65
0.02991871058130593 -0.024700323458158424 -0.9775712335913788 92 73 66
0.029832633590893564 -0.025075204230928114 -0.9805759160932968 93 74 67
0.029568366628920453 -0.02582487603424634 -0.9833669380468939 93 74 67
0.024123205329836913 -0.038240568426502586 -0.9922746349536531 84 64 54
0.022655802434603026 -0.04151754175611298 -0.9935704055551831 83 63 50
0.02044004869925013 -0.04636655434439489 -0.9939370450044178 81 56 42
0.021124322204735303 -0.045505205914049496 -1.0040234969994968 72 36 14
0.022230114815203088 -0.043374738980152844 -1.0084819761833477 72 35 15
0.019494012235463716 -0.049314134192932846 -1.0081592843116427 71 34 15
0.013373120417737652 -0.06274190571528677 -1.0096956760863305 69 33 12
0.014468595089428708 -0.0606328300323081 -1.0141368016348127 70 34 12
0.016451110633427236 -0.056662338032344606 -1.0197107606625666 70 33 13
0.015445106087130431 -0.05896539593051907 -1.0215045268744567 69 32 11
0.01598039120342198 -0.058033419143161874 -1.0252553428443283 70 34 12
0.016027930936940025 -0.05812523626444434 -1.028387778522181 71 39 15
0.018800165424122998 -0.0525003301388372 -1.0350147982796858 74 44 20
0.017785342318332373 -0.05482169730200373 -1.0367941582141014 81 51 28
0.017092046488785363 -0.05646817020947814 -1.0389811979184838 86 57 38
0.01679381282083829 -0.057285751176965966 -1.041674831525784 89 62 43
0.015135041125939528 -0.06095651691942014 -1.042601356947014 90 65 43
0.015827044802505373 -0.05969713148001414 -1.0465757002811944 90 65 45
0.01569405272096668 -0.06016788963832935 -1.0494792307874634 90 65 45
0.01590638240488276 -0.05991469268268336 -1.052834791646179 91 66 46
0.01614849972525305 -0.05959921335163673 -1.056232012468629 90 67 48
0.016347023014452147 -0.05937527755058096 -1.05957457573505 90 67 49
0.01738572580050184 -0.05739072816963085 -1.064029668860325 90 67 49
0.018406556585974503 -0.05544419145907516 -1.0684701000163093 89 66 48
0.0212037580077303 -0.049776336110526787 -1.0752804093626416 86 63 47
0.019169777105425976 -0.05423107269250238 -1.0756734157492112 79 56 43
0.02424765783219916 -0.04378749334557125 -1.0855596108680858 70 46 34
0.02494483633053792 -0.04252173756204246 -1.0896125356315014 58 37 26
0.02524909957887076 -0.042079234359586215 -1.0931434233377706 50 32 22
0.025166697864780683 -0.04244660705036854 -1.0961560756122544 45 25 16
0.025971111520175588 -0.04095723180786483 -1.1003685382764254 46 26 16
0.02274774843554341 -0.047900445194172886 -1.099124111420145 53 32 21
0.02471638689774076 -0.04397396611120391 -1.1049191320339047 56 34 23
0.026479446619545894 -0.04047878571702225 -1.110450017841684 53 30 18
0.018965783227705195 -0.056785775299389454 -1.1095110086568796 56 28 17
0.020280367688596652 -0.05422935660345243 -1.1144315674900511 59 30 16
0.02018920811518705 -0.054614144569304635 -1.1174175992305546 71 42 24
0.020154770449427838 -0.054880307127123315 -1.1204825321471474 75 47 28
0.019938816801222024 -0.05552611000441157 -1.1232954015628869 86 60 37
0.01972796130238971 -0.05616120143067678 -1.126114570005863 91 65 43
0.01972080821549935 -0.05637034423097717 -1.1292181275735662 92 67 45
0.019796326352180777 -0.05640671042244985 -1.1324385730253528 92 67 45
0.01930247751446019 -0.057633318779773776 -1.1348589391250936 90 65 43
0.01904224157003292 -0.0583714749259167 -1.1376060976332563 90 65 43
0.01960301961431078 -0.057393794000746304 -1.14151440076029 90 65 43
0.021461561689041873 -0.05370468247769336 -1.1472703946439125 90 68 44
0.02310376557911029 -0.05046854137322246 -1.1527339783475274 89 67 44
0.024868699670478698 -0.046976872880643755 -1.1583866329961434 74 55 36
0.024720689300587854 -0.047481937348221565 -1.1613157357353083 84 70 53
0.023331291269912926 -0.05057972073339387 -1.162462598233677 111 102 89
0.022405267515464795 -0.052709195037953696 -1.1642663540535885 146 142 134
0.06247483842355263 0.12023922691605751 0.09475409435115932 120 91 68
0.061172415147137955 0.11719765103154842 0.0916349760762527 113 83 61
0.06102245769931714 0.11668643090005314 0.08868041306624813 111 81 61
0.06079105767881364 0.11599646669740286 0.08571537158576946 113 85 67
0.05955339138069053 0.11309809147051962 0.08262194280334655 117 89 71
0.05824009353100887 0.11003423706348613 0.07952702456877093 116 88 71
0.05819046394003438 0.10974374177483545 0.07659395718493635 113 85 68
0.057814980313340286 0.10873827832939656 0.07362205870378415 110 83 65
0.056134378122463406 0.10486971794516549 0.07050287008084005 100 74 58
0.05516798546222508 0.10256854628083616 0.0674738802166128 96 72 57
0.05242072179528111 0.09636159749311762 0.06426001476304749 86 61 48
0.052476803960824214 0.09630403393948594 0.06135543341776163 79 49 39
0.05184755278364557 0.09474349173161631 0.058381047517272994 80 54 43
0.05121904584701066 0.0931848092190251 0.05541040487280909 87 66 54
0.0514131653032857 0.09342997553111207 0.05251997195388931 99 77 65
0.05033839130932277 0.09089321791911704 0.04951380901102275 102 80 69
0.04856133476245063 0.08663742227435055 0.04355268358201758 118 94 81
0.045312743119928 0.079337637922727 0.04039426494459747 121 96 81
0.042767254259867896 0.0735800254275689 0.03731106674194368 129 101 84
0.04207519339110441 0.07188470885461376 0.03437817481936867 132 102 84
0.04145332531798197 0.07034343943749674 0.03145420523317875 129 99 80
0.037019853317088944 0.06045210370455298 0.028287365892621416 131 99 80
0.03565520239315399 0.0572850334415514 0.025338806366296693 128 98 77
0.03478561798123794 0.055202868069497875 0.022427667845242548 119 90 69
0.03373138890142631 0.05271664884208294 0.01951196131665686 119 90 69
0.032681789605652906 0.05024098519961337 0.016603208932605026 117 89 68
0.03161500022449203 0.04772809629882534 0.01370034051380823 116 88 68
0.03162842021038341 0.04758067593098818 0.010851117025364291 117 90 70
0.030922406808102303 0.04585820960074459 0.007972397213529893 114 88 69
0.029897255537915206 0.043437417086917486 0.005086365208827329 109 83 66
0.029203717544911377 0.041742854808486496 0.0022176959193522085 105 82 64
0.028680444214039987 0.04042118376633282 -0.0006418476826308209 103 80 63
0.028962340929771048 0.040861672967031894 -0.0034778550729736004 100 79 61
0.029210381269123873 0.041227908462624266 -0.006317384491134844 96 77 59
0.029536916044731756 0.041765723493816444 -0.009158004041062505 95 73 59
0.030796303032129834 0.044344115169483264 -0.011987848349486201 93 73 61
0.031778644752687976 0.04631588083635833 -0.014830574311840292 100 82 73
0.032475419594637844 0.047662565426764655 -0.017683288512189147 102 86 80
0.033422025881773156 0.04955527557747801 -0.020540703388922325 106 91 87
0.03432644301126798 0.05135526021279433 -0.023405672489282124 113 103 98
0.03477834061482176 0.05216533542117001 -0.026276532474195306 118 110 104
0.03537131543232445 0.05328360474762481 -0.029152316804214706 122 116 112
0.03665434845658333 0.05591011075477126 -0.032040082847090555 125 119 116
0.037655324889211673 0.057919453826524234 -0.03493393570327927 132 126 122
0.04077111878788849 0.06455060493387217 -0.037872186955283056 136 130 128
0.043659793473948674 0.0706839680724697 -0.040828758511390305 134 126 126
0.04754381204659278 0.07899105667063212 -0.04383104116027273 115 108 107
0.05256634016565752 0.08978402601581394 -0.046893722677217566 109 102 101
0.05619341606079163 0.09752595278753348 -0.04994910309575825 127 121 119
0.0476761272877507 0.0778282209084263 -0.0672380405106581 77 67 66
0.0460282601575604 0.07404882688496106 -0.07007381307517807 82 71 69
0.04305910789430084 0.06738573870767149 -0.0728190474829441 88 76 74
0.0432224272595428 0.06756143971621635 -0.07574354567398216 96 82 79
0.04241961698053408 0.06562837886496362 -0.07860493185414912 96 81 75
0.041535116351716264 0.06351734992118625 -0.08145555538536417 84 65 54
0.04134124290720417 0.06291369650804046 -0.08435209600336455 70 46 32
0.041442394419824155 0.0629537943230326 -0.08727108277234032 65 39 23
0.04294676002008698 0.06605515356392427 -0.09030624115005505 64 36 21
0.040610697270272424 0.060778086731566316 -0.0930254083712721 57 31 17
0.03850995447533838 0.0560152983145087 -0.09574950585505555 75 54 44
0.036502465760850714 0.05145678492730872 -0.09846792457005958 81 63 56
0.03438119198948719 0.04665097723852589 -0.10116177232632545 77 57 50
0.032147929532460054 0.041601868811857526 -0.10382999559220193 86 63 57
0.030231060612402855 0.03724355230783141 -0.10651561828571202 94 69 64
0.024372065503525567 0.02429176096514156 -0.10876696714043388 105 80 74
