ply
format ascii 1.0
element vertex 683
property float x
property float y
property float z
property uchar diffuse_red
property uchar diffuse_green
property uchar diffuse_blue
end_header
-0.1337857325516344 0.1319387436865797 -0.13944705544529515 49 26 12
-0.1332624854395133 0.13191821424557412 -0.14234996602602998 47 24 11
-0.13235007370567303 0.13193623175330135 -0.1452819708056623 47 26 12
-0.13731856038049248 0.13137076776117346 -0.14781292843902 46 31 20
-0.1341577808308051 0.13161175518950927 -0.15090241666270088 46 34 28
-0.1324111810601496 0.13171229055512693 -0.15390109521333575 49 40 35
-0.1314969776510187 0.1317301821183161 -0.15684524247753134 50 41 36
-0.13021036342067083 0.13178485604647494 -0.15982139156867217 51 42 37
-0.08516793326081798 0.13422069189432087 -0.24336049267826296 45 34 30
-0.08827337998879624 0.13384099439637367 -0.24598199293303286 45 34 30
-0.07502022826261141 0.13506334887748409 -0.25054978134319666 45 34 30
-0.09485091882998356 0.13304633633828714 -0.25115589301288643 44 33 29
-0.08968167311075892 0.1334768949006023 -0.25476632382676995 44 33 29
-0.0887876161661683 0.13348888733430742 -0.257863463925711 43 32 28
-0.08433846600874485 0.13384833712796446 -0.2614114692734547 43 30 24
-0.07724137583808376 0.13446617536682645 -0.2653114490581147 40 27 21
-0.08054867353810873 0.13406705966701774 -0.2678950918033312 40 27 21
-0.07818865765106311 0.13422156452127024 -0.271208354958022 41 28 22
-0.07772395967031234 0.13419085229273825 -0.27428037928613574 41 28 22
-0.07243942582634653 0.13463033406887212 -0.27799822220404224 41 28 22
-0.0722800343277215 0.13456951477043702 -0.2810421304347438 41 28 22
-0.06585231814502283 0.13511974885952696 -0.2849436113934305 42 29 22
-0.06795057160114172 0.13483857962195914 -0.2876892788949261 45 32 25
-0.07018197650608281 0.13454456979800397 -0.2904112134300369 36 23 18
-0.07001217025748906 0.1344845123832664 -0.2934665746845222 32 18 15
-0.0689199725864838 0.13451418621022035 -0.29665548998636054 31 17 14
-0.07104778890802309 0.13369308519369583 -0.320652726709844 41 22 15
-0.07223602696337127 0.13350094501112528 -0.32351029718416685 37 20 12
-0.08170360334776204 0.13250626953163988 -0.32505480067250214 40 23 14
-0.08181524674259733 0.13241889583007277 -0.3280668996374395 46 31 21
-0.07743921945744467 0.13276617381799646 -0.3318045185310326 44 31 23
-0.07365692920649745 0.13305558496022632 -0.33546042272862703 31 20 14
-0.07317237144375648 0.13302550301548133 -0.33858684176836046 20 11 6
-0.07322470633644002 0.1329434077298832 -0.3416269682155495 28 16 12
-0.06839037090779865 0.13333383355182407 -0.3454878155941247 31 20 16
-0.0645085690564914 0.13363176708544483 -0.34920396818194416 26 17 12
-0.062459988205125924 0.13375222650902704 -0.3526205057911754 24 15 10
-0.0648493439551846 0.1334438571227584 -0.3552797518273351 23 14 9
-0.05458865959226661 0.1343569246886128 -0.3601336530547183 23 14 9
-0.06224552222803801 0.13354002567308493 -0.3618758877232365 30 18 13
-0.06112673538158896 0.1335702369848725 -0.3651497546906622 21 11 9
-0.059738635603704404 0.13362629247393598 -0.3684766612905333 28 16 13
-0.05945951387090017 0.13357531332951134 -0.37160943688576675 45 29 22
-0.06379910746797807 0.13307928489992715 -0.37390468647133135 54 37 29
-0.06615680116841423 0.1327744339002231 -0.37655117091645063 46 29 21
-0.06433821997022819 0.13287176734222522 -0.3799641445029214 36 19 11
-0.06653819507581606 0.132582230959292 -0.3826345900065879 36 18 12
-0.06609111194276093 0.1325474446538892 -0.3857974882588992 36 21 13
-0.06903468728126541 0.13218658767787608 -0.38831999017030555 40 24 15
-0.0720868025606387 0.13181549829700512 -0.39081385493751514 64 45 35
-0.07724474437551868 0.13124231693779773 -0.3928933756158845 52 29 21
-0.08949628085144812 0.12991128478008152 -0.3966283640520675 47 25 13
-0.09567527486544962 0.12924134219698702 -0.3984584140844336 43 22 12
-0.09840053982033647 0.1289030948380697 -0.40095821797891096 44 22 13
-0.11089861372821289 0.12709304491757442 -0.42266707267064224 51 21 11
-0.10904242523475487 0.1271938157088681 -0.4260942434185165 54 22 10
-0.10723089348097112 0.12729013745303328 -0.42951909573163677 55 23 11
-0.10555606240070875 0.12737322827961897 -0.43292148453867535 57 26 9
-0.10622408415725021 0.1272325792854184 -0.4358193910949672 58 30 14
-0.10527575225738836 0.12724612663079707 -0.43907182011971246 67 45 30
-0.0244141716728737 0.13447725623181478 -0.47591903033148664 40 20 13
-0.037172817491390196 0.13318339593036846 -0.47615689769110353 41 21 13
-0.02645810306705934 0.13412200454581605 -0.48181378593524654 41 21 14
-0.02714571040649199 0.1339762189243778 -0.48483674739176746 42 22 15
-0.032794540695246864 0.1333592172819973 -0.4866894947708813 42 22 15
-0.03213324460342225 0.13334173817179912 -0.49002318742590356 42 22 13
-0.026435774493383288 0.13380211561359562 -0.4945637036974125 42 22 13
-0.030326530201305837 0.13335243384224585 -0.4968177432712314 43 23 14
-0.03899571906405291 0.1324499293171761 -0.4979038416893534 44 24 14
-0.037336001370721496 0.1325270781726352 -0.5014810262223572 46 24 13
-0.03226976067495483 0.13292679325155193 -0.5059006869931915 47 25 14
-0.034713978918207364 0.13261481668843525 -0.5084835223887961 48 26 15
-0.030377365549200598 0.1329448747543631 -0.5127452197601371 46 24 13
-0.027332962663078914 0.13315227597614535 -0.5166990706538649 45 23 12
-0.0214248300379581 0.13363024176414998 -0.5213850696805924 46 24 13
-0.032712356910401974 0.1324820408661537 -0.5217351216851978 45 23 12
-0.03184256558703627 0.1324835587541088 -0.5251498864489376 45 23 12
-0.02820295685416531 0.13274659808036038 -0.5292795301530728 46 24 13
-0.02811183671025419 0.13267426825160278 -0.532506261607766 46 22 12
-0.044064445141303796 0.13108775120757044 -0.5315670658892537 47 23 12
-0.03541001080946068 0.13182380706991495 -0.5370098061071715 48 24 12
-0.0315811574333434 0.13210409539666032 -0.5412127983590197 48 24 12
-0.03011372993639093 0.1321614611151791 -0.5448047645183254 49 25 13
-0.03607503405518189 0.1315187850885343 -0.5464253231310976 49 26 12
-0.04151356483433695 0.13092578811080555 -0.5481681549817533 49 26 12
-0.03490690243265715 0.13146703229300272 -0.5531403378052849 49 26 11
-0.03072190693986869 0.1317798434845031 -0.557478922459712 51 27 11
-0.03370794538215868 0.13141783862408388 -0.559877214602936 52 26 11
-0.03121074425267939 0.13157151602674652 -0.5637712858716672 52 26 13
-0.025971049392421536 0.13198266029580885 -0.568431550978874 50 24 11
-0.021873274737368845 0.1322860810096592 -0.5727933467063697 49 23 10
-0.025141727750187165 0.13189753702622325 -0.5751137626949244 51 25 12
-0.02363407100548759 0.13195744126782616 -0.5787659749544888 53 27 14
-0.025872172531170884 0.1316658131998218 -0.581366890047782 54 28 15
-0.029877705065252905 0.13120860875474413 -0.583460128935688 54 28 13
-0.033839625121879185 0.1306744036909451 -0.5887751675541609 54 28 13
-0.018349819886808436 0.13204347341548625 -0.5964716838766262 54 28 13
-0.019051297828410335 0.1318957261684486 -0.5995168700328439 55 29 14
-0.02191310033807055 0.1315458799481664 -0.6019302677973106 56 30 15
-0.03775739618812193 0.12990072395135258 -0.6037446238727945 51 24 7
-0.03764530075781927 0.12982975375766215 -0.6070013399023864 56 29 12
-0.04117865398755846 0.12941826966158074 -0.609171406740583 57 30 13
-0.02715191638697359 0.1306463421850416 -0.6166033807946301 56 29 12
-0.02881846401889286 0.1304088383530772 -0.6193455150866874 56 29 11
-0.03138598671670079 0.1300873981431301 -0.6218103024301733 58 30 12
-0.034334320894019985 0.1297306280109901 -0.6241520416211799 61 32 12
-0.037323044507270836 0.12937029883071674 -0.626473285575684 63 32 14
-0.036184003727024155 0.1293946714616371 -0.6300591536253005 67 36 16
-0.0359291965170513 0.1293365839577021 -0.6333761300211298 68 38 15
-0.03618093078874697 0.1292312957942646 -0.6365375890406532 67 37 14
-0.0364325330755596 0.12912600262757612 -0.6396997733644633 67 36 15
-0.03803846304226244 0.12889476254266002 -0.6424361673849883 67 36 15
-0.03322725983333061 0.12926003705192088 -0.647200051377748 67 36 15
-0.03434575293530051 0.12907400411479045 -0.6500945394439419 68 38 14
-0.032717735253933886 0.12914306413315346 -0.653865225346397 71 41 17
-0.033498643818536386 0.1289883600212574 -0.656868426028741 67 37 13
-0.03222649052068392 0.12902415800662637 -0.6605338842282167 63 33 10
-0.03702225040144716 0.12849710424221644 -0.6622346721481068 62 31 12
-0.03935913638961962 0.12819833129320712 -0.6647237240337087 60 29 11
-0.04750725671153795 0.12736129016691242 -0.6653005645546413 57 26 8
-0.04629885953825945 0.12739140025291903 -0.6689364336231844 56 25 9
-0.04508826616284596 0.12742157528351286 -0.6725785061727394 55 23 8
-0.04440416888644197 0.1274028961710767 -0.6760507844446989 55 23 8
-0.036350844970827925 0.12806567420640114 -0.6819922961623811 55 24 8
-0.034002146626948684 0.12820038251914978 -0.6860438622414473 56 27 9
-0.04249195718501826 0.12733334459550696 -0.686442868140113 56 27 9
-0.032103879868199 0.12821056597533867 -0.6932244449458744 54 25 9
-0.032933531146770376 0.12805126405163222 -0.6962148914913917 54 25 8
-0.04601229321974003 0.1267616641516643 -0.6950052653692889 57 28 10
-0.04749784361685416 0.1265424349968737 -0.6977472048700692 58 29 11
-0.044700110712822025 0.1267181890450258 -0.7019681490584534 58 29 11
-0.04145458854566908 0.1269349368857656 -0.7063555521771687 60 31 13
-0.04014678766570011 0.1269728887150725 -0.7100781776077371 59 30 12
-0.04003338760030943 0.12690072432766022 -0.7133873700510027 58 29 11
-0.04080456736388083 0.12674710544307502 -0.7163864859266277 55 27 10
-0.03934619310288731 0.1267986013920575 -0.7201746006545381 54 27 10
-0.03747936201632744 0.12688749236235125 -0.7241144739953207 54 27 10
-0.05113460646740098 0.12538494564465016 -0.7290298940199198 53 25 11
-0.05251003291026286 0.1251762960672175 -0.7317930582859082 54 26 12
-0.05451405452211616 0.12491005842526516 -0.7343242149088732 56 29 12
-0.06042353158184452 0.124285843858079 -0.7354211477407646 57 30 11
-0.059354366383056495 0.12430169201903579 -0.7390652463838732 57 30 11
-0.057925102709263834 0.12435040067512933 -0.742847380296852 56 29 12
-0.05590035977029782 0.12445347779351872 -0.7468566498290309 54 26 11
-0.05800692087860479 0.1241782241954254 -0.7493349960705759 53 25 11
-0.058584305325298194 0.12404300420636025 -0.7523801294754697 52 24 10
-0.05921754722626414 0.1239026863462522 -0.7554038767381152 51 23 9
-0.059041985207720596 0.1238363078118154 -0.7587324126991639 52 23 9
-0.06514847065663953 0.12319596007491948 -0.7596808177279366 52 23 9
-0.06075588150306012 0.12351482096169807 -0.7646093071287253 52 23 9
-0.06757492801195879 0.12256314366080186 -0.775032958764934 50 22 8
-0.06467574830227046 0.12274493075537027 -0.779420407007617 49 21 8
-0.07400416270193724 0.12181295016101448 -0.7790394988551941 48 20 8
-0.07468728939818906 0.1216686212127236 -0.7820227077110325 48 20 8
-0.07615695943528243 0.12145275251974218 -0.7846950877535487 47 19 7
-0.07643013824298517 0.12134577417170443 -0.7878377701777164 48 18 7
-0.07664244995495365 0.12124431274431353 -0.7910052670584743 51 21 10
-0.07899681464502999 0.12094822067723711 -0.7933183858404564 53 23 12
-0.07867524969886827 0.12089528962831167 -0.7966979766431672 52 22 11
-0.0911358402938765 0.11943688643715754 -0.8046389386983624 53 23 10
-0.0919181829035482 0.11928419653656774 -0.8075566909292451 54 24 10
-0.08910996815269895 0.1194566793934374 -0.8119489791320847 55 24 11
-0.08987995949228804 0.11930501070928066 -0.8148756568454044 54 25 10
-0.09181740497826657 0.11904774839066253 -0.8173175573717825 55 26 10
-0.09332767587515983 0.11882924062335726 -0.8199321863778076 55 26 9
-0.09480061845692764 0.11861419650825893 -0.8225588569826693 55 26 9
-0.10472700946421681 0.11706419323565509 -0.8442494077073127 60 29 10
-0.10615164438694916 0.1168541992370053 -0.8468691928669548 66 33 13
-0.10769709630375959 0.1166334195734435 -0.8494331909009487 68 33 13
-0.1084444554743368 0.11648449531091717 -0.852341664747781 67 34 13
-0.11721399080142289 0.1156146098307084 -0.8517358643725228 69 35 13
-0.11777783801508819 0.11548256417199772 -0.8547094442600525 70 36 16
-0.1160656824853392 0.11555488740452746 -0.8586871101751697 73 44 22
-0.11434959714426907 0.11562737822079347 -0.862673843087575 79 56 37
-0.11241213784833762 0.11571954138001415 -0.8667663698514182 77 57 40
-0.11043935206186908 0.11581466725119877 -0.8708827673177358 78 56 39
-0.1124573172265618 0.11555194488845648 -0.8732190896880233 76 53 39
-0.11213582703619285 0.1154989121802567 -0.8766024053578058 72 49 35
-0.11104896016110759 0.11551433844951829 -0.8803339205161729 70 48 34
-0.10857851626038706 0.11565344699026799 -0.8846977091777655 70 48 35
-0.1083287240074946 0.11559367680612172 -0.8880612485892277 66 44 31
-0.10408652292922463 0.11589077838969396 -0.8932501333886509 62 40 27
-0.10018086522876657 0.11615740288857582 -0.8983007544456832 62 40 27
-0.096123635306492 0.11643719032059487 -0.9034359419766644 57 35 22
-0.09843684907341954 0.11614787632095554 -0.9056451942989049 53 31 18
-0.09556356342336772 0.1163215169248201 -0.9102516206931094 50 28 15
-0.09290217908739669 0.11647597179444096 -0.9147708374701199 49 27 14
-0.0916430316876779 0.11650515622119634 -0.9186460912768938 62 40 27
-0.10609156137420156 0.11513461643088156 -0.9151676825879994 66 44 31
-0.10656595935973058 0.11500979553051136 -0.9182126697404973 66 44 31
-0.10406771275831858 0.11514958669176417 -0.9226605138869435 64 42 28
-0.10040460766216602 0.11539276266532408 -0.9276701873213068 62 41 25
-0.09421760826453493 0.11586002975918135 -0.9338937047789345 60 40 23
-0.09144394559611395 0.11602332633522629 -0.9385115353943034 59 36 20
-0.08819148910700396 0.11622888067551233 -0.943369662942799 57 34 18
-0.09294277183725673 0.11572338910847906 -0.9443947395308987 58 35 18
-0.09945276176214184 0.11506217338651943 -0.9445570559132344 58 35 16
-0.10278599251643325 0.11468329997155895 -0.9462359367252219 59 34 14
-0.1066111573017541 0.11426105625115505 -0.9476660577780849 60 35 16
-0.11155128491787814 0.11365752139557454 -0.951817097162166 67 41 24
-0.11125153287308233 0.11360125328583809 -0.9552416205803207 77 53 39
-0.10883031772834872 0.1137326602416502 -0.9597135559452014 82 62 49
-0.11094149424210104 0.11346291663774768 -0.9619553863745494 96 82 72
-0.11428203681939832 0.11308462988133701 -0.9635818372031667 100 85 77
-0.11582154681521947 0.11286574300112398 -0.9660946599073256 105 88 81
-0.11497735629931528 0.11285748367991612 -0.969794115714686 105 90 83
-0.12474834579225455 0.11191201902887944 -0.9681787861290739 106 91 84
-0.12374879213150025 0.11191770409807457 -0.9719470243700722 109 94 87
-0.12598550814298806 0.11163785137076797 -0.974087424663018 109 94 87
-0.12850124287745543 0.11133355913353025 -0.9760804158329657 108 93 86
-0.12866019636391884 0.11123708935516208 -0.9792635184728011 106 91 84
-0.13863506564587713 0.11027619736320271 -0.9774442740278488 107 92 85
-0.1401129152527932 0.11006401923500035 -0.9799379095549849 107 92 85
-0.1403710785356047 0.10995923087537868 -0.9830539030265896 114 99 92
-0.14229696617678647 0.10970778314054015 -0.985311845133905 119 104 97
-0.14603335110696172 0.10929734681675964 -0.9866293254765062 115 102 94
-0.15048605481814842 0.10882427465640766 -0.9875641230089258 104 94 86
-0.15085395033826052 0.10871019347121508 -0.9906095289684661 102 91 86
-0.15166996148586664 0.1085567809682358 -0.9934213739540017 96 85 79
-0.15578067142098734 0.10811441883358039 -0.9945069902723046 88 76 69
-0.16045490985455974 0.10762297445366416 -0.9952838947880299 76 59 52
-0.16466312214711828 0.10717273538070503 -0.9962917436516618 66 46 35
-0.16912873213835186 0.10670028332740054 -0.9971504373494005 58 34 21
-0.1650871276382539 0.10697287055445712 -1.0025081739814101 53 26 11
-0.16641777168371152 0.10677503534421787 -1.0050222290593533 52 24 10
-0.16991881593109795 0.10638748047523576 -1.0063742889819323 54 25 11
-0.17084643712018607 0.10622512208164793 -1.009094313420665 55 26 11
-0.16905781839141895 0.10630009768412026 -1.013272475191269 57 28 10
-0.16841044467294075 0.10627522772788585 -1.0168430659566134 58 29 11
-0.16893414739240878 0.10614805918061987 -1.019783995602467 59 31 10
-0.17310297558194745 0.10570293934622618 -1.020746573419616 61 33 11
-0.17178315807087208 0.10573667128604167 -1.0246842223939725 65 37 15
-0.17206870977452682 0.10563035557906472 -1.0277512484365363 68 40 18
-0.17269396017216393 0.10549443944305145 -1.030632708471681 67 39 18
-0.1720930707791325 0.10546527738340555 -1.0341874679542649 68 39 19
-0.1754113832649282 0.10509502110819374 -1.0355848944558088 67 40 21
-0.1730505807846074 0.10521889652020171 -1.0401135665319168 70 44 27
-0.17990766058818314 0.10454130819285788 -1.0395372518981212 71 46 32
-0.18121442611079147 0.1043464732124198 -1.0420279578317038 71 48 34
-0.18312736015992562 0.10409908014060884 -1.0441771725395128 71 47 35
-0.1824366097672927 0.10407778356337423 -1.047779625447096 71 47 35
-0.1815185050019782 0.10407610816669018 -1.051513789070755 72 48 36
-0.17772620490964253 0.10432350138902236 -1.0568726878422148 72 48 36
-0.17600187970259162 0.10439132041644045 -1.0610772415021463 70 48 35
-0.17349347731248752 0.1045268564118334 -1.0657340712600452 68 47 34
-0.1744434066441375 0.10436275737939987 -1.0684338658731345 67 47 36
-0.17428803734347634 0.10429433520885704 -1.071762615356734 66 47 36
-0.17558065000185133 0.10410064247945514 -1.0742646538269194 64 45 35
-0.1719203556222952 0.10433511832918088 -1.0796074359603072 56 39 31
-0.1681994831812479 0.10457446286998826 -1.0849995337848408 46 30 23
-0.15442349088704205 0.10568163563198506 -1.0962148009656392 43 28 21
-0.16421663794408267 0.10450574962614902 -1.1036306759641523 45 28 21
-0.16913794956122133 0.10399924248493247 -1.1040166773084152 45 26 19
-0.1674793772207233 0.1040595100660014 -1.1082574211362806 43 24 17
-0.17164629158000427 0.10361840964385631 -1.1090685625714591 48 27 18
-0.17588077829118165 0.10317183055729434 -1.1098265877427687 55 29 15
-0.18210459484493488 0.10255462023496521 -1.109390508288266 62 32 13
-0.18198639800997887 0.1024826951503792 -1.1127093927191896 72 40 20
-0.18186814260551884 0.1024107248397795 -1.116030301113326 80 50 29
-0.18139913016177833 0.10236880239615004 -1.1195632450020527 83 57 39
-0.1823132980551933 0.10220817056522208 -1.1222686810215596 83 57 40
-0.18251153410624343 0.10210895018581918 -1.1254037133073973 80 57 39
-0.1810457473447662 0.10215227284800087 -1.1295449273662521 79 56 38
-0.18277319572717737 0.10192198705969377 -1.1317580823479962 79 57 40
-0.18458343769161803 0.10168473020237241 -1.1339163789200852 79 58 42
-0.18090737256560346 0.10191689770506415 -1.139413526466444 78 57 40
-0.18173110153343103 0.10176398236335632 -1.1421748616638236 77 56 39
-0.18265647533069615 0.10160241529323528 -1.1448725451231345 75 53 39
-0.18361130005815485 0.1014383759986124 -1.14755041816313 67 48 37
-0.18200602345673625 0.101492915594519 -1.1518049489246942 63 47 38
0.005315676058412061 0.1555830105232201 0.1202543936765958 174 170 169
-0.0069166765486167936 0.1542351203158468 0.11647605993870526 132 118 111
-0.02448882477424751 0.1523322610784785 0.1123832616539738 136 113 101
-0.029086287982718027 0.15178074745700534 0.10916943512732073 113 85 71
-0.03258248865331492 0.15134409095742538 0.10603651951332946 125 97 83
-0.0360086894575147 0.15091493743173906 0.10291682492858281 133 107 93
-0.03956588916337556 0.15047238635115912 0.09979809214470618 128 99 80
-0.04108865916062781 0.1502414600033592 0.09680655260095675 110 75 49
-0.04250265295225182 0.15002191227508568 0.09382435125595165 80 45 19
-0.03716234904492529 0.15050377334069223 0.09121713169599113 69 35 13
-0.03834486656619228 0.15030814816383428 0.08824317270927966 67 36 15
-0.037845499816652965 0.15028709374105065 0.0853591254708119 63 34 12
-0.038788235108798 0.15011638787150863 0.08239922982824985 64 33 12
-0.03887583581274577 0.15003438691816745 0.07948290971124632 62 31 11
-0.03879827721647551 0.14996947930862642 0.07657344904980153 62 31 11
-0.038720583125023376 0.14990454784473803 0.07366248135541884 60 31 11
-0.03869686760123782 0.14983398745293813 0.07074758027256828 59 31 11
-0.03839306424064142 0.14979239373820835 0.06784346038202611 57 29 9
-0.03829822062840109 0.14972911711707862 0.06492841005805106 59 30 10
-0.03790666583069157 0.14969650119387873 0.06202377580041118 61 31 11
-0.03983886977868621 0.14942347627702873 0.05902626364199267 60 30 8
-0.0387135804698036 0.1494666872333463 0.05614763902347709 59 29 8
-0.037966311780301173 0.1494707117602169 0.053250807610993434 59 30 10
-0.037142742457975185 0.1494825320713801 0.050353110307082186 57 29 9
-0.03848154823290186 0.14927092286423052 0.0473802957622763 56 27 7
-0.03624721766551856 0.1494282917731269 0.04452283265920502 57 28 8
-0.03698665490479318 0.14927854375219632 0.04156807750071222 61 31 11
-0.037519066445333704 0.14915017721510024 0.03862012874053995 64 34 13
-0.03519172014127747 0.14931675817239007 0.035749966831203975 63 33 13
-0.03811018195183434 0.1489423031608379 0.03273720153519519 61 32 11
-0.04322478976378601 0.14834169563937433 0.02967875323538877 59 30 10
-0.042172395269878246 0.1483767816812307 0.026773915151002067 55 28 9
-0.041804685557211646 0.14834124387256117 0.02385015934212034 53 26 9
-0.04052951236265989 0.1483990690583037 0.020941890931063297 50 24 10
-0.04040261558393505 0.14833859529241636 0.01800762412660928 47 21 8
-0.03869159601243519 0.14844104630459973 0.01509818557431923 47 20 9
-0.03895626556647111 0.14834016173790227 0.012152240227955703 49 22 10
-0.03783295564621819 0.14838194952914194 0.009224879717671955 50 24 9
-0.03693884522979097 0.14840006771842645 0.006290062812149236 50 24 10
-0.03927880386773652 0.1480858625710644 0.0033163814363089627 50 24 9
-0.03906520913406365 0.14803402102742788 0.000372110244516128 49 22 9
-0.03904902679468915 0.14796186608730985 -0.0025756468865234545 48 22 9
-0.03978713495712702 0.14781227596694105 -0.005529534305711099 48 22 9
-0.039279141944207785 0.1477905298090627 -0.008476501890131454 49 23 10
-0.0406220412813214 0.14757892243552326 -0.011432493834124393 50 25 11
-0.037505670869425745 0.1478244696505551 -0.01437749842644002 49 24 10
-0.037109499337727475 0.1477910251854385 -0.017334110938368754 46 21 7
-0.04122757068225548 0.14729513326268967 -0.020288154128754725 48 23 9
-0.04109428132241524 0.14723481577240333 -0.023242336114133535 48 23 10
-0.04063868786433385 0.14720744432023325 -0.026199552725449254 49 24 10
-0.040819715105988696 0.14711486948296615 -0.029155878793466834 48 23 10
-0.04110189700011878 0.14701192931743273 -0.03211226138621431 47 23 11
-0.04140080556619534 0.146907267173699 -0.035068972582351254 47 24 11
-0.04169977697372488 0.14680258802624874 -0.03802610570622518 47 23 10
-0.03984486014884664 0.14691795270857091 -0.04100860563352983 47 24 11
-0.04029975278803533 0.14679724763422505 -0.04396776919922012 47 25 11
-0.04052153695619818 0.14670034193068282 -0.046930288062366966 48 26 12
-0.03999878282534893 0.14667940263596285 -0.049905430300421015 48 25 11
-0.03893841933125101 0.14671323582660029 -0.05289290791037014 47 24 11
-0.041826731310770304 0.1463442760537687 -0.05580958020034631 47 24 11
-0.03670355020098557 0.14679219965677417 -0.05888372199202937 46 24 13
-0.04340449077416511 0.1460347867458679 -0.06171357520293134 43 22 13
-0.04990069843074482 0.14529869975847431 -0.06452945961116999 67 49 42
-0.04782601782486025 0.14543582642594463 -0.06754207724499889 80 64 57
-0.07584211196860194 0.14250980688015646 -0.06976246557303618 64 45 40
-0.08431216633214333 0.14150179282675715 -0.07536163180286654 126 114 109
-0.07904340631957907 0.14196453752578536 -0.07843954163087616 137 124 121
-0.07742689215764748 0.14205563859720327 -0.08141556401236807 97 81 77
-0.07953479088820792 0.1417681766615805 -0.08427074653233534 49 29 20
-0.07727239488933849 0.14192470754177028 -0.08727651033155819 43 20 13
-0.07659809287956407 0.14191980099055448 -0.09023145572672134 36 18 10
-0.07598011709321749 0.14190909424200304 -0.0931875684858473 30 15 8
-0.0867540381632241 0.1407425871841661 -0.09568964623964937 42 27 22
-0.0855731754410714 0.14078923620907466 -0.09865835610078984 81 66 61
-0.08583389538989197 0.1406896220540038 -0.10156972725654523 80 65 61
-0.09200202480576213 0.1399913517308155 -0.10421776101930823 81 62 56
-0.09814125407240606 0.1392964431742563 -0.1068497898419592 99 81 75
-0.1079543932299511 0.13822993958174154 -0.10928934927458024 99 82 75
-0.111799575168676 0.13776824790256312 -0.11199415271344279 101 86 79
-0.12266014313472809 0.13659695516859105 -0.11433282118567775 90 77 73
-0.13251536282425125 0.13552814289441406 -0.11669240071047343 144 132 131
-0.14228387223584502 0.1344688134120261 -0.11902806710931192 137 126 123
-0.14176825584268068 0.13444963430426504 -0.12190371033186775 119 105 99
-0.13893097369282467 0.1346649522161657 -0.12491400963947061 89 66 53
-0.13755146713639255 0.1347327924932599 -0.12784921454637527 71 40 22
-0.1365766343956893 0.13475964065401244 -0.13076568205608255 66 33 16
-0.13612557715850387 0.13473352297440888 -0.13365426803758745 55 25 12
-0.137481274529962 0.13452506919646362 -0.13643195458651355 47 22 11
-0.13348321148692383 0.13485658268028863 -0.13955141885210184 46 22 11
-0.13337021084911133 0.13479612109348638 -0.14242834130012486 46 22 10
-0.1355932383773097 0.1345002214397316 -0.14514942309351442 45 25 11
-0.1335193952353989 0.13463728288331248 -0.1481612188776744 46 32 21
-0.13350475334088743 0.13456680904341783 -0.15103553745897844 48 36 31
-0.13229286967799908 0.13461680868557951 -0.15399736514725618 50 41 36
-0.1301610853832571 0.13475923988861463 -0.15703179103343007 50 41 36
-0.1282223184590334 0.13488206277164683 -0.16005952811133456 49 40 35
-0.09025522400960215 0.13684745884629732 -0.2369180260939626 45 34 30
-0.0858444483887678 0.13721211396825753 -0.24040263236906786 44 33 29
-0.08070488177199468 0.13764893853680304 -0.24398706340617715 44 33 29
-0.07391035283185782 0.13825000327408646 -0.24778398510050528 44 33 29
-0.07046301649501155 0.13851758707605763 -0.25120313995389393 44 33 29
-0.09015971593075589 0.13618464054980867 -0.26377880209634447 40 27 21
-0.08322437943023801 0.13679796449474818 -0.2676622795581477 39 26 20
-0.08093299117861752 0.1369500753961168 -0.2709631833012467 40 27 21
-0.07950007754146982 0.13701685415331352 -0.27415930299587266 40 27 21
-0.07579146263639555 0.1373090413992363 -0.2776649639101424 40 27 21
-0.07485546370725095 0.13732620892308814 -0.2808091387623343 40 27 21
-0.06697582569059804 0.1380309417332088 -0.28490589588914034 41 28 21
-0.06907241828968441 0.13774740643178257 -0.2876505268386967 39 26 19
-0.07092178299054289 0.13748846511299107 -0.29042455143625784 37 23 19
-0.07112158418663182 0.13739280745070734 -0.29342717549033426 33 19 16
-0.0613021272487533 0.13828784161245833 -0.29786118653890126 31 17 14
-0.055410087111113074 0.1387938837424782 -0.30176022771600525 31 17 14
-0.07257990769782115 0.13664067926507217 -0.31749687171454194 42 22 15
-0.0677877606001339 0.13703689462704735 -0.32128153751113986 41 22 15
-0.0680384850417458 0.13693582958164202 -0.3242917487201237 39 22 14
-0.08265584830863798 0.13541977525053905 -0.3250272034492264 37 20 11
-0.08150620190503435 0.13545711031869712 -0.3282401451153342 46 30 21
-0.08055856884529008 0.1354744403243447 -0.33142543382396195 44 31 23
-0.0703542990120136 0.13609631573520709 -0.34834269595220774 22 14 9
-0.06654378286186771 0.13639384570643756 -0.35205193537551654 22 13 8
-0.062155224052899936 0.13674776906627276 -0.35587421697021615 22 14 9
-0.060301817073326734 0.13685261890756686 -0.3592704547723923 22 14 9
-0.05985478557448569 0.13681938043127456 -0.3624269415888983 28 18 13
-0.06327634401705343 0.13640687448036765 -0.36490080152709986 19 10 8
-0.06655033906622101 0.13600906090658382 -0.3673916897747195 27 16 13
-0.0673366883414206 0.1358551118940829 -0.3703222666351705 39 24 17
-0.06609735952949762 0.13589950639411727 -0.3736202341886143 49 32 25
-0.06670341604130159 0.13576317506514968 -0.3765849324682286 43 26 18
-0.062470867156253336 0.13610018109219288 -0.38044448036367773 35 18 10
-0.06617461558060028 0.13566078223012526 -0.38283770336367023 37 19 13
-0.06693514389004798 0.1355093214705244 -0.3857745606024591 37 21 14
-0.07038804967221177 0.13509482898811548 -0.3881994917374868 39 24 15
-0.0739763063327365 0.13466735499669436 -0.39058903935087874 61 41 32
-0.07869504387218093 0.13412976596000983 -0.39275056971899885 55 32 24
-0.08568738812002441 0.13337064343467575 -0.3944563789144382 50 28 15
-0.09153694579819517 0.13272351324017545 -0.39636558541690103 54 32 20
-0.10523878106540735 0.1311594783380487 -0.4027631782321233 47 20 9
-0.11371753678454377 0.12980378084002 -0.4222116598670367 51 21 9
-0.11572505850533008 0.1295330298036018 -0.42481019037213874 56 24 11
-0.11276875385379721 0.12974424288952374 -0.42847141502052793 58 26 13
-0.11162374598103661 0.1297794352786805 -0.4317509464917529 58 27 10
-0.11236374287454408 0.12963167408602289 -0.43462406673293436 58 30 13
-0.10932184944753487 0.12985059393082424 -0.43832771626620903 67 45 30
-0.029191200309030538 0.1371427175512971 -0.47497859749386284 42 22 13
-0.041967344719796275 0.13582806790086477 -0.4752044531819493 42 22 13
-0.027275902116263302 0.13716863693454592 -0.48178020040575925 41 21 14
-0.030103839323204956 0.13681577137367273 -0.48430117373077175 40 20 13
-0.033077432638284165 0.13644903209522444 -0.4867802290747386 40 20 13
-0.03166775108976833 0.13650553057705356 -0.49029183958676475 41 21 13
-0.030983513260803952 0.13649189496929462 -0.4936360381456045 42 22 13
-0.032292588561723456 0.13628594994245566 -0.49650429705742655 42 22 13
-0.041293349776162835 0.1353386614681144 -0.497506895552847 43 23 14
-0.031303957965618384 0.13622178241034782 -0.5031119791695021 46 24 13
-0.029385034817699426 0.13632678965222428 -0.5067699995427785 46 24 13
-0.03133361924877217 0.13605927741153398 -0.5094803371200886 45 23 12
-0.034140471006901985 0.13570929305972304 -0.5119725218947273 43 21 10
-0.028116463921966234 0.13620894344721513 -0.5166667815936565 41 19 8
-0.02513948465238698 0.1364150997399132 -0.5206145449481671 44 22 11
-0.02635876892014874 0.1362176757676754 -0.523509903541291 44 22 11
-0.02468949713088285 0.13629781655711107 -0.5271394955664055 44 22 11
-0.023696807744655393 0.13631281392669115 -0.5306022934810538 45 23 12
-0.026033486362963196 0.13600810984859152 -0.5332099653944496 45 21 11
-0.0326123237450721 0.13529652498376862 -0.5347092539381207 46 22 11
-0.030833591846580882 0.13538699893597042 -0.5383740569069376 47 23 11
-0.028802343050411988 0.13550150092035754 -0.5421124957188896 46 22 10
-0.0338201254272934 0.13494030537670265 -0.5439931809294629 44 20 8
-0.03352387652299767 0.1348884978003083 -0.5472742865681989 46 22 8
-0.03500390171048666 0.13466655534490396 -0.5500819460105835 49 24 11
-0.03485166997546778 0.13460091407167857 -0.5533262413636988 52 27 12
-0.03218537286512538 0.13477573591238984 -0.5572541633339865 55 29 14
-0.03401167859409057 0.13452069393531174 -0.559966814669172 53 27 12
-0.03336843179857317 0.13450181688116725 -0.5633526126300029 50 24 11
-0.027582012221398472 0.13497425717767472 -0.5681613993091539 49 23 10
-0.02246329995667222 0.1353824223948824 -0.572805027906601 50 24 11
-0.02372357412989451 0.13518116934008947 -0.5756855870369076 50 24 11
-0.024889503118361078 0.1349889837507143 -0.5785900585897084 50 24 11
-0.0267369649145284 0.13473184834720348 -0.5812997490235841 52 26 12
-0.030412474625797423 0.1343005341402029 -0.5834856497334686 52 26 13
-0.03248518102026372 0.1340222314887529 -0.586119045802383 52 26 12
-0.037021955452238825 0.13350932860256692 -0.5880392491485144 52 26 12
-0.03739424603086845 0.13339330318890003 -0.5911495057752221 53 27 12
-0.028356271721867818 0.13417294316420733 -0.5969942993180334 53 27 12
-0.03328541204887443 0.1336229836217609 -0.5987889601891518 53 27 12
-0.038730921102417895 0.13302428132291008 -0.6004173943402848 54 27 12
-0.038285963602069734 0.13298592272948034 -0.6037698696320128 51 24 7
-0.03754934961786037 0.13297520300088184 -0.607211925316022 53 26 10
-0.0395107480740816 0.13270813694533354 -0.6098520139065164 54 27 10
-0.03338738629549583 0.13320872931222266 -0.6149151786121391 53 26 10
-0.03486197083392549 0.13298777485985253 -0.6177056428088041 54 27 11
-0.032494636541232635 0.1331313267532692 -0.6216590986701301 56 28 11
-0.032184548127333706 0.13307959253575138 -0.6249939009477375 58 29 11
-0.03552722691131888 0.1326816117125807 -0.6272104394059815 63 32 14
-0.03419972753888423 0.13272628213082963 -0.6308581500396905 65 34 14
-0.031261708842179534 0.13292330848310988 -0.6350111097263734 66 36 13
-0.032557149114584 0.1327193583684727 -0.6378554903884991 68 38 15
-0.034167444393736465 0.1324856881358839 -0.6405984866201911 68 37 16
-0.03442805327640422 0.1323797497694441 -0.64376287287069 68 37 16
-0.034907374889292006 0.1322531205308253 -0.6468586664835578 67 36 15
-0.03538691750770022 0.1321264718367968 -0.649954332783686 69 39 16
-0.03586599380997635 0.13199986863008867 -0.6530500905209577 71 41 17
-0.03641811331372974 0.13186637121107625 -0.6561223058530223 66 36 14
-0.037838130089935654 0.13165098321666935 -0.6589137422017625 61 31 10
-0.03751284166391425 0.1316002956524283 -0.6622689387867498 60 29 11
-0.03671215988805357 0.13159436431511906 -0.6657819097994355 61 30 12
-0.03743396010711872 0.13144484978065116 -0.6687995048575678 61 30 12
-0.0372153133950958 0.1313839461459297 -0.6721263462109012 61 29 14
-0.03549295022542148 0.13146457394644037 -0.6759537199069888 60 28 13
-0.03708258904285264 0.13123330574627923 -0.6786853084951798 57 25 10
-0.03769043333430479 0.13109449362339545 -0.6817417636158771 56 24 9
-0.04253590159107161 0.13055720907174823 -0.6833725979963167 55 26 8
-0.04391141538573254 0.13034643935415408 -0.6861616911626248 55 26 8
-0.04526845793825664 0.13013748038962353 -0.6889540486051637 55 26 10
-0.046658651468828125 0.129925482039465 -0.6917321436829957 55 26 10
-0.04819407155645107 0.12969992792284477 -0.6944573808051596 56 27 10
-0.04941582482508011 0.1295038934564892 -0.6972871465043491 58 29 12
-0.04497509672058697 0.12983899153720435 -0.702074683230788 58 29 12
-0.043584256484245146 0.12988776951936887 -0.7058175240613129 58 30 12
-0.04211125534372344 0.1299440932889493 -0.7095951926468853 58 30 12
-0.041336736547077105 0.1299348347824815 -0.7131339864406656 57 29 11
-0.04066151471822657 0.12991617756443732 -0.7166418353949224 57 29 12
-0.05041460510926506 0.1289215369772574 -0.7164572063535569 55 28 11
-0.053977968443423396 0.12850664860939387 -0.7184459950605891 54 27 10
-0.05871957379640423 0.12798185407428805 -0.7200030035750337 54 27 10
-0.05097643882379739 0.12862419432561728 -0.7260329187663531 54 27 10
-0.04817846924106313 0.1288039017301703 -0.7303044893106454 54 26 12
-0.04982269152457772 0.1285685555705589 -0.732975597534201 54 26 12
-0.052388200059481985 0.12824732201469105 -0.7353070935073175 56 28 12
-0.05401266661992403 0.12801405347548803 -0.7379760641526756 57 30 11
-0.054661032973580576 0.12787190196043208 -0.7410000780170667 56 29 11
-0.05535480236072221 0.12772553414392965 -0.7440066992829818 53 25 10
-0.05528234650107225 0.12765057175535768 -0.747296824194798 52 24 10
-0.060153829220415775 0.12711516432045425 -0.748746253183198 52 24 10
-0.06105149101213747 0.12695001781778784 -0.7516685570816133 51 23 9
-0.06216732665222746 0.12676460866597067 -0.7545073719437272 50 22 8
-0.06073948035138403 0.12681581502191877 -0.7583046498312853 51 22 8
-0.06827663928637917 0.12546286363200967 -0.7814961374114993 50 22 10
-0.07544411964560008 0.12471731315314633 -0.7819433463404172 48 20 8
-0.07644727215130022 0.1245430285650873 -0.7847989545905354 48 20 8
-0.0766808538741433 0.12444000568633186 -0.787957494686791 49 19 8
-0.0768363814809882 0.12434418392137507 -0.7911478237666544 50 20 9
-0.07681561109698584 0.12426463669009533 -0.7944095684867379 50 20 9
-0.07701312957297422 0.12416487637874457 -0.7975853740177566 48 18 7
-0.09131405996081979 0.12227590706167747 -0.8145081103995933 51 22 8
-0.09590145114976881 0.12177230461524738 -0.8158497904265173 51 22 8
-0.09674224302551968 0.12161387196901113 -0.8187366641055105 53 24 8
-0.09558129707240892 0.12163961941787185 -0.8224585970082944 54 25 9
-0.09598290650529517 0.12152155117474565 -0.8255304729475935 52 23 8
-0.09664014929445708 0.12137998335837548 -0.8284948573421269 52 23 9
-0.09837186280881496 0.12113972392282585 -0.8310041973359046 54 25 11
-0.10950259397697405 0.11971345695207512 -0.8424199838136313 57 26 7
-0.10771745937642221 0.11979614204561996 -0.8464220364208683 62 29 10
-0.10991983632459233 0.11951349551191356 -0.84869834270808 66 31 11
-0.11204229718571984 0.1192383118391964 -0.8510036034809572 68 34 13
-0.11284749232907794 0.11908378207642346 -0.8538802624334024 70 35 13
-0.10508168970418609 0.11971305177137415 -0.8605249048822337 72 39 19
-0.10807265933988666 0.11935843445685458 -0.8624487657126011 73 44 23
-0.11472653767115765 0.11866939081398117 -0.8627408184981424 77 53 35
-0.11055924485777319 0.11896903147018943 -0.867825567582022 78 56 39
-0.10762513150255784 0.11915572186808537 -0.872375319709684 77 55 38
-0.1128663973614803 0.11859626716123127 -0.8732720701921026 76 54 40
-0.111916468335786 0.11860179229628602 -0.8769381867755399 71 48 34
-0.10939532528615468 0.11875040980364876 -0.8813186744801043 69 46 33
-0.1045759917116815 0.11910814992716501 -0.8867511060478954 68 46 33
-0.10633607404847312 0.11886630644557816 -0.8892076307873155 63 41 28
-0.11000130048119348 0.11845116908516233 -0.8907895762146714 61 39 26
-0.11341813503819226 0.11805890325895861 -0.8924744647332921 60 38 25
-0.0962291035086894 0.11954066753883905 -0.9036307365527316 56 34 21
-0.09937701581276222 0.11917247117174698 -0.9054547312838831 55 33 20
-0.09639584217332706 0.11936132493102077 -0.9101106421036561 50 28 15
-0.09680117892979273 0.11924236917775809 -0.9132027103604871 51 29 16
-0.09387586463117976 0.11942571044748541 -0.9178502090994582 60 38 25
-0.09838400156836988 0.11893439450381384 -0.9190255009925316 65 43 30
-0.09834250875504516 0.1188559761295326 -0.9223269529039785 66 44 30
-0.0966455095284969 0.11892756231884045 -0.9264116279464564 64 42 28
-0.09869441278244433 0.11865961376960595 -0.9287289214222195 64 42 27
-0.0872581970431492 0.11961287388728051 -0.9374528405705906 63 41 24
-0.08960206691176541 0.11931792390622271 -0.9396415535801504 61 37 22
-0.09197617502974943 0.11902039991293827 -0.9418093371288894 62 37 22
-0.09553108776211047 0.11861627047086375 -0.943403039372958 61 37 21
-0.10081604369223546 0.11805604845333885 -0.9441516688478525 60 35 17
-0.10524187842649632 0.11757384962208446 -0.9452996149626063 61 35 15
-0.10903454766312914 0.11714916155404952 -0.9467415230181062 61 34 16
-0.10936260595432418 0.11703743910526311 -0.9498609210251822 66 39 20
-0.11227300142851235 0.11669276235264203 -0.9517174806763132 69 43 26
-0.11407465059936031 0.11644826505201582 -0.9541099106135298 79 54 41
-0.10909406881891509 0.11681510099121359 -0.9598388653660623 89 70 57
-0.11094857569520128 0.11656578235358574 -0.962207563293528 94 80 70
-0.11374920425177121 0.11623140074672174 -0.9641021074661633 97 82 74
-0.11508139623308289 0.11602936760253345 -0.9667195582326975 110 94 86
-0.11724961814437326 0.11575221073863667 -0.968916381763684 106 91 84
-0.12434781746307184 0.11495016385560063 -0.9719032767551823 101 86 79
-0.12526305712989083 0.11478611106731626 -0.9747099803021111 113 98 91
-0.12668035853482362 0.11457702534677003 -0.9772608424006562 116 101 94
-0.128268750887088 0.11435267057537365 -0.9797214397193751 109 94 87
-0.1289965931029442 0.11420559598781757 -0.9826168725717722 106 91 84
-0.1425189837526213 0.11291156656373692 -0.9789658793775163 108 93 86
-0.14401147836920986 0.11269657831527242 -0.981444798578575 117 102 95
-0.14291750127597533 0.11271332311307058 -0.9852522446755544 117 102 95
-0.14503662546506946 0.11244231018820543 -0.9874045969297437 113 100 93
-0.15136141162626846 0.11179514994577716 -0.9873705404864482 106 96 87
-0.1535869484897021 0.11151509239888893 -0.9894486922562752 111 100 93
-0.15030597378026855 0.1117273941866686 -0.9943948713829404 102 92 84
-0.15382534908588685 0.1113318113745037 -0.9957926658268719 86 74 67
-0.16025222069791867 0.11067685806449816 -0.9956521328572314 74 57 50
-0.1633412063897824 0.11032034978344689 -0.9972504641930234 65 45 34
-0.16414364062017914 0.11016805981953215 -1.0000489722759354 58 34 21
-0.16540881111033137 0.10997453926079331 -1.0026006962201794 54 27 12
-0.16743643020449797 0.10971313652368607 -1.0047436663799862 53 25 11
-0.16958076783371062 0.10944147402901938 -1.0068187952702043 55 25 11
-0.16608383412196837 0.10967224900652542 -1.011910864072563 56 27 12
-0.16553720570410535 0.10964011891259486 -1.0154306016058354 58 29 11
-0.1649733940701532 0.10960943088381253 -1.0189630570216057 59 30 12
-0.1696356318666592 0.10911401924661042 -1.0196713876207595 59 30 10
-0.17282286544765835 0.10875005024076856 -1.0211656720624256 60 32 11
-0.17348193323830097 0.10861087324732037 -1.0240271104614733 66 38 16
-0.17427892660705538 0.10845947048263088 -1.0268124498207292 69 40 20
-0.17420495626553834 0.10838538184651585 -1.0300738776877991 70 41 22
-0.17350319362906982 0.10836692646834109 -1.0336822614397732 68 40 22
-0.1721256387070608 0.10840827696351307 -1.0376673641081318 70 42 25
-0.17214399677064984 0.10832578759825849 -1.0408865050268399 72 45 29
-0.17421820740896177 0.10806119851287019 -1.0429660879203675 73 49 35
-0.18193879113448366 0.10729696717768063 -1.0418962277516015 73 50 36
-0.18106294873224243 0.10729390371142959 -1.0456021989260216 74 51 38
-0.18450404469506493 0.10690899206815362 -1.0468941254551527 71 47 35
-0.18248595410543525 0.10700684188844499 -1.0512437384356492 70 46 34
-0.18084782662987559 0.1070709103229192 -1.05538775701186 69 46 34
-0.17891124788271506 0.10716114791250736 -1.0597078514099214 68 46 33
-0.1817177853611243 0.1068325908562894 -1.061345611970524 68 47 34
-0.17782656187211973 0.10709503258251031 -1.0667863438233507 67 47 36
-0.1758270643370368 0.10719031248801335 -1.0711625116314885 66 47 36
-0.17607988709711503 0.10708690451764774 -1.074257703201055 65 45 36
-0.17094349880592702 0.1074581362894789 -1.0804486119453987 59 42 34
-0.16924411716167492 0.10752631249079536 -1.084679214612984 47 31 24
-0.16219894758295939 0.10806466114274493 -1.0920062663793837 43 28 21
-0.15576607945213786 0.10854850188450027 -1.0990048038551994 36 21 14
-0.15411772345424768 0.10852885946069614 -1.1065337102674122 42 25 18
-0.15740661540107845 0.10815769708283784 -1.1078993165075417 43 26 18
-0.16696050759105274 0.10723692632968802 -1.1055797043659146 44 25 17
-0.16461879746880945 0.10736047317564888 -1.110227227315281 43 25 17
-0.16796408238262808 0.1069851466667117 -1.1115283906766544 49 28 18
-0.16922598308560255 0.10679265205681292 -1.1140525216088002 56 30 15
-0.182014123958819 0.1055906460570747 -1.1097308096591239 62 31 12
-0.18205650828995792 0.10550556905482167 -1.1129549824102514 72 40 20
-0.18177603068703482 0.10544870734221075 -1.116373397136885 79 49 28
-0.18132428033077955 0.1054067604284185 -1.119896967765806 79 53 35
-0.18141700428776178 0.10531713998887351 -1.1230966135087188 82 56 39
-0.1807037245478213 0.10529790767518338 -1.1267831484007225 78 55 37
-0.1811276540266423 0.10517926673105202 -1.1297865699025307 78 56 37
-0.18079478207932498 0.10512667736106418 -1.133248745107731 78 57 39
-0.1804618469819066 0.10507402438924332 -1.1367137186723855 78 57 41
-0.17973077206760832 0.10505601645205803 -1.1404241688671763 77 56 39
-0.18053335575485688 0.10490425087137455 -1.143201123911172 76 55 38
-0.1787274764539699 0.10497971952992051 -1.1475762483872594 74 52 38
-0.18415453197741832 0.10442530598373807 -1.1475114934571689 67 48 36
-0.18293380629381564 0.10444977969446878 -1.1515288907686203 63 47 38
0.014333400319492538 0.1595777694457368 0.12083004402837855 171 167 165
-0.025252839082474738 0.155250014286934 0.11229303768170404 131 107 95
-0.02993386390491422 0.15468344728773203 0.10907453849416197 120 91 75
-0.03444543715666605 0.15413506925712994 0.10587903074140677 142 115 99
-0.03362818896784735 0.1541491002003338 0.10302016119768989 129 102 89
-0.038892479377972064 0.1535217473937104 0.09979595076857553 125 96 78
-0.04161046627631039 0.15316315838906455 0.09673358413235258 101 66 40
-0.02936686360099937 0.1543813325210206 0.09452379972084948 76 41 15
-0.03541708753967027 0.15367151352536593 0.09126936349929601 71 37 15
-0.03657828655459672 0.15347693463916573 0.08829346451545506 68 37 16
-0.035788917854584656 0.15348773902028331 0.08542138337151776 66 37 14
-0.037308541974083384 0.15325547725215 0.0824287111626576 67 36 15
-0.03724277569477702 0.1531900681908018 0.07951721485945956 64 33 12
-0.036981743382334085 0.15314515614415536 0.07661355868320956 64 33 12
-0.03672101920088336 0.15310016072305155 0.07370783366535816 64 33 12
-0.03685056114501878 0.1530141033249562 0.07078257585728392 62 32 11
-0.036383538235641236 0.1529906914322802 0.06788224912962652 62 31 10
-0.036164982273618806 0.15294112149758216 0.06496886154641164 61 31 10
-0.035995594638156964 0.1528863421070888 0.062051554488137074 61 30 9
-0.03988803908932563 0.1524052759274593 0.058974483885807165 60 29 8
-0.039594399718803124 0.1523635904924599 0.05606423258701904 60 28 7
-0.03899667003139248 0.1523537400267663 0.05316275343549404 61 30 9
-0.0385220286710371 0.15233091053601083 0.05025397539884414 60 30 10
-0.03809926734015792 0.1523025775586137 0.04734079083237277 58 27 7
-0.03820214576048492 0.15221911790644713 0.044408498783400314 62 32 11
-0.03899998079460702 0.15206285873859093 0.04145434291616236 66 35 14
-0.03724938517822662 0.1521734006393485 0.03857402145711259 67 35 14
-0.03701426628898753 0.15212519441328115 0.035646190856223656 66 35 14
-0.03640927157216918 0.15211563085435503 0.03272583302957428 64 32 11
-0.03946906026280872 0.15172275766122198 0.029714005391592257 62 32 11
-0.038940612009850786 0.1517051735529954 0.026791158855940828 58 29 9
-0.03818346268457652 0.15171141718769768 0.023870283862748948 54 27 8
-0.037162632719569905 0.15174511729432863 0.02095104937960112 52 25 8
-0.035930382266790836 0.1518007874517938 0.018031329334224685 50 22 6
-0.03576149928134612 0.15174533187451325 0.015088886995846904 50 22 8
-0.03503511861227063 0.15174800689772974 0.012153121822311628 52 24 9
-0.03616598404929017 0.15155685891241205 0.009188386388771605 54 26 11
-0.03789612678638417 0.15130327085440273 0.006218363917652233 54 26 11
-0.03675364525422324 0.15134922145380225 0.0032830891383751237 52 24 9
-0.037817772576715564 0.1511651189364291 0.00032264482529260506 50 23 8
-0.03668076923446349 0.1512103467310441 -0.002618804554450349 48 22 7
-0.037397095348659884 0.15106247151687643 -0.0055766197129796195 49 23 8
-0.037120983314278586 0.15101792225362992 -0.008528840697066407 52 25 11
-0.036562539376110204 0.15100269827588095 -0.011482259086436547 57 30 14
-0.034614762019825385 0.15113191711437995 -0.014436114955509794 56 28 13
-0.03500753975285329 0.15101758424282924 -0.01739788232298113 52 25 10
-0.04059667405710067 0.1503631140066834 -0.020353793439877657 55 28 13
-0.04068963286258134 0.15028011990425638 -0.023308887823355464 54 27 12
-0.0404703179014541 0.15022953615836723 -0.02626631142408695 52 25 10
-0.04131518506118188 0.15006840571146007 -0.029219709289173085 51 24 9
-0.04053647217411682 0.15007582716500298 -0.03218347138503966 51 26 13
-0.040774393115923194 0.14997767288831973 -0.03514211100963787 52 27 14
-0.041073253065045126 0.14987318284971127 -0.03810073968136887 51 26 13
-0.037984075860784235 0.15011997136084976 -0.041099146780086075 51 27 13
-0.035192078210121644 0.15033569556285134 -0.044104225436482125 50 27 13
-0.039429787985116024 0.1498228257353437 -0.047016280895174074 52 29 15
-0.03875268018510142 0.14981928367253886 -0.0499961341966155 52 29 15
