ply
format ascii 1.0
element vertex 862
property float x
property float y
property float z
property float nx
property float ny
property float nz
property uchar diffuse_red
property uchar diffuse_green
property uchar diffuse_blue
property uchar class
property uchar detection
end_header
-0.0481 0.0950 -0.3109 -0.842 -0.394 0.367 76 59 51 0 0
-0.0563 0.0994 -0.3124 -0.894 -0.400 0.202 75 57 49 0 0
-0.0455 0.0931 -0.3240 -0.991 0.014 -0.130 81 61 49 0 0
-0.0341 0.0850 -0.3835 -0.547 -0.155 0.823 85 70 60 0 0
-0.0638 0.1008 -0.3893 -0.534 -0.047 0.844 74 63 58 0 0
-0.0675 0.1027 -0.3915 -0.552 -0.221 0.804 70 60 53 0 0
-0.1188 0.1288 -0.4376 -0.837 -0.180 -0.517 84 69 60 0 0
-0.1055 0.1068 -0.8733 -0.938 -0.232 -0.258 95 76 64 0 0
-0.1061 0.1070 -0.8764 -0.994 -0.104 -0.017 95 77 67 0 0
-0.1081 0.1080 -0.8787 -0.932 -0.118 0.343 95 78 70 0 0
-0.1043 0.1058 -0.8841 -0.928 -0.370 -0.046 94 78 70 0 0
-0.0943 0.1001 -0.8929 -0.856 -0.357 -0.375 93 77 69 0 0
-0.1299 0.1165 -0.9750 -0.726 -0.434 0.533 83 61 49 0 0
-0.1316 0.1173 -0.9774 -0.719 -0.522 0.459 85 63 52 0 0
-0.1831 0.1415 -1.0804 -0.842 0.524 -0.126 56 37 29 0 0
-0.1832 0.1414 -1.0838 -0.782 0.620 -0.061 51 32 23 0 0
-0.1861 0.1425 -1.0987 -0.788 0.434 0.436 66 42 30 0 0
-0.1871 0.1428 -1.1048 -0.989 -0.022 0.149 64 40 25 0 0
-0.1825 0.1397 -1.1251 -0.902 0.420 -0.094 82 57 35 0 0
-0.1800 0.1378 -1.1406 -0.862 0.488 -0.140 83 57 40 0 0
-0.0552 0.1140 0.0375 -0.843 0.496 0.206 49 26 12 0 0
-0.0537 0.1114 -0.0182 -0.865 0.501 0.001 44 22 12 0 0
-0.0540 0.1114 -0.0212 -0.865 0.496 0.069 40 20 13 0 0
-0.0531 0.1107 -0.0271 -0.832 0.431 0.349 35 17 9 0 0
-0.0521 0.1100 -0.0330 -0.919 0.191 0.346 37 18 11 0 0
-0.0221 0.0931 -0.0552 -0.193 0.831 -0.521 179 180 183 0 0
-0.0157 0.0895 -0.0616 -0.598 -0.246 0.763 107 106 107 0 0
-0.0203 0.0919 -0.0644 -0.510 -0.241 0.826 58 53 50 0 0
-0.0322 0.0982 -0.0668 -0.380 -0.175 0.908 43 37 34 0 0
-0.0372 0.1007 -0.0695 -0.347 -0.146 0.926 46 34 31 0 0
-0.1435 0.1555 -0.1378 -0.882 0.441 0.169 58 31 13 0 0
-0.1255 0.1446 -0.1745 -0.985 0.106 -0.134 61 50 45 0 0
-0.0830 0.1198 -0.2338 -0.920 0.339 0.199 63 50 44 0 0
-0.0832 0.1198 -0.2368 -0.996 -0.000 -0.087 65 52 44 0 0
-0.0819 0.1189 -0.2431 -0.873 -0.465 -0.148 63 53 44 0 0
-0.0649 0.1094 -0.2550 -0.722 0.355 -0.594 68 52 45 0 0
-0.0659 0.1098 -0.2579 -0.748 0.034 -0.663 69 53 46 0 0
-0.0634 0.1084 -0.2614 -0.799 0.056 -0.599 72 57 50 0 0
-0.0646 0.1089 -0.2643 -0.831 -0.079 -0.550 73 58 51 0 0
-0.0607 0.1065 -0.2742 -0.987 -0.142 -0.073 71 56 49 0 0
-0.0562 0.1033 -0.2967 -0.736 -0.664 0.133 63 48 41 0 0
-0.0571 0.1037 -0.2996 -0.736 -0.664 0.133 76 62 54 0 0
-0.0583 0.1042 -0.3025 -0.647 -0.543 0.536 74 61 52 0 0
-0.0388 0.0911 -0.3822 -0.623 -0.481 0.617 81 64 55 0 0
-0.0611 0.1029 -0.3865 -0.632 0.221 0.743 76 62 55 0 0
-0.0646 0.1047 -0.3888 -0.486 0.350 0.801 73 61 55 0 0
-0.0687 0.1069 -0.3910 -0.570 -0.231 0.788 74 61 55 0 0
-0.1209 0.1333 -0.4367 -0.898 -0.267 -0.350 81 66 55 0 0
-0.1082 0.1119 -0.8712 -0.897 -0.312 -0.313 96 75 61 0 0
-0.1065 0.1108 -0.8755 -0.999 -0.039 -0.024 93 74 61 0 0
-0.1065 0.1107 -0.8789 -0.998 -0.062 0.009 94 75 65 0 0
-0.1061 0.1103 -0.8825 -0.936 -0.348 -0.055 94 76 66 0 0
-0.0923 0.1017 -0.9207 -0.958 -0.282 0.056 88 74 65 0 0
-0.0934 0.1022 -0.9235 -0.972 -0.086 0.218 91 73 65 0 0
-0.0942 0.1025 -0.9265 -0.972 -0.086 0.218 92 73 65 0 0
-0.1147 0.1118 -0.9766 -0.918 0.255 0.305 85 61 49 0 0
-0.1778 0.1416 -1.0968 -0.931 0.341 0.134 66 43 31 0 0
-0.1805 0.1430 -1.0984 -0.781 0.548 0.300 67 43 31 0 0
-0.1853 0.1455 -1.1018 -0.751 0.419 0.510 66 41 28 0 0
-0.0070 0.0935 0.0943 -0.651 -0.511 0.561 182 183 181 0 0
-0.0121 0.0961 0.0912 -0.647 -0.539 0.539 166 162 158 0 0
-0.0165 0.0984 0.0881 -0.724 -0.526 0.446 136 124 119 0 0
-0.0444 0.1124 0.0609 -0.718 -0.579 0.386 86 66 49 0 0
-0.0535 0.1166 0.0404 -0.804 0.571 0.169 44 20 7 0 0
-0.0536 0.1165 0.0375 -0.787 0.548 0.283 43 19 7 0 0
-0.0539 0.1157 0.0082 -0.873 0.465 0.146 33 16 7 0 0
-0.0544 0.1159 0.0053 -0.842 0.502 0.196 33 16 7 0 0
-0.0543 0.1157 0.0024 -0.844 0.502 0.189 34 15 7 0 0
-0.0523 0.1140 -0.0183 -0.865 0.501 0.001 42 20 9 0 0
-0.0525 0.1140 -0.0212 -0.865 0.496 0.069 38 18 11 0 0
-0.0528 0.1140 -0.0242 -0.761 0.645 0.072 35 16 9 0 0
-0.0240 0.0972 -0.0672 -0.526 -0.212 0.824 41 32 33 0 0
-0.0431 0.1073 -0.0722 -0.702 -0.549 0.453 60 41 39 0 0
-0.1395 0.1566 -0.1381 -0.922 0.232 0.311 55 28 11 0 0
-0.1448 0.1592 -0.1462 -0.932 0.116 0.344 58 38 26 0 0
-0.0902 0.1271 -0.2326 -0.992 0.075 0.104 63 50 44 0 0
-0.0820 0.1226 -0.2369 -0.847 0.472 -0.243 65 52 44 0 0
-0.0840 0.1236 -0.2396 -0.995 0.020 -0.102 63 52 43 0 0
-0.0842 0.1235 -0.2426 -0.919 -0.369 -0.141 61 51 42 0 0
-0.0728 0.1172 -0.2505 -0.903 -0.042 0.428 64 49 42 0 0
-0.0655 0.1127 -0.2670 -0.854 0.140 -0.502 68 53 46 0 0
-0.0647 0.1115 -0.2918 -0.866 -0.489 0.102 64 47 40 0 0
-0.0641 0.1109 -0.3012 -0.719 -0.647 0.254 73 59 48 0 0
-0.0623 0.1070 -0.3891 -0.985 -0.147 0.093 71 56 51 0 0
-0.0653 0.1085 -0.3916 -0.945 -0.283 0.164 72 57 51 0 0
-0.1224 0.1375 -0.4360 -0.898 -0.267 -0.350 80 65 53 0 0
-0.0142 0.0692 -0.7519 -0.104 0.934 -0.342 202 202 203 0 0
-0.0312 0.0771 -0.7857 -0.769 -0.509 0.387 89 66 49 0 0
-0.0943 0.1062 -0.9258 -0.972 -0.086 0.218 88 70 59 0 0
-0.1105 0.1133 -0.9714 -0.731 0.119 0.672 83 63 49 0 0
-0.1799 0.1470 -1.0742 -0.807 0.589 0.046 70 49 39 0 0
-0.1814 0.1477 -1.0765 -0.856 0.437 -0.276 64 45 38 0 0
-0.1794 0.1465 -1.0813 -0.934 0.343 -0.103 58 39 32 0 0
-0.0040 0.0955 0.0973 -0.521 -0.498 0.693 182 181 181 0 0
-0.0212 0.1043 0.0878 -0.652 -0.621 0.435 116 95 83 0 0
-0.0396 0.1134 0.0668 -0.740 -0.652 0.166 90 64 43 0 0
-0.0407 0.1139 0.0638 -0.740 -0.652 0.166 85 60 40 0 0
-0.0509 0.1192 0.0607 -0.748 -0.556 0.362 80 55 36 0 0
-0.0517 0.1190 0.0403 -0.804 0.571 0.169 43 19 7 0 0
-0.0519 0.1190 0.0374 -0.787 0.548 0.283 43 19 8 0 0
-0.0530 0.1184 0.0023 -0.886 0.459 0.062 36 18 8 0 0
-0.0496 0.1158 -0.0213 -0.912 0.406 0.057 36 16 9 0 0
-0.1272 0.1535 -0.1306 -0.539 0.645 0.542 70 39 19 0 0
-0.1080 0.1415 -0.1853 -0.883 -0.086 -0.462 59 48 42 0 0
-0.1132 0.1438 -0.1994 -0.860 0.055 0.507 60 49 43 0 0
-0.0737 0.1211 -0.2502 -0.872 -0.255 0.419 64 49 42 0 0
-0.0672 0.1163 -0.2912 -0.939 -0.328 0.105 60 42 36 0 0
-0.0603 0.1096 -0.3830 -0.855 -0.511 0.091 73 56 46 0 0
-0.1201 0.1398 -0.4333 -0.994 -0.006 -0.113 75 51 36 0 0
-0.1158 0.1373 -0.4376 -0.949 -0.190 -0.252 81 64 52 0 0
-0.0115 0.0718 -0.7388 -0.216 0.922 -0.321 207 207 209 0 0
-0.0938 0.1096 -0.9220 -0.964 -0.229 -0.131 85 66 55 0 0
-0.0931 0.1092 -0.9257 -0.964 -0.229 -0.131 86 66 55 0 0
-0.0964 0.1109 -0.9273 -0.950 0.119 0.290 86 67 52 0 0
-0.1332 0.1284 -0.9913 -0.083 -0.051 0.995 90 70 59 0 0
-0.1782 0.1493 -1.0813 -0.984 0.152 0.097 61 43 33 0 0
-0.1805 0.1505 -1.0831 -0.979 -0.198 -0.046 53 35 25 0 0
-0.0515 0.1224 0.0461 -0.859 0.493 0.138 42 19 7 0 0
-0.0514 0.1210 0.0052 -0.883 0.431 0.186 42 21 10 0 0
-0.0520 0.1212 0.0023 -0.858 0.481 0.179 42 20 9 0 0
-0.0519 0.1211 -0.0007 -0.876 0.470 0.111 44 23 11 0 0
-0.0497 0.1194 -0.0184 -0.922 0.386 0.014 45 22 11 0 0
-0.0498 0.1193 -0.0213 -0.922 0.386 0.014 41 20 11 0 0
-0.0504 0.1178 -0.0777 -0.490 0.871 -0.047 79 59 47 0 0
-0.1249 0.1556 -0.1307 -0.539 0.645 0.542 63 32 12 0 0
-0.1165 0.1496 -0.1782 -0.614 0.511 -0.601 60 48 42 0 0
-0.1087 0.1452 -0.1851 -0.861 0.164 -0.481 59 47 41 0 0
-0.1071 0.1443 -0.1882 -0.861 0.164 -0.481 59 47 41 0 0
-0.0701 0.1213 -0.2905 -0.933 -0.355 -0.050 61 43 36 0 0
-0.0881 0.1270 -0.4073 -0.544 -0.385 0.745 67 49 42 0 0
-0.0105 0.0754 -0.7283 -0.265 0.915 -0.303 206 205 208 0 0
-0.0936 0.1130 -0.9248 -0.937 -0.124 -0.327 86 65 54 0 0
-0.1368 0.1344 -0.9715 -0.880 -0.360 0.309 86 65 53 0 0
-0.1792 0.1553 -1.0225 -0.956 -0.207 0.209 73 38 13 0 0
-0.1784 0.1522 -1.1041 -0.866 -0.075 0.495 72 46 32 0 0
-0.0484 0.1240 0.0432 -0.860 0.481 0.171 45 23 9 0 0
-0.0487 0.1241 0.0402 -0.865 0.457 0.208 46 24 10 0 0
-0.0496 0.1234 0.0051 -0.834 0.529 0.154 50 28 15 0 0
-0.1067 0.1473 -0.1911 -0.474 0.700 -0.535 59 46 40 0 0
-0.1155 0.1518 -0.1959 -0.351 0.691 -0.632 59 46 40 0 0
-0.1137 0.1507 -0.1991 -0.791 0.044 -0.610 58 45 39 0 0
-0.1144 0.1510 -0.2019 -0.927 0.154 -0.341 59 46 40 0 0
-0.0702 0.1253 -0.2749 -0.915 -0.346 0.207 57 39 35 0 0
-0.0960 0.1347 -0.4051 -0.776 -0.544 0.320 66 48 39 0 0
-0.1201 0.1466 -0.4327 -0.790 0.553 0.266 72 47 29 0 0
-0.0092 0.0787 -0.7180 -0.280 0.921 -0.271 204 203 205 0 0
-0.0080 0.0779 -0.7220 -0.280 0.921 -0.271 202 202 204 0 0
-0.0066 0.0771 -0.7260 -0.288 0.912 -0.290 195 195 195 0 0
-0.1161 0.1305 -0.8645 -0.979 -0.150 0.140 95 69 50 0 0
-0.1180 0.1310 -0.8803 -0.957 0.069 -0.283 87 64 49 0 0
-0.1153 0.1294 -0.8851 -0.896 0.412 0.169 83 61 47 0 0
-0.1082 0.1239 -0.9399 -0.462 0.885 0.056 85 59 43 0 0
-0.1841 0.1592 -1.0892 -0.982 0.183 0.044 56 36 24 0 0
-0.1859 0.1601 -1.0913 -0.855 0.328 0.402 67 43 31 0 0
-0.1958 0.1632 -1.1555 -0.950 0.024 0.311 133 126 118 0 0
-0.1973 0.1639 -1.1578 -0.689 0.003 0.725 161 157 154 0 0
-0.2043 0.1675 -1.1628 -0.439 0.057 0.897 190 190 190 0 0
-0.0467 0.1270 0.0606 -0.925 0.357 0.131 48 23 10 0 0
-0.0470 0.1271 0.0577 -0.925 0.357 0.131 50 25 12 0 0
-0.0473 0.1272 0.0547 -0.920 0.295 0.257 47 22 11 0 0
-0.0458 0.1262 0.0489 -0.859 0.500 0.110 47 23 10 0 0
-0.0473 0.1267 0.0402 -0.865 0.457 0.208 44 22 8 0 0
-0.0479 0.1269 0.0373 -0.864 0.477 0.161 45 23 11 0 0
-0.0483 0.1271 0.0343 -0.864 0.477 0.161 47 25 13 0 0
-0.0482 0.1252 -0.0214 -0.960 0.252 0.122 50 27 13 0 0
-0.0873 0.1435 -0.0930 -0.983 0.083 -0.165 63 43 33 0 0
-0.1300 0.1645 -0.1388 -0.740 0.614 0.275 53 26 11 0 0
-0.1317 0.1654 -0.1415 -0.687 0.628 0.366 51 24 10 0 0
-0.1131 0.1536 -0.2020 -0.906 -0.107 -0.409 58 45 39 0 0
-0.0734 0.1302 -0.2803 -0.977 -0.207 0.046 57 40 32 0 0
-0.0506 0.1157 -0.3594 -0.989 -0.145 0.026 55 38 31 0 0
-0.0490 0.1017 -0.7686 -0.741 -0.449 0.499 81 54 38 0 0
-0.0470 0.1005 -0.7729 -0.800 -0.310 0.514 78 52 38 0 0
-0.1180 0.1346 -0.8763 -0.990 0.122 -0.076 89 66 49 0 0
-0.1042 0.1252 -0.9448 -0.663 0.554 -0.503 84 58 43 0 0
-0.1236 0.1346 -0.9711 -0.850 -0.489 0.195 87 68 56 0 0
-0.1853 0.1630 -1.0976 -0.951 0.234 0.201 70 44 30 0 0
-0.1943 0.1660 -1.1523 -0.991 -0.014 0.132 91 81 70 0 0
-0.1955 0.1666 -1.1548 -0.950 0.024 0.311 123 116 106 0 0
-0.0432 0.1289 0.0722 -0.784 0.614 0.088 44 17 7 0 0
-0.0434 0.1289 0.0693 -0.925 0.371 0.083 46 20 8 0 0
-0.0441 0.1292 0.0664 -0.994 0.062 0.089 50 24 11 0 0
-0.0438 0.1288 0.0576 -0.923 0.323 0.211 49 24 11 0 0
-0.0462 0.1297 0.0460 -0.932 0.264 0.249 47 25 11 0 0
-0.0457 0.1285 0.0167 -0.940 0.095 0.328 43 21 10 0 0
-0.0460 0.1284 0.0079 -0.827 0.444 0.344 46 24 11 0 0
-0.0472 0.1289 0.0050 -0.892 0.445 0.079 44 22 10 0 0
-0.0475 0.1290 0.0021 -0.886 0.459 0.062 44 22 10 0 0
-0.0469 0.1283 -0.0097 -0.865 0.462 0.197 46 23 10 0 0
-0.0475 0.1285 -0.0126 -0.865 0.462 0.197 48 25 12 0 0
-0.0361 0.1210 -0.0605 -0.734 -0.467 0.492 39 24 17 0 0
-0.0908 0.1442 -0.2349 -0.521 0.641 0.564 60 47 39 0 0
-0.0744 0.1334 -0.3014 -0.889 -0.380 0.255 61 44 36 0 0
-0.0505 0.1192 -0.3560 -0.975 -0.216 -0.051 51 37 29 0 0
-0.1282 0.1578 -0.4238 -0.573 0.485 0.661 65 33 16 0 0
-0.0277 0.0950 -0.7400 -0.696 -0.673 0.250 86 65 49 0 0
-0.0433 0.1025 -0.7638 -0.626 -0.239 0.743 79 52 34 0 0
-0.0505 0.1063 -0.7640 -0.879 -0.180 0.442 79 52 36 0 0
-0.0483 0.1048 -0.7718 -0.541 0.791 -0.286 77 49 37 0 0
-0.1184 0.1386 -0.8688 -0.984 0.125 -0.124 88 65 47 0 0
-0.1203 0.1395 -0.8711 -0.779 0.041 0.625 88 65 48 0 0
-0.1474 0.1503 -0.9798 -0.770 0.468 0.433 93 75 65 0 0
-0.1771 0.1632 -1.0653 -0.856 0.439 0.272 83 58 38 0 0
-0.1778 0.1635 -1.0682 -0.856 0.439 0.272 83 58 40 0 0
-0.1826 0.1653 -1.0886 -0.827 0.209 0.523 51 33 24 0 0
-0.1837 0.1658 -1.0912 -0.855 0.328 0.402 57 37 27 0 0
-0.1949 0.1697 -1.1544 -0.971 0.104 0.215 115 107 95 0 0
-0.1964 0.1704 -1.1567 -0.712 0.019 0.701 146 143 136 0 0
-0.0134 0.1176 0.1023 -0.525 -0.338 0.781 125 106 94 0 0
-0.0416 0.1314 0.0721 -0.828 0.528 0.190 47 21 7 0 0
-0.0423 0.1317 0.0692 -0.925 0.371 0.083 48 21 8 0 0
-0.0426 0.1318 0.0663 -0.925 0.371 0.083 48 22 9 0 0
-0.0428 0.1318 0.0634 -0.925 0.371 0.083 48 22 9 0 0
-0.0430 0.1318 0.0605 -0.959 0.199 0.201 48 22 9 0 0
-0.0449 0.1310 0.0049 -0.777 0.623 0.091 42 20 9 0 0
-0.0462 0.1315 -0.0009 -0.873 0.483 -0.061 39 18 7 0 0
-0.0474 0.1311 -0.0363 -0.754 0.551 0.358 39 20 10 0 0
-0.0377 0.1254 -0.0545 -0.401 0.903 0.157 36 22 14 0 0
-0.1438 0.1782 -0.1401 -0.743 0.664 -0.088 55 28 14 0 0
-0.0893 0.1468 -0.2349 -0.468 0.868 0.167 58 45 39 0 0
-0.0661 0.1330 -0.2874 -0.910 -0.075 0.407 58 41 33 0 0
-0.0730 0.1362 -0.2985 -0.692 -0.126 0.711 45 30 23 0 0
-0.0750 0.1372 -0.3011 -0.944 -0.043 0.328 47 31 24 0 0
-0.0699 0.1321 -0.3796 -0.945 0.321 -0.067 61 43 35 0 0
-0.1184 0.1561 -0.4231 -0.950 0.313 -0.025 72 38 19 0 0
-0.1274 0.1608 -0.4238 -0.938 -0.012 0.346 65 34 16 0 0
-0.1171 0.1552 -0.4296 -0.911 0.301 0.281 62 31 14 0 0
-0.0328 0.1017 -0.7305 -0.625 -0.716 0.311 85 63 46 0 0
-0.0505 0.1099 -0.7634 -0.929 0.348 -0.126 77 51 37 0 0
-0.0467 0.1074 -0.7787 -0.979 0.120 0.167 73 50 34 0 0
-0.1046 0.1329 -0.9330 -0.942 0.276 0.190 83 60 43 0 0
-0.1053 0.1332 -0.9360 -0.770 0.535 0.347 76 50 33 0 0
-0.1060 0.1334 -0.9390 -0.810 0.515 0.281 72 45 26 0 0
-0.1474 0.1537 -0.9824 -0.994 0.033 -0.102 96 78 68 0 0
-0.1829 0.1706 -1.0372 -0.993 0.088 -0.080 82 51 25 0 0
-0.1769 0.1665 -1.0680 -0.862 0.257 0.437 84 58 40 0 0
-0.1892 0.1730 -1.0664 -0.955 0.094 -0.282 77 53 38 0 0
-0.1827 0.1686 -1.0978 -0.788 0.565 0.246 70 43 29 0 0
-0.1808 0.1670 -1.1160 -0.782 0.441 0.439 83 51 26 0 0
-0.1935 0.1724 -1.1545 -0.997 0.074 -0.033 105 97 86 0 0
0.0122 0.1080 0.1121 -0.427 -0.348 0.835 184 182 183 0 0
-0.0172 0.1230 0.1020 -0.525 -0.338 0.781 115 93 79 0 0
-0.0468 0.1379 0.0864 -0.850 0.419 -0.320 60 32 14 0 0
-0.0419 0.1348 0.0691 -0.967 0.243 -0.082 48 22 9 0 0
-0.0414 0.1345 0.0663 -0.874 0.449 0.184 48 22 9 0 0
-0.0417 0.1346 0.0633 -0.925 0.371 0.083 48 22 9 0 0
-0.0430 0.1339 0.0196 -0.876 0.435 0.210 42 20 6 0 0
-0.0460 0.1336 -0.0393 -0.980 0.142 0.139 38 20 10 0 0
-0.0841 0.1473 -0.2356 -0.644 0.760 -0.081 56 44 38 0 0
-0.0778 0.1437 -0.2487 -0.302 0.945 0.127 56 41 36 0 0
-0.0785 0.1440 -0.2516 -0.537 0.644 0.545 57 41 34 0 0
-0.0804 0.1449 -0.2543 -0.717 0.559 0.415 56 40 33 0 0
-0.0663 0.1365 -0.2872 -0.910 -0.075 0.407 54 38 29 0 0
-0.0740 0.1402 -0.2981 -0.913 -0.020 0.408 47 32 24 0 0
-0.0740 0.1400 -0.3012 -0.980 -0.128 0.154 51 36 28 0 0
-0.0638 0.1319 -0.3933 -0.787 0.599 0.150 51 33 26 0 0
-0.1091 0.1551 -0.4069 -0.237 0.587 0.774 94 74 64 0 0
-0.1165 0.1588 -0.4111 -0.060 0.741 0.669 101 81 71 0 0
-0.1195 0.1601 -0.4195 -0.842 0.246 0.480 72 40 20 0 0
-0.1167 0.1585 -0.4233 -0.807 0.581 0.104 70 37 18 0 0
-0.1134 0.1564 -0.4365 -0.891 0.266 -0.367 73 46 35 0 0
0.0130 0.0857 -0.5916 -0.676 -0.737 0.004 186 187 188 0 0
-0.0529 0.1150 -0.7551 -0.926 0.350 -0.141 79 53 37 0 0
-0.1167 0.1443 -0.8817 -0.764 0.593 -0.255 87 61 46 0 0
-0.1157 0.1437 -0.8856 -0.758 0.548 -0.353 84 59 46 0 0
-0.0943 0.1314 -0.9210 -0.983 -0.165 0.075 75 49 34 0 0
-0.1035 0.1359 -0.9295 -0.987 -0.031 0.155 81 58 44 0 0
-0.1045 0.1364 -0.9324 -0.974 0.227 0.018 82 58 42 0 0
-0.1047 0.1364 -0.9357 -0.942 0.230 0.244 82 55 38 0 0
-0.1054 0.1367 -0.9387 -0.908 0.334 0.252 77 50 32 0 0
-0.1053 0.1365 -0.9421 -0.893 0.409 0.189 77 50 30 0 0
-0.1173 0.1429 -0.9387 -0.661 0.610 0.437 80 54 36 0 0
-0.1110 0.1393 -0.9491 -0.750 0.258 -0.609 86 65 49 0 0
-0.1055 0.1361 -0.9591 -0.700 0.175 -0.693 91 73 62 0 0
-0.1826 0.1742 -1.0265 -0.840 0.509 0.189 82 46 20 0 0
-0.1836 0.1746 -1.0292 -0.794 0.445 0.415 85 50 24 0 0
-0.1845 0.1750 -1.0320 -0.816 0.572 -0.080 84 51 24 0 0
-0.1820 0.1716 -1.1008 -0.849 0.492 -0.195 73 45 31 0 0
-0.2017 0.1798 -1.1646 -0.491 -0.021 0.871 191 191 191 0 0
-0.0451 0.1403 0.0863 -0.899 0.436 0.038 59 30 15 0 0
-0.0400 0.1369 0.0604 -0.878 0.295 0.376 49 23 10 0 0
-0.0447 0.1379 0.0137 -0.975 0.219 0.030 41 19 7 0 0
-0.0448 0.1379 0.0107 -0.975 0.219 0.030 40 18 7 0 0
-0.0451 0.1377 0.0019 -0.962 0.209 0.176 38 16 5 0 0
-0.0441 0.1372 -0.0010 -0.974 0.228 0.014 40 18 7 0 0
-0.0438 0.1368 -0.0069 -0.808 0.428 0.405 33 14 5 0 0
-0.0477 0.1386 -0.0127 -0.863 0.398 0.309 35 17 7 0 0
-0.0445 0.1368 -0.0187 -0.928 0.363 0.084 34 15 6 0 0
-0.0447 0.1368 -0.0216 -0.828 0.558 0.057 35 15 6 0 0
-0.1151 0.1707 -0.1082 -0.494 0.009 0.869 84 65 58 0 0
-0.1379 0.1815 -0.1435 -0.692 0.676 0.255 54 31 16 0 0
-0.0910 0.1548 -0.2195 -0.547 0.715 0.436 55 44 40 0 0
-0.0923 0.1554 -0.2223 -0.821 0.553 0.142 54 43 39 0 0
-0.0757 0.1458 -0.2549 -0.678 -0.181 0.713 54 40 33 0 0
-0.0685 0.1411 -0.2867 -0.988 -0.156 -0.001 51 37 28 0 0
-0.0740 0.1435 -0.3010 -0.959 -0.148 0.241 47 33 23 0 0
-0.0670 0.1392 -0.3208 -0.975 -0.053 0.218 62 39 25 0 0
-0.0618 0.1342 -0.3967 -0.940 -0.248 -0.236 52 32 25 0 0
-0.0607 0.1335 -0.4001 -0.940 -0.248 -0.236 48 28 21 0 0
-0.1181 0.1628 -0.4165 -0.765 0.642 -0.057 75 47 26 0 0
0.0007 0.0935 -0.6648 -0.678 -0.732 0.075 121 110 104 0 0
-0.0383 0.1111 -0.7508 -0.456 0.791 0.409 78 53 33 0 0
-0.1138 0.1470 -0.8593 -0.975 0.218 0.031 83 47 23 0 0
-0.1156 0.1474 -0.8783 -0.931 0.365 -0.016 84 58 41 0 0
-0.1149 0.1468 -0.8855 -0.955 0.216 -0.202 83 58 44 0 0
-0.0952 0.1352 -0.9301 -0.974 -0.220 0.056 79 56 42 0 0
-0.1160 0.1456 -0.9421 -0.987 0.146 0.069 83 56 38 0 0
-0.1411 0.1573 -0.9848 -0.961 -0.143 0.238 97 79 69 0 0
-0.1814 0.1770 -1.0266 -0.857 0.497 0.133 82 46 20 0 0
-0.1821 0.1773 -1.0294 -0.845 0.455 0.280 84 48 22 0 0
-0.1827 0.1754 -1.0995 -0.919 0.254 0.303 72 44 30 0 0
-0.1934 0.1797 -1.1393 -0.921 0.318 -0.226 84 60 40 0 0
-0.0438 0.1430 0.0863 -0.899 0.436 0.038 54 26 10 0 0
-0.0425 0.1397 0.0019 -0.950 0.239 0.202 40 18 7 0 0
-0.0419 0.1393 -0.0040 -0.940 0.253 0.230 37 16 6 0 0
-0.0426 0.1393 -0.0158 -0.828 0.558 0.057 32 14 4 0 0
-0.1432 0.1879 -0.1286 -0.786 0.614 -0.074 66 37 14 0 0
-0.1396 0.1857 -0.1404 -0.884 0.415 0.214 50 27 13 0 0
-0.0793 0.1498 -0.2937 -0.958 -0.114 0.262 41 27 18 0 0
-0.0765 0.1483 -0.2972 -0.983 0.131 0.127 39 26 15 0 0
-0.0765 0.1482 -0.3003 -0.965 -0.011 0.264 45 31 20 0 0
-0.0672 0.1427 -0.3205 -0.975 -0.053 0.218 56 32 18 0 0
-0.0609 0.1372 -0.3966 -0.829 -0.554 0.078 52 33 24 0 0
-0.1010 0.1576 -0.4084 -0.465 0.594 0.656 94 72 65 0 0
-0.1204 0.1669 -0.4309 -0.980 0.147 -0.134 68 41 22 0 0
-0.0445 0.1181 -0.7476 -0.964 0.093 0.250 80 55 33 0 0
-0.1104 0.1477 -0.8940 -0.996 0.039 -0.086 74 48 35 0 0
-0.1153 0.1488 -0.9418 -0.964 0.231 -0.130 80 52 32 0 0
-0.1333 0.1572 -0.9719 -0.951 0.307 0.045 91 73 63 0 0
-0.1329 0.1569 -0.9755 -0.985 0.121 -0.127 94 76 66 0 0
-0.1361 0.1585 -0.9770 -1.000 0.007 -0.026 93 75 65 0 0
-0.1401 0.1604 -0.9813 -0.910 0.409 0.070 96 78 68 0 0
-0.1714 0.1750 -1.0323 -0.854 0.521 -0.004 83 48 21 0 0
-0.1811 0.1802 -1.0293 -0.926 0.353 0.135 86 50 24 0 0
-0.1735 0.1760 -1.0376 -0.872 0.488 0.024 86 51 25 0 0
-0.1959 0.1847 -1.1332 -0.977 0.119 0.175 87 62 42 0 0
-0.1918 0.1820 -1.1531 -0.959 0.159 0.236 85 73 62 0 0
-0.0432 0.1457 0.0747 -0.985 0.162 0.065 52 24 10 0 0
-0.0446 0.1454 0.0427 -0.872 0.416 0.259 48 21 9 0 0
-0.0443 0.1452 0.0398 -0.946 0.323 -0.039 48 21 8 0 0
-0.0413 0.1419 -0.0188 -0.798 0.582 0.158 41 21 11 0 0
-0.0446 0.1425 -0.0541 -0.829 0.520 0.207 37 19 9 0 0
-0.0883 0.1596 -0.2346 -0.992 -0.067 0.107 49 38 32 0 0
-0.0812 0.1553 -0.2568 -0.889 0.143 0.435 52 37 30 0 0
-0.0841 0.1566 -0.2623 -0.863 0.257 -0.436 51 36 29 0 0
-0.0830 0.1560 -0.2655 -0.868 0.325 -0.374 51 36 29 0 0
-0.0822 0.1555 -0.2687 -0.757 0.429 -0.493 51 37 28 0 0
-0.0803 0.1544 -0.2720 -0.837 0.323 -0.441 51 37 28 0 0
-0.0820 0.1552 -0.2748 -0.928 0.372 0.031 49 35 26 0 0
-0.1021 0.1614 -0.4140 -0.475 0.759 0.445 105 88 77 0 0
-0.0472 0.1232 -0.7425 -0.989 -0.060 0.138 80 54 35 0 0
-0.1034 0.1469 -0.9174 -0.986 0.004 0.164 72 49 33 0 0
-0.1155 0.1523 -0.9444 -0.725 0.675 0.136 77 49 31 0 0
-0.1163 0.1526 -0.9473 -0.622 0.783 0.027 85 60 40 0 0
-0.1326 0.1602 -0.9749 -0.985 0.121 -0.127 96 78 68 0 0
-0.1697 0.1777 -1.0292 -0.854 0.521 -0.004 83 46 20 0 0
-0.1698 0.1777 -1.0325 -0.854 0.521 -0.004 87 52 24 0 0
-0.1720 0.1787 -1.0378 -0.872 0.488 0.024 88 53 26 0 0
-0.1832 0.1825 -1.1009 -0.815 0.327 0.479 73 44 27 0 0
-0.1853 0.1833 -1.1095 -0.897 0.442 0.021 85 52 22 0 0
-0.1927 0.1858 -1.1550 -0.902 0.175 0.396 107 100 91 0 0
-0.0377 0.1451 0.0398 -0.885 0.389 0.255 56 29 11 0 0
-0.0436 0.1481 0.0369 -0.969 0.245 0.042 57 30 11 0 0
-0.0404 0.1454 0.0018 -0.890 0.411 0.199 44 19 9 0 0
-0.0713 0.1590 -0.0734 -0.795 -0.027 0.606 90 70 61 0 0
-0.1028 0.1701 -0.2441 -0.874 -0.436 -0.214 53 38 33 0 0
-0.0836 0.1599 -0.2562 -0.949 -0.229 0.219 51 36 29 0 0
-0.0828 0.1594 -0.2594 -0.983 0.130 0.129 52 37 30 0 0
-0.0820 0.1588 -0.2655 -0.847 0.236 -0.477 48 33 26 0 0
-0.0816 0.1583 -0.2747 -0.914 0.369 -0.165 48 34 25 0 0
-0.0694 0.1491 -0.3754 -0.680 0.674 0.290 60 45 40 0 0
-0.0698 0.1491 -0.3815 -0.963 0.009 0.270 50 29 17 0 0
-0.1192 0.1730 -0.4307 -0.910 0.338 0.241 67 38 20 0 0
-0.0430 0.1253 -0.7169 -0.844 -0.253 0.473 78 49 31 0 0
-0.0445 0.1260 -0.7229 -0.683 0.259 0.683 74 45 27 0 0
-0.0440 0.1252 -0.7400 -0.917 -0.319 0.238 77 50 31 0 0
-0.0443 0.1253 -0.7432 -0.995 -0.089 0.038 77 50 31 0 0
-0.0427 0.1243 -0.7473 -0.916 0.242 -0.319 77 50 31 0 0
-0.0944 0.1482 -0.8373 -0.512 0.676 0.531 79 50 32 0 0
-0.1018 0.1520 -0.8369 -0.840 0.224 0.493 78 49 30 0 0
-0.1052 0.1513 -0.9191 -0.979 -0.173 -0.104 76 53 37 0 0
-0.1132 0.1548 -0.9416 -0.906 0.378 -0.189 78 49 31 0 0
-0.1134 0.1547 -0.9449 -0.685 0.704 0.187 78 49 31 0 0
-0.1142 0.1550 -0.9512 -0.776 0.630 -0.046 87 62 45 0 0
-0.1443 0.1695 -0.9840 -0.991 0.087 0.098 105 85 75 0 0
-0.1441 0.1693 -0.9875 -0.990 -0.127 -0.058 102 82 71 0 0
-0.1930 0.1923 -1.0565 -0.994 0.075 0.079 82 57 37 0 0
-0.1735 0.1811 -1.0966 -0.712 0.696 0.099 61 37 25 0 0
-0.0411 0.1502 0.0397 -0.820 0.509 0.263 57 28 11 0 0
-0.0388 0.1477 -0.0042 -0.865 0.498 0.060 44 17 6 0 0
-0.0389 0.1477 -0.0071 -0.894 0.448 -0.033 43 19 7 0 0
-0.0385 0.1474 -0.0101 -0.825 0.565 0.003 44 20 8 0 0
-0.0385 0.1473 -0.0130 -0.825 0.565 0.003 43 19 7 0 0
-0.1156 0.1821 -0.1716 -0.775 0.622 0.113 59 44 39 0 0
-0.0997 0.1720 -0.2385 -0.990 0.137 0.022 53 38 33 0 0
-0.0846 0.1634 -0.2680 -0.665 0.732 0.149 48 34 25 0 0
-0.0676 0.1516 -0.3755 -0.511 0.580 0.634 61 46 41 0 0
-0.0698 0.1526 -0.3781 -0.713 0.279 0.643 56 38 30 0 0
-0.0690 0.1521 -0.3814 -0.870 0.249 0.426 51 30 18 0 0
-0.0376 0.1274 -0.6751 -0.606 -0.124 0.786 77 49 28 0 0
-0.0397 0.1284 -0.6775 -0.567 0.111 0.816 76 48 28 0 0
-0.1088 0.1583 -0.8627 -0.956 0.142 -0.255 85 48 21 0 0
-0.0988 0.1518 -0.9118 -0.974 0.100 -0.204 65 39 24 0 0
-0.1019 0.1533 -0.9135 -0.897 0.000 0.442 63 38 22 0 0
-0.1035 0.1540 -0.9160 -0.934 -0.040 0.354 70 47 31 0 0
-0.1063 0.1554 -0.9178 -0.972 -0.215 0.093 76 53 37 0 0
-0.1063 0.1548 -0.9381 -0.868 0.352 0.349 81 54 35 0 0
-0.1067 0.1550 -0.9413 -0.910 0.412 -0.040 80 52 34 0 0
-0.1060 0.1545 -0.9451 -0.818 0.572 -0.065 80 51 33 0 0
-0.1124 0.1576 -0.9482 -0.712 0.622 0.326 78 48 30 0 0
-0.1133 0.1580 -0.9510 -0.712 0.622 0.326 85 57 37 0 0
-0.1033 0.1523 -0.9705 -0.277 -0.651 0.707 95 76 68 0 0
-0.1410 0.1715 -0.9752 -0.866 0.498 0.041 109 86 77 0 0
-0.1920 0.1952 -1.0564 -0.972 0.221 0.078 83 58 38 0 0
-0.1891 0.1914 -1.1355 -0.964 0.217 -0.153 85 57 36 0 0
-0.1901 0.1915 -1.1517 -0.957 0.050 0.287 73 58 45 0 0
-0.2050 0.1988 -1.1611 -0.991 0.134 -0.003 193 193 195 0 0
-0.0706 0.1652 -0.0763 -0.896 0.115 0.429 133 115 108 0 0
-0.0859 0.1725 -0.0928 -0.742 0.601 0.297 48 24 17 0 0
-0.0861 0.1725 -0.0957 -0.611 0.676 0.411 70 50 44 0 0
-0.1328 0.1946 -0.1551 -0.663 0.676 0.321 60 44 38 0 0
-0.1279 0.1918 -0.1643 -0.998 -0.063 0.031 62 47 40 0 0
-0.1078 0.1809 -0.1870 -0.931 0.238 -0.278 56 42 37 0 0
-0.1058 0.1798 -0.1902 -0.907 -0.180 -0.379 55 41 37 0 0
-0.1064 0.1800 -0.1931 -0.961 -0.274 0.030 54 40 36 0 0
-0.1062 0.1798 -0.1961 -0.966 -0.255 -0.034 54 41 36 0 0
-0.0886 0.1691 -0.2581 -0.924 0.007 0.383 49 35 28 0 0
-0.0709 0.1565 -0.3807 -0.797 0.463 0.388 48 27 17 0 0
-0.0376 0.1333 -0.5950 -0.893 -0.442 -0.081 79 52 34 0 0
-0.0364 0.1326 -0.5988 -0.951 -0.074 -0.300 80 55 36 0 0
-0.0354 0.1319 -0.6024 -0.951 0.252 -0.178 79 53 34 0 0
-0.0374 0.1321 -0.6347 -0.912 -0.232 0.339 89 62 38 0 0
-0.0365 0.1315 -0.6384 -0.817 -0.078 0.572 88 61 37 0 0
-0.0380 0.1322 -0.6411 -0.780 0.019 0.626 87 60 35 0 0
-0.0450 0.1344 -0.6883 -0.911 -0.393 0.123 75 44 24 0 0
-0.1209 0.1683 -0.8525 -0.866 0.234 -0.441 87 50 22 0 0
-0.1124 0.1637 -0.8602 -0.954 0.115 -0.275 88 52 25 0 0
-0.0997 0.1541 -0.9685 -0.341 -0.619 0.707 91 67 53 0 0
-0.1394 0.1743 -0.9721 -0.812 0.295 0.504 109 86 76 0 0
-0.1706 0.1865 -1.0969 -0.875 0.389 0.289 58 34 22 0 0
-0.1842 0.1935 -1.0943 -0.945 0.188 0.269 60 34 21 0 0
-0.1919 0.1957 -1.1529 -0.889 0.028 0.458 89 79 66 0 0
-0.0018 0.1391 0.1165 -0.489 0.872 -0.002 177 172 171 0 0
-0.0377 0.1565 0.0889 -0.797 0.596 0.100 67 34 15 0 0
-0.0380 0.1566 0.0860 -0.797 0.596 0.100 66 35 16 0 0
-0.0401 0.1562 0.0367 -0.747 0.622 0.235 61 33 12 0 0
-0.0357 0.1526 -0.0131 -0.925 0.364 0.104 50 24 11 0 0
-0.0360 0.1526 -0.0161 -0.914 0.381 0.139 48 22 9 0 0
-0.0436 0.1556 -0.0483 -0.936 0.335 0.110 49 27 14 0 0
-0.0391 0.1532 -0.0514 -0.930 0.254 0.264 49 27 13 0 0
-0.0830 0.1743 -0.0930 -0.904 0.279 0.323 45 21 15 0 0
-0.0834 0.1745 -0.0959 -0.923 0.329 0.197 56 36 31 0 0
-0.1176 0.1913 -0.1135 -0.974 0.125 0.190 103 81 68 0 0
-0.1074 0.1843 -0.1753 -0.839 -0.268 0.473 62 45 39 0 0
-0.1144 0.1877 -0.1832 -0.791 0.109 -0.602 58 44 37 0 0
-0.1087 0.1846 -0.1898 -0.934 -0.086 -0.348 56 41 38 0 0
-0.1087 0.1845 -0.1927 -0.901 -0.433 -0.005 55 41 36 0 0
-0.0886 0.1724 -0.2579 -0.924 0.007 0.383 50 35 28 0 0
-0.0772 0.1661 -0.2750 -0.847 0.510 -0.151 48 31 23 0 0
-0.0663 0.1583 -0.3537 -0.886 0.359 -0.294 38 21 14 0 0
-0.0674 0.1583 -0.3751 -0.968 0.167 0.189 56 38 31 0 0
-0.0950 0.1714 -0.4055 -0.730 0.418 -0.541 52 22 11 0 0
-0.0906 0.1690 -0.4128 -0.657 0.474 -0.586 104 85 74 0 0
-0.0413 0.1420 -0.4798 -0.802 0.581 0.137 60 36 25 0 0
-0.0398 0.1412 -0.4834 -0.423 0.879 0.219 60 36 25 0 0
-0.0350 0.1375 -0.5269 -0.928 0.177 0.328 68 43 30 0 0
-0.0377 0.1388 -0.5293 -0.930 0.079 0.360 66 42 29 0 0
-0.0380 0.1388 -0.5325 -0.978 0.137 0.156 67 42 29 0 0
-0.0385 0.1390 -0.5355 -0.984 0.064 0.166 67 43 30 0 0
-0.0371 0.1382 -0.5393 -0.978 -0.151 -0.143 69 43 28 0 0
-0.0365 0.1378 -0.5427 -0.978 -0.151 -0.143 67 41 26 0 0
-0.0375 0.1370 -0.5881 -0.990 0.031 0.134 76 49 30 0 0
-0.0328 0.1342 -0.5997 -0.913 0.281 -0.295 76 49 29 0 0
-0.0433 0.1376 -0.6685 -0.940 -0.199 0.277 77 46 26 0 0
-0.0456 0.1378 -0.7009 -0.966 -0.111 0.232 74 43 22 0 0
-0.0527 0.1408 -0.7246 -0.624 0.433 0.650 66 35 16 0 0
-0.0499 0.1389 -0.7426 -0.819 0.360 0.447 62 31 13 0 0
-0.0547 0.1410 -0.7539 -0.923 0.242 -0.298 62 31 13 0 0
-0.0527 0.1398 -0.7581 -0.915 0.340 -0.219 62 31 13 0 0
-0.0511 0.1387 -0.7689 -0.739 0.673 0.014 61 31 13 0 0
-0.1112 0.1659 -0.8836 -0.995 0.076 -0.068 79 51 38 0 0
-0.1367 0.1764 -0.9696 -0.679 0.569 0.465 108 86 75 0 0
-0.1389 0.1774 -0.9717 -0.774 0.392 0.498 111 89 78 0 0
-0.1401 0.1780 -0.9743 -0.748 0.458 0.480 107 86 74 0 0
-0.1440 0.1798 -0.9820 -0.833 0.216 0.510 108 88 77 0 0
-0.1511 0.1832 -0.9877 -0.977 0.179 0.116 106 86 77 0 0
-0.1809 0.1964 -1.0555 -0.876 0.069 0.477 81 54 35 0 0
-0.1689 0.1892 -1.0939 -0.808 0.289 0.513 52 29 21 0 0
-0.1830 0.1964 -1.0943 -0.772 0.521 0.364 63 37 24 0 0
-0.1847 0.1967 -1.1133 -0.988 -0.090 0.127 88 57 29 0 0
-0.1850 0.1967 -1.1165 -0.984 0.052 0.173 89 59 32 0 0
-0.0376 0.1602 0.1032 -0.870 0.024 0.493 150 131 117 0 0
-0.0350 0.1579 0.0686 -0.870 0.410 0.273 63 32 12 0 0
-0.0436 0.1589 -0.0483 -0.825 0.553 0.119 48 26 12 0 0
-0.0817 0.1769 -0.0960 -0.976 -0.095 0.197 49 29 23 0 0
-0.0819 0.1769 -0.0989 -0.936 -0.028 0.350 88 72 66 0 0
-0.1165 0.1940 -0.1135 -0.967 0.221 0.124 107 80 68 0 0
-0.1357 0.2032 -0.1318 -0.914 0.360 0.188 76 37 14 0 0
-0.1370 0.2036 -0.1374 -0.934 0.266 0.239 61 31 15 0 0
-0.1134 0.1905 -0.1803 -0.898 0.156 0.412 63 46 38 0 0
-0.1140 0.1907 -0.1831 -0.994 0.104 0.025 61 45 37 0 0
-0.1111 0.1890 -0.1923 -0.975 -0.173 -0.140 56 41 36 0 0
-0.0751 0.1686 -0.2691 -0.744 0.366 -0.560 47 30 22 0 0
-0.0747 0.1682 -0.2752 -0.909 0.415 0.039 47 30 22 0 0
-0.0746 0.1679 -0.2844 -0.713 0.427 0.555 47 33 24 0 0
-0.0768 0.1689 -0.2900 -0.886 0.268 0.379 39 25 16 0 0
-0.0661 0.1614 -0.3597 -0.951 0.305 -0.051 44 27 19 0 0
-0.0668 0.1614 -0.3750 -0.968 0.167 0.189 54 37 28 0 0
-0.0395 0.1446 -0.4800 -0.802 0.581 0.137 58 35 22 0 0
-0.0397 0.1446 -0.4831 -0.939 0.294 0.178 58 35 22 0 0
-0.0381 0.1437 -0.4868 -0.938 0.249 0.242 60 36 23 0 0
-0.0357 0.1413 -0.5296 -0.934 0.058 0.352 65 39 25 0 0
-0.0316 0.1390 -0.5341 -0.931 0.315 0.182 65 38 25 0 0
-0.0337 0.1400 -0.5400 -0.965 0.133 0.225 66 38 24 0 0
-0.0359 0.1409 -0.5458 -0.983 -0.052 0.179 68 40 26 0 0
-0.0362 0.1410 -0.5489 -0.981 0.105 0.165 69 40 26 0 0
-0.0372 0.1414 -0.5519 -0.912 0.260 0.318 70 42 26 0 0
-0.0331 0.1385 -0.5794 -0.993 -0.036 0.114 70 42 24 0 0
-0.0376 0.1405 -0.5910 -0.756 0.649 0.083 74 45 27 0 0
-0.0377 0.1404 -0.5942 -0.762 0.646 -0.045 73 43 25 0 0
-0.0355 0.1371 -0.6711 -0.926 0.378 -0.009 76 44 23 0 0
-0.1241 0.1771 -0.8430 -0.885 0.183 -0.427 78 41 15 0 0
-0.1173 0.1729 -0.8697 -0.962 0.216 0.169 86 58 38 0 0
-0.1413 0.1818 -0.9829 -0.777 0.628 -0.050 114 94 83 0 0
-0.0374 0.1634 0.1031 -0.907 0.174 0.383 131 114 99 0 0
-0.0346 0.1599 0.0308 -0.831 0.460 0.313 57 29 8 0 0
-0.0308 0.1564 -0.0281 -0.842 0.457 0.287 48 25 11 0 0
-0.0366 0.1590 -0.0397 -0.790 0.561 0.248 43 21 10 0 0
-0.0819 0.1802 -0.0959 -0.957 -0.111 0.269 47 27 20 0 0
-0.0819 0.1801 -0.0988 -0.971 0.003 0.240 91 75 69 0 0
-0.1298 0.2034 -0.1323 -0.885 0.460 0.070 80 41 13 0 0
-0.1374 0.2068 -0.1458 -0.857 0.413 0.309 65 39 26 0 0
-0.1385 0.2073 -0.1485 -0.761 0.261 0.594 59 38 28 0 0
-0.1121 0.1932 -0.1775 -0.922 0.136 0.361 64 47 39 0 0
-0.1141 0.1940 -0.1830 -0.922 0.136 0.361 62 45 37 0 0
-0.0883 0.1788 -0.2607 -0.848 0.428 0.312 50 36 27 0 0
-0.0783 0.1730 -0.2896 -0.882 0.420 0.216 42 28 19 0 0
-0.0570 0.1604 -0.3553 -0.980 -0.124 -0.159 37 20 13 0 0
-0.0651 0.1644 -0.3597 -0.951 0.305 -0.051 44 27 20 0 0
-0.0633 0.1633 -0.3663 -0.734 0.381 0.563 26 12 6 0 0
-0.0662 0.1645 -0.3749 -0.968 0.167 0.189 54 37 27 0 0
-0.0639 0.1630 -0.3848 -0.941 0.175 0.290 44 26 14 0 0
-0.0658 0.1639 -0.3874 -0.962 0.272 -0.026 44 24 13 0 0
-0.0376 0.1471 -0.4802 -0.990 0.107 0.092 55 32 18 0 0
-0.0377 0.1471 -0.4834 -0.995 0.001 0.100 52 29 15 0 0
-0.0389 0.1471 -0.5024 -0.954 0.245 0.173 62 39 23 0 0
-0.0351 0.1438 -0.5522 -0.831 0.423 0.363 67 38 22 0 0
-0.0339 0.1421 -0.5918 -0.623 0.754 0.211 68 38 20 0 0
-0.0398 0.1436 -0.6458 -0.981 0.017 0.193 81 46 24 0 0
-0.0467 0.1455 -0.6995 -0.960 0.223 0.170 63 32 14 0 0
-0.0670 0.1538 -0.7707 -0.605 0.770 0.202 60 28 11 0 0
-0.0653 0.1528 -0.7748 -0.774 0.554 0.307 59 26 11 0 0
-0.1805 0.2042 -1.0144 -0.974 0.188 0.128 85 46 16 0 0
-0.1826 0.2029 -1.0963 -0.820 -0.093 0.565 68 38 25 0 0
-0.1877 0.2053 -1.1028 -0.938 0.252 -0.239 90 54 22 0 0
-0.1868 0.2047 -1.1068 -0.935 0.293 -0.200 93 57 26 0 0
-0.1849 0.2037 -1.1115 -0.987 0.006 0.163 95 60 32 0 0
-0.1854 0.2038 -1.1145 -0.987 0.006 0.163 98 65 39 0 0
-0.0371 0.1665 0.1030 -0.798 0.558 0.230 125 108 94 0 0
-0.0381 0.1669 0.0972 -0.834 0.421 0.357 80 40 18 0 0
-0.0318 0.1634 0.0888 -0.785 0.619 0.030 57 25 8 0 0
-0.0312 0.1631 0.0859 -0.779 0.522 0.348 59 28 11 0 0
-0.0342 0.1644 0.0801 -0.865 0.498 0.064 62 29 10 0 0
-0.0321 0.1630 0.0685 -0.890 0.454 0.034 59 28 8 0 0
-0.0322 0.1630 0.0656 -0.890 0.454 0.034 61 30 10 0 0
-0.0345 0.1612 -0.0428 -0.817 0.568 0.101 41 19 8 0 0
-0.0814 0.1834 -0.0930 -0.943 0.253 0.215 46 21 10 0 0
-0.0820 0.1836 -0.0959 -0.943 0.253 0.215 57 35 25 0 0
-0.0821 0.1835 -0.0988 -0.969 0.223 -0.107 91 73 68 0 0
-0.0857 0.1852 -0.1014 -0.658 0.236 0.716 84 64 61 0 0
-0.1132 0.1987 -0.1166 -0.921 0.347 0.175 141 114 103 0 0
-0.1363 0.2094 -0.1487 -0.579 0.648 0.495 62 39 27 0 0
-0.1120 0.1963 -0.1774 -0.987 0.068 -0.146 63 46 38 0 0
-0.0764 0.1755 -0.2837 -0.837 0.408 0.365 48 34 25 0 0
-0.0758 0.1752 -0.2868 -0.666 0.349 0.659 48 34 25 0 0
-0.0770 0.1757 -0.2897 -0.882 0.420 0.216 43 29 20 0 0
-0.0583 0.1643 -0.3610 -0.796 0.415 0.441 37 21 14 0 0
-0.0635 0.1667 -0.3691 -0.893 0.292 0.343 31 16 9 0 0
-0.0637 0.1667 -0.3722 -0.967 0.230 0.108 47 29 21 0 0
-0.0640 0.1668 -0.3752 -0.967 0.230 0.108 54 36 26 0 0
-0.0672 0.1679 -0.3900 -0.957 0.255 0.137 56 33 21 0 0
-0.0676 0.1681 -0.3930 -0.957 0.255 0.137 64 37 24 0 0
-0.0385 0.1511 -0.4796 -0.944 -0.318 0.087 53 30 16 0 0
-0.0388 0.1511 -0.4828 -0.926 -0.356 0.128 51 28 14 0 0
-0.0374 0.1503 -0.4864 -0.844 -0.255 0.472 57 34 20 0 0
-0.0408 0.1518 -0.4918 -0.857 -0.261 0.444 60 37 23 0 0
-0.0340 0.1483 -0.4970 -0.730 0.467 0.499 59 36 22 0 0
-0.0493 0.1508 -0.6846 -0.944 0.326 0.038 63 32 14 0 0
-0.1120 0.1778 -0.8480 -0.764 0.593 -0.254 78 36 12 0 0
-0.1112 0.1772 -0.8517 -0.764 0.593 -0.254 82 40 14 0 0
-0.1085 0.1758 -0.8564 -0.949 0.305 0.084 87 47 18 0 0
-0.1338 0.1852 -0.9726 -0.807 0.569 0.155 112 90 79 0 0
-0.1343 0.1854 -0.9756 -0.740 0.660 0.126 111 89 78 0 0
-0.1343 0.1853 -0.9790 -0.583 0.768 0.264 113 91 80 0 0
-0.1350 0.1856 -0.9819 -0.485 0.750 0.450 117 95 84 0 0
-0.1371 0.1866 -0.9840 -0.864 0.497 0.082 113 91 80 0 0
-0.1551 0.1955 -0.9898 -0.892 -0.073 0.446 100 79 66 0 0
-0.1849 0.2071 -1.1107 -0.996 0.060 0.062 91 56 28 0 0
0.0080 0.1476 0.1165 -0.817 0.404 -0.410 137 124 116 0 0
-0.0311 0.1669 0.1060 -0.475 0.674 0.566 162 139 124 0 0
-0.0304 0.1654 0.0656 -0.852 0.517 0.087 61 29 10 0 0
-0.0807 0.1862 -0.0930 -0.943 0.253 0.215 44 18 6 0 0
-0.0810 0.1863 -0.0959 -0.941 0.301 0.157 47 25 14 0 0
-0.0812 0.1864 -0.0988 -0.957 0.221 -0.188 101 82 77 0 0
-0.0840 0.1877 -0.1015 -0.563 0.418 0.713 89 69 65 0 0
-0.1081 0.1996 -0.1054 -0.797 0.471 0.377 105 80 72 0 0
-0.1361 0.2124 -0.1487 -0.582 0.684 0.439 63 39 26 0 0
-0.1170 0.2024 -0.1651 -0.756 0.647 -0.098 65 48 38 0 0
-0.1145 0.2008 -0.1799 -0.909 0.413 -0.063 62 43 35 0 0
-0.1138 0.2001 -0.1916 -0.977 0.210 0.024 61 43 36 0 0
-0.1126 0.1993 -0.1976 -0.952 0.221 0.214 60 42 35 0 0
-0.0851 0.1842 -0.2489 -0.689 0.654 0.313 50 36 27 0 0
-0.0857 0.1841 -0.2608 -0.936 0.281 -0.212 50 36 27 0 0
-0.0851 0.1838 -0.2639 -0.924 0.378 -0.058 48 34 25 0 0
-0.0759 0.1784 -0.2897 -0.875 0.425 0.230 44 30 21 0 0
-0.0817 0.1806 -0.3189 -0.970 0.111 0.214 48 22 8 0 0
-0.0629 0.1696 -0.3752 -0.899 0.344 0.271 57 38 29 0 0
-0.0667 0.1710 -0.3929 -0.963 0.234 0.134 66 39 25 0 0
-0.0327 0.1515 -0.4842 -0.960 0.224 -0.170 57 31 18 0 0
-0.0358 0.1527 -0.4962 -0.879 0.439 0.188 57 32 17 0 0
-0.0406 0.1544 -0.5205 -0.997 -0.002 0.075 57 31 16 0 0
-0.1105 0.1805 -0.8482 -0.812 0.513 -0.278 76 34 10 0 0
-0.1092 0.1797 -0.8522 -0.946 0.218 -0.241 78 36 10 0 0
-0.1103 0.1789 -0.9016 -0.973 0.183 -0.139 63 37 24 0 0
-0.1318 0.1875 -0.9798 -0.428 0.858 0.283 110 88 77 0 0
-0.1328 0.1879 -0.9825 -0.428 0.858 0.283 114 92 81 0 0
-0.1553 0.1990 -0.9889 -0.861 -0.346 0.374 104 83 70 0 0
-0.1769 0.2089 -1.0218 -0.791 0.470 0.393 83 45 16 0 0
-0.1782 0.2095 -1.0243 -0.916 0.323 0.238 82 45 16 0 0
-0.0292 0.1681 0.0655 -0.925 0.374 0.072 62 29 10 0 0
-0.0294 0.1682 0.0626 -0.925 0.374 0.072 63 30 11 0 0
-0.0297 0.1681 0.0539 -0.896 0.411 0.168 62 29 10 0 0
-0.0302 0.1682 0.0510 -0.896 0.411 0.168 61 29 8 0 0
-0.0306 0.1684 0.0481 -0.896 0.411 0.168 61 29 8 0 0
-0.0267 0.1653 0.0071 -0.915 0.322 0.244 50 20 4 0 0
-0.0310 0.1670 -0.0104 -0.785 0.553 0.277 56 26 8 0 0
-0.0798 0.1891 -0.0930 -0.960 0.211 0.186 50 23 10 0 0
-0.0804 0.1893 -0.0959 -0.960 0.211 0.186 51 28 16 0 0
-0.0803 0.1892 -0.0988 -0.827 0.375 -0.419 90 70 64 0 0
-0.0823 0.1901 -0.1016 -0.563 0.418 0.713 91 71 65 0 0
-0.1059 0.2017 -0.1056 -0.756 0.590 0.283 108 84 73 0 0
-0.1330 0.2138 -0.1575 -0.972 0.226 0.068 66 48 36 0 0
-0.1116 0.2021 -0.1976 -0.633 0.758 0.157 60 41 35 0 0
-0.0847 0.1871 -0.2578 -0.947 0.282 0.151 49 33 25 0 0
-0.0854 0.1873 -0.2607 -0.964 0.253 0.081 49 35 26 0 0
-0.0737 0.1807 -0.2869 -0.956 0.041 0.290 47 33 24 0 0
-0.0563 0.1700 -0.3641 -0.747 0.491 0.449 37 21 15 0 0
-0.0670 0.1747 -0.3864 -0.921 0.388 -0.043 46 24 12 0 0
-0.0679 0.1751 -0.3893 -0.857 0.303 0.416 58 32 21 0 0
-0.0668 0.1744 -0.3927 -0.846 0.532 0.034 68 39 25 0 0
-0.0669 0.1744 -0.3958 -0.846 0.532 0.034 65 34 18 0 0
-0.1007 0.1910 -0.4059 -0.856 -0.410 0.314 73 36 18 0 0
-0.1059 0.1934 -0.4137 -0.837 -0.349 0.421 110 76 52 0 0
-0.1195 0.1996 -0.4345 -0.534 0.756 0.378 72 42 27 0 0
-0.0411 0.1584 -0.5104 -0.870 0.193 0.453 54 28 13 0 0
-0.0404 0.1578 -0.5202 -0.967 -0.176 -0.182 55 29 14 0 0
-0.0434 0.1562 -0.6365 -0.911 0.411 0.027 87 55 30 0 0
-0.1060 0.1816 -0.8499 -0.764 0.349 0.543 75 33 9 0 0
-0.1151 0.1860 -0.8551 -0.836 0.465 0.291 85 44 14 0 0
-0.1775 0.2127 -1.0174 -0.842 0.513 0.168 84 45 16 0 0
-0.1768 0.2122 -1.0244 -0.842 0.439 0.314 82 45 16 0 0
-0.1771 0.2122 -1.0276 -0.923 0.377 0.082 85 48 21 0 0
-0.1783 0.2118 -1.0667 -0.910 0.376 -0.176 81 54 37 0 0
-0.1872 0.2148 -1.1208 -0.827 0.522 0.208 88 58 32 0 0
-0.1990 0.2204 -1.1291 -0.801 0.533 0.271 84 57 36 0 0
-0.1980 0.2198 -1.1332 -0.854 0.390 0.346 84 56 38 0 0
-0.0279 0.1713 0.0858 -0.904 0.376 0.203 61 29 9 0 0
-0.0285 0.1715 0.0828 -0.904 0.376 0.203 60 28 8 0 0
-0.0294 0.1719 0.0770 -0.935 0.254 0.249 62 29 9 0 0
-0.0293 0.1717 0.0741 -0.966 0.254 0.045 63 31 11 0 0
-0.0294 0.1716 0.0683 -0.980 0.198 0.029 65 32 12 0 0
-0.0276 0.1706 0.0655 -0.959 0.279 0.050 66 33 13 0 0
-0.0278 0.1706 0.0626 -0.959 0.279 0.050 66 33 14 0 0
-0.0287 0.1705 0.0422 -0.886 0.462 -0.023 61 28 9 0 0
-0.0286 0.1704 0.0393 -0.886 0.462 -0.023 61 29 9 0 0
-0.0263 0.1688 0.0218 -0.817 0.551 0.168 62 31 10 0 0
-0.0291 0.1694 -0.0076 -0.937 0.347 0.035 61 29 9 0 0
-0.0786 0.1917 -0.0931 -0.863 0.500 0.070 53 25 12 0 0
-0.0768 0.1908 -0.0961 -0.592 0.497 0.634 49 26 14 0 0
-0.1029 0.2035 -0.1058 -0.835 0.481 0.266 105 81 70 0 0
-0.1284 0.2147 -0.1608 -0.865 0.477 -0.155 66 49 37 0 0
-0.0981 0.1987 -0.1964 -0.498 0.865 -0.061 61 41 33 0 0
-0.0942 0.1965 -0.2028 -0.645 0.595 0.480 59 40 33 0 0
-0.0855 0.1908 -0.2576 -0.938 -0.155 0.309 48 32 24 0 0
-0.0738 0.1847 -0.2655 -0.949 0.250 0.190 48 32 24 0 0
-0.0742 0.1843 -0.2896 -0.956 0.060 0.287 45 29 21 0 0
-0.0888 0.1906 -0.3232 -0.863 0.198 0.465 58 31 17 0 0
-0.0885 0.1904 -0.3263 -0.943 0.309 0.123 65 40 28 0 0
-0.0605 0.1757 -0.3567 -0.912 0.363 -0.189 31 17 12 0 0
-0.0578 0.1741 -0.3635 -0.798 0.244 0.551 41 25 18 0 0
-0.0403 0.1615 -0.5135 -0.997 0.077 -0.018 54 28 13 0 0
-0.0412 0.1617 -0.5196 -0.927 0.122 -0.355 55 29 14 0 0
-0.0388 0.1601 -0.5365 -0.937 0.326 0.125 66 38 24 0 0
-0.0395 0.1604 -0.5395 -0.918 0.344 0.198 67 38 24 0 0
-0.0398 0.1604 -0.5427 -0.811 0.558 0.176 68 40 25 0 0
-0.0407 0.1608 -0.5456 -0.814 0.500 0.295 68 40 24 0 0
-0.0450 0.1628 -0.5507 -0.900 0.285 0.330 65 35 19 0 0
-0.0422 0.1609 -0.5711 -0.982 -0.073 -0.175 55 27 13 0 0
-0.0429 0.1596 -0.6297 -0.910 0.399 0.116 81 48 23 0 0
-0.0434 0.1598 -0.6328 -0.863 0.504 -0.005 83 49 24 0 0
-0.0434 0.1596 -0.6393 -0.923 0.270 0.275 87 55 29 0 0
-0.0857 0.1752 -0.8430 -0.953 0.252 -0.167 71 33 11 0 0
-0.1049 0.1845 -0.8499 -0.741 0.470 0.480 75 33 9 0 0
-0.1214 0.1923 -0.8677 -0.834 0.334 0.439 86 55 34 0 0
-0.1754 0.2149 -1.0246 -0.842 0.439 0.314 83 46 17 0 0
-0.1858 0.2175 -1.1210 -0.852 0.499 0.160 88 57 33 0 0
-0.1862 0.2176 -1.1240 -0.783 0.595 0.183 89 58 36 0 0
-0.0297 0.1758 0.0971 -0.738 0.609 0.292 76 40 15 0 0
-0.0269 0.1741 0.0857 -0.923 0.331 0.196 63 30 11 0 0
-0.0278 0.1745 0.0828 -0.939 0.264 0.219 62 29 10 0 0
-0.0284 0.1747 0.0799 -0.939 0.264 0.219 65 33 12 0 0
-0.0268 0.1735 0.0654 -0.959 0.279 0.050 65 33 12 0 0
-0.0272 0.1735 0.0538 -0.942 0.325 -0.084 61 28 9 0 0
-0.0270 0.1730 0.0422 -0.973 0.232 0.010 61 28 10 0 0
-0.0268 0.1729 0.0392 -0.943 0.290 -0.164 62 29 9 0 0
-0.0285 0.1725 -0.0047 -0.939 0.330 0.099 59 28 8 0 0
-0.0294 0.1729 -0.0076 -0.929 0.322 0.181 61 30 9 0 0
-0.0301 0.1732 -0.0105 -0.913 0.235 0.334 62 30 9 0 0
-0.0318 0.1737 -0.0222 -0.880 0.463 -0.110 63 30 11 0 0
-0.0257 0.1699 -0.0520 -0.883 0.353 0.308 49 22 10 0 0
-0.0766 0.1945 -0.0729 -0.702 -0.018 0.712 127 104 92 0 0
-0.0840 0.1980 -0.0811 -0.785 -0.091 0.613 109 89 73 0 0
-0.0704 0.1910 -0.0907 -0.854 0.396 0.337 55 24 10 0 0
-0.1034 0.2069 -0.1057 -0.817 0.560 -0.139 107 82 72 0 0
-0.1195 0.2146 -0.1158 -0.967 0.195 0.165 142 114 102 0 0
-0.0842 0.1932 -0.2666 -0.932 0.349 0.093 49 32 24 0 0
-0.0883 0.1937 -0.3231 -0.829 0.399 0.392 57 29 15 0 0
-0.0593 0.1785 -0.3567 -0.912 0.363 -0.189 31 17 12 0 0
-0.0819 0.1891 -0.3763 -0.957 0.094 0.275 45 25 16 0 0
-0.1028 0.1983 -0.4201 -0.758 0.589 0.282 79 39 12 0 0
-0.0378 0.1630 -0.5365 -0.937 0.326 0.125 59 30 16 0 0
-0.0441 0.1658 -0.5506 -0.919 0.143 0.368 64 34 19 0 0
-0.0420 0.1637 -0.5903 -0.937 0.067 0.343 63 34 16 0 0
-0.0375 0.1613 -0.5984 -0.916 0.361 0.173 67 37 19 0 0
-0.0505 0.1675 -0.6068 -0.597 0.695 0.400 63 30 11 0 0
-0.0489 0.1666 -0.6107 -0.746 0.666 0.009 63 30 11 0 0
-0.0473 0.1657 -0.6145 -0.957 0.238 -0.163 63 30 13 0 0
-0.0453 0.1629 -0.6810 -0.839 0.469 0.277 57 25 9 0 0
-0.0864 0.1802 -0.7988 -0.839 -0.509 -0.190 60 27 8 0 0
-0.0873 0.1805 -0.8016 -0.854 -0.510 0.107 60 27 8 0 0
-0.0866 0.1791 -0.8452 -0.961 0.182 0.207 72 35 9 0 0
-0.1144 0.1913 -0.9040 -0.985 0.083 -0.149 61 35 22 0 0
-0.1149 0.1914 -0.9071 -0.988 0.115 0.099 65 39 24 0 0
-0.1212 0.1931 -0.9604 -0.793 0.105 0.600 105 84 72 0 0
-0.1233 0.1941 -0.9625 -0.746 -0.351 0.565 105 85 74 0 0
-0.1516 0.2074 -0.9890 -0.859 -0.018 0.512 109 87 76 0 0
-0.1741 0.2176 -1.0247 -0.842 0.439 0.314 76 39 11 0 0
-0.1806 0.2197 -1.0669 -0.871 0.491 -0.017 76 50 35 0 0
-0.1823 0.2196 -1.1024 -0.931 0.353 -0.097 87 49 21 0 0
-0.1843 0.2201 -1.1212 -0.852 0.499 0.160 89 57 33 0 0
0.0246 0.1532 0.1287 -0.342 0.220 0.914 183 183 183 0 0
-0.0269 0.1778 0.1000 -0.803 0.436 0.406 97 72 55 0 0
-0.0281 0.1783 0.0971 -0.803 0.436 0.406 74 38 13 0 0
-0.0259 0.1769 0.0856 -0.923 0.331 0.196 62 29 11 0 0
-0.0264 0.1771 0.0827 -0.923 0.331 0.196 62 30 10 0 0
-0.0254 0.1765 0.0799 -0.961 0.243 0.136 65 33 12 0 0
-0.0259 0.1763 0.0625 -0.957 0.283 0.065 62 29 10 0 0
-0.0262 0.1760 0.0421 -0.946 0.321 0.038 57 24 6 0 0
-0.0242 0.1746 0.0275 -0.752 0.642 0.146 57 26 6 0 0
-0.0251 0.1750 0.0246 -0.881 0.466 0.081 58 27 7 0 0
-0.0251 0.1749 0.0217 -0.947 0.318 0.047 60 29 9 0 0
-0.0275 0.1754 -0.0047 -0.939 0.330 0.099 63 31 10 0 0
-0.0278 0.1754 -0.0077 -0.939 0.330 0.099 64 32 12 0 0
-0.0695 0.1938 -0.0908 -0.896 0.433 0.102 55 22 9 0 0
-0.1010 0.2090 -0.1058 -0.735 0.613 -0.289 116 88 79 0 0
-0.1212 0.2181 -0.1356 -0.861 0.501 -0.088 82 43 15 0 0
-0.1053 0.2082 -0.2157 -0.949 0.194 0.250 59 39 32 0 0
-0.0816 0.1951 -0.2699 -0.633 0.774 0.011 48 31 23 0 0
-0.0794 0.1928 -0.3156 -0.569 0.473 0.673 48 22 9 0 0
-0.0876 0.1967 -0.3230 -0.886 0.284 0.367 56 28 14 0 0
-0.0882 0.1969 -0.3259 -0.936 0.349 0.050 61 35 22 0 0
-0.0643 0.1836 -0.3832 -0.787 0.231 0.572 48 26 14 0 0
-0.0662 0.1845 -0.3859 -0.774 0.244 0.584 49 25 12 0 0
-0.1010 0.2008 -0.4203 -0.744 0.655 0.133 76 35 9 0 0
-0.1149 0.2072 -0.4349 -0.876 -0.041 -0.480 74 45 26 0 0
-0.0725 0.1857 -0.4589 -0.417 -0.020 -0.909 70 41 27 0 0
-0.0425 0.1698 -0.4993 -0.933 0.145 -0.331 58 32 17 0 0
-0.0399 0.1680 -0.5194 -0.977 0.200 0.070 55 29 14 0 0
-0.0358 0.1656 -0.5368 -0.935 0.260 0.242 54 26 12 0 0
-0.0406 0.1666 -0.5871 -0.801 0.214 0.559 61 34 18 0 0
-0.0416 0.1670 -0.5900 -0.937 0.067 0.343 56 29 12 0 0
-0.0591 0.1719 -0.7311 -0.980 0.200 -0.005 56 24 9 0 0
-0.0591 0.1718 -0.7344 -0.980 0.200 -0.005 57 25 10 0 0
-0.0754 0.1792 -0.7603 -0.978 0.205 -0.034 52 20 8 0 0
-0.0793 0.1806 -0.7816 -0.741 0.646 -0.182 58 25 10 0 0
-0.0720 0.1763 -0.8084 -0.942 0.327 -0.078 61 28 9 0 0
-0.1240 0.1981 -0.9547 -1.000 -0.017 0.005 102 80 67 0 0
-0.1244 0.1982 -0.9578 -0.905 0.034 0.423 102 81 69 0 0
-0.1464 0.2082 -0.9914 -0.979 0.199 -0.052 111 89 77 0 0
-0.1794 0.2227 -1.0602 -0.712 0.702 -0.008 76 49 32 0 0
-0.1811 0.2224 -1.1025 -0.906 0.422 -0.014 89 51 22 0 0
0.0307 0.1535 0.1289 -0.295 0.166 0.941 183 183 183 0 0
0.0113 0.1629 0.1220 -0.587 0.341 0.734 183 180 180 0 0
-0.0238 0.1796 0.1029 -0.657 0.356 0.665 100 83 71 0 0
-0.0251 0.1801 0.0971 -0.880 0.258 0.399 76 40 15 0 0
-0.0259 0.1802 0.0826 -0.873 0.483 0.069 68 36 15 0 0
-0.0261 0.1802 0.0797 -0.873 0.483 0.069 70 38 15 0 0
-0.0250 0.1792 0.0624 -0.957 0.283 0.065 64 31 12 0 0
-0.0249 0.1788 0.0508 -0.896 0.442 -0.042 59 26 8 0 0
-0.0252 0.1788 0.0420 -0.915 0.404 0.017 61 28 10 0 0
-0.0240 0.1777 0.0245 -0.947 0.318 0.047 59 28 8 0 0
-0.0242 0.1777 0.0216 -0.947 0.318 0.047 62 31 11 0 0
-0.0247 0.1778 0.0157 -0.924 0.374 0.081 62 30 9 0 0
-0.0249 0.1779 0.0128 -0.924 0.374 0.081 61 29 8 0 0
-0.0287 0.1791 -0.0106 -0.927 0.373 0.028 64 31 11 0 0
-0.0258 0.1766 -0.0520 -0.926 0.377 0.022 49 23 9 0 0
-0.0279 0.1776 -0.0549 -0.965 0.253 0.063 51 23 9 0 0
-0.0991 0.2112 -0.1059 -0.735 0.613 -0.289 117 89 80 0 0
-0.1024 0.2102 -0.2072 -0.954 0.260 0.149 56 39 31 0 0
-0.0841 0.2000 -0.2544 -0.692 0.721 0.042 49 32 24 0 0
-0.0828 0.1993 -0.2576 -0.731 0.486 0.479 48 31 23 0 0
-0.0873 0.1998 -0.3259 -0.948 0.318 -0.023 59 33 20 0 0
-0.0604 0.1862 -0.3406 -0.831 0.340 -0.441 26 10 4 0 0
-0.0597 0.1856 -0.3470 -0.859 0.464 -0.217 43 27 18 0 0
-0.0635 0.1866 -0.3832 -0.984 0.144 0.100 49 27 14 0 0
-0.0666 0.1879 -0.3917 -0.906 0.282 0.316 73 41 24 0 0
-0.0673 0.1882 -0.3947 -0.883 0.286 0.372 73 36 17 0 0
-0.0380 0.1705 -0.5228 -0.972 0.214 0.100 54 28 13 0 0
-0.0378 0.1694 -0.5585 -0.804 0.523 0.282 56 27 12 0 0
-0.0383 0.1696 -0.5615 -0.927 0.314 0.204 54 25 11 0 0
-0.0391 0.1699 -0.5645 -0.966 0.239 0.095 53 27 12 0 0
-0.0394 0.1700 -0.5676 -0.966 0.239 0.095 57 30 16 0 0
-0.0518 0.1727 -0.6973 -0.588 0.644 0.490 55 23 10 0 0
-0.0527 0.1731 -0.7002 -0.672 0.602 0.433 55 23 10 0 0
-0.0703 0.1792 -0.7987 -0.713 0.679 0.175 55 22 7 0 0
-0.0701 0.1790 -0.8021 -0.945 0.324 0.049 57 24 7 0 0
-0.0720 0.1798 -0.8079 -0.998 -0.011 -0.066 61 28 9 0 0
-0.0949 0.1905 -0.8266 -0.889 -0.219 0.402 64 27 8 0 0
-0.1168 0.2006 -0.8551 -0.951 0.306 -0.041 91 53 25 0 0
-0.1261 0.2049 -0.8634 -0.964 0.221 0.149 85 56 33 0 0
-0.1030 0.1927 -0.8956 -0.906 0.420 0.051 63 37 24 0 0
-0.0912 0.1856 -0.9493 -0.963 0.050 -0.264 77 47 22 0 0
-0.1184 0.1991 -0.9439 -0.940 -0.086 0.331 76 42 17 0 0
-0.1572 0.2168 -0.9974 -0.883 0.276 0.381 98 67 49 0 0
-0.1684 0.2219 -1.0102 -0.795 0.585 -0.162 74 32 8 0 0
-0.0248 0.1832 0.0941 -0.872 0.399 0.283 67 33 13 0 0
-0.0249 0.1830 0.0826 -0.892 0.441 0.097 70 38 17 0 0
-0.0248 0.1828 0.0797 -0.876 0.471 0.108 71 39 18 0 0
-0.0238 0.1823 0.0768 -0.902 0.418 0.110 72 40 19 0 0
-0.0241 0.1823 0.0739 -0.902 0.418 0.110 75 43 22 0 0
-0.0245 0.1824 0.0710 -0.902 0.418 0.110 74 42 21 0 0
-0.0248 0.1825 0.0681 -0.902 0.418 0.110 71 39 18 0 0
-0.0248 0.1825 0.0652 -0.870 0.492 0.032 69 37 16 0 0
-0.0247 0.1823 0.0623 -0.915 0.402 -0.026 67 35 14 0 0
-0.0236 0.1815 0.0507 -0.896 0.442 -0.042 68 36 15 0 0
-0.0235 0.1802 0.0010 -0.962 0.251 0.109 69 37 16 0 0
-0.0244 0.1802 -0.0166 -0.949 0.311 0.047 65 33 12 0 0
-0.0246 0.1801 -0.0225 -0.950 0.307 -0.066 54 22 6 0 0
-0.0272 0.1805 -0.0549 -0.965 0.253 0.063 52 25 8 0 0
-0.0861 0.2025 -0.3259 -0.941 0.331 0.068 63 37 22 0 0
-0.0593 0.1890 -0.3407 -0.831 0.340 -0.441 27 11 6 0 0
-0.0590 0.1888 -0.3438 -0.875 0.436 -0.211 28 13 9 0 0
-0.0584 0.1884 -0.3470 -0.875 0.436 -0.211 44 27 19 0 0
-0.0553 0.1867 -0.3539 -0.841 0.498 -0.212 35 17 13 0 0
-0.0533 0.1856 -0.3574 -0.878 0.475 -0.056 37 20 14 0 0
-0.0535 0.1856 -0.3604 -0.932 0.321 0.167 45 27 18 0 0
-0.0286 0.1684 -0.5579 -0.982 0.043 0.186 50 24 9 0 0
-0.0366 0.1723 -0.5585 -0.919 0.283 0.275 51 23 11 0 0
-0.0381 0.1730 -0.5612 -0.989 0.030 0.144 51 23 11 0 0
-0.0395 0.1735 -0.5705 -0.973 0.154 0.169 60 32 18 0 0
-0.0476 0.1742 -0.6952 -0.907 -0.175 0.382 55 23 8 0 0
-0.0491 0.1749 -0.6979 -0.881 0.472 0.042 55 23 8 0 0
