ply
format ascii 1.0
element vertex 698
property float x
property float y
property float z
property uchar diffuse_red
property uchar diffuse_green
property uchar diffuse_blue
end_header
0.13310232730869415 0.1505698862061997 -0.07957902516764999 92 66 54
0.13516784669737789 0.14993212195789557 -0.08235122963989239 59 28 14
0.13600369771626875 0.14972680834141064 -0.08516437052811565 51 22 9
0.137799994528501 0.1491835050574151 -0.0879385049775454 52 23 10
0.14267728476920014 0.14755581758672665 -0.09058256306992422 54 24 9
0.1390671749125017 0.14891494524930218 -0.09357200253011896 64 38 25
0.1402218867760334 0.1485971891361444 -0.0963647434444293 104 85 75
0.15125727311432868 0.14480073113101938 -0.0987048535954422 94 76 68
0.15580400362603408 0.14328795726923071 -0.1013170362802258 97 74 66
0.16104145445055768 0.14153152365555657 -0.10388229042307069 98 72 63
0.16716957459531107 0.13946090192659952 -0.10638722387410962 106 79 68
0.17249166458857457 0.13767364325097164 -0.10891571515627217 120 93 80
0.1766579202135239 0.13629310861502658 -0.11149035791090307 115 84 68
0.1812468247607571 0.1347632715885975 -0.11402961903174282 151 129 118
0.18510389329861077 0.13349092416977215 -0.1165969936509614 163 145 137
0.18786790075574614 0.13260349436268723 -0.11921707494981477 137 113 99
0.18954015674449695 0.13210068431297037 -0.12189503437472084 110 74 53
0.19112822906403348 0.13162742646506884 -0.12457407936157748 91 47 23
0.1926738534076803 0.13116901681811438 -0.127251975541862 84 40 15
0.19391758436207707 0.13081695855641143 -0.12994573300544263 80 37 11
0.194823147908605 0.13058409132406115 -0.1326592122549477 74 35 10
0.195677935129227 0.13036908481604623 -0.13537449952416186 74 37 14
0.19480488120389478 0.1307636381810508 -0.13820857281311363 71 36 12
0.19955315304163257 0.12917475550592902 -0.14064639969932735 67 32 8
0.19817758964774612 0.12974662369444573 -0.14351617415901693 66 36 18
0.19607518629914156 0.13057521815574846 -0.14644574423221857 64 42 29
0.19387969889905643 0.13143692348166416 -0.14939043225151824 66 47 35
0.189576292891995 0.13304312126057793 -0.1525071573841092 68 49 38
0.18827309039531914 0.13359037415072653 -0.15540120957835454 65 47 36
0.18694718068540028 0.134145817412986 -0.15830257801213543 64 46 37
0.18263334774473033 0.13575681595869146 -0.16145599014007933 63 45 37
0.18270908754319282 0.1358176011236769 -0.16425540830154897 62 43 36
0.17673022778932643 0.13801760942551156 -0.16757488891568195 62 43 36
0.1759476278844495 0.13838207364780916 -0.1704611359730451 60 41 34
0.17300877406424803 0.1395087148857415 -0.17354301517709136 59 40 33
0.17056179703667715 0.14046183032239112 -0.17659114060278117 59 40 33
0.17719357915508077 0.13820572456484723 -0.17881149433749335 59 40 33
0.16886485213839886 0.14123856061557774 -0.1824151240879312 60 41 34
0.1705168607048636 0.1407428963597478 -0.18509456416494086 59 41 34
0.17233634200435619 0.14018787555581536 -0.18775369769967412 56 38 31
0.13006137232701298 0.15695842147642433 -0.2501622106722731 53 36 28
0.1440695136536774 0.1523529115928994 -0.25998048121218065 51 33 24
0.15710366935608377 0.1479076248183236 -0.2639880028990049 52 33 22
0.14789409790874317 0.15126769200831602 -0.2681804109713029 54 35 24
0.14577890600107316 0.15210956567306463 -0.2713918691598262 56 36 25
0.14387668553848756 0.15287606194583386 -0.27458087071511117 55 35 25
0.1428869171686836 0.15331869452557592 -0.2776442438239058 50 30 21
0.14599363211866442 0.1523062002091895 -0.2801073760126967 52 32 22
0.14638100742573548 0.1522596106336961 -0.28296761934102493 52 32 22
0.1427513247264366 0.15364049028519636 -0.2864342632492453 47 26 15
0.14072925148652657 0.15445043602957478 -0.2896689070237551 43 22 11
0.1444628923199202 0.15321473974573624 -0.2920238541284504 45 24 13
0.14343480173740678 0.15367152344133156 -0.29511010321732434 50 29 17
0.13958337446232008 0.15513231184868106 -0.2986458422529733 46 27 15
0.13905412430202765 0.15541214492560856 -0.3016668290254269 53 34 26
0.13992165814565768 0.1551952949354302 -0.30446628274353293 63 47 41
0.14052683756572945 0.15507172044016765 -0.30730685814971703 74 56 48
0.14255950294123146 0.15444027960522946 -0.30991250710256746 49 23 12
0.14628323979411972 0.15320696419175517 -0.31223245835952296 53 23 10
0.1447760860861294 0.15383480277665626 -0.3154172714168993 52 24 10
0.14771292986970763 0.1528811427712111 -0.31785701735819955 52 24 10
0.14782416519876224 0.1529330513443555 -0.32077084568061764 54 26 12
0.1491674579434811 0.15254635281652157 -0.3234732659191179 53 25 11
0.14846347349172484 0.1528885368064623 -0.3265289231087101 61 35 22
0.15142777360769677 0.1519244714970632 -0.32894373468223315 57 32 19
0.13890006806032987 0.1564780194021142 -0.3340977827076154 41 21 12
0.13632354443906497 0.15748802100985868 -0.33751326636639245 25 11 5
0.1318331989620497 0.15918018710877527 -0.34128445566429694 28 13 6
0.1279561324007844 0.16065433072419513 -0.3449600970473604 47 27 16
0.12720425652601128 0.16101515461263805 -0.3480749572701371 44 24 12
0.1260400539144945 0.16152306707368702 -0.35127024912844007 45 25 14
0.128386866928996 0.1607795136146254 -0.3538131018842444 45 25 14
0.12547234481507813 0.16191162791763974 -0.3573438478689599 47 27 16
0.1276570508114896 0.16122575259459898 -0.3599135145714632 43 24 13
0.14606159343689923 0.15475501495965693 -0.35935801995471667 32 17 9
0.14375127626004222 0.15567127831407485 -0.36276084067790265 24 10 5
0.14162078474893658 0.15652367252792682 -0.3661375493027348 34 18 13
0.13843638537562175 0.1577523635815904 -0.3697306806526602 48 28 20
0.13616483569188037 0.1586556783762328 -0.37315417271940876 60 39 30
0.13948341275330284 0.1575641441382118 -0.375464993528588 49 27 19
0.14259352458194513 0.15654672006313708 -0.3778082977410866 47 25 16
0.1449130986099389 0.1558112421322227 -0.3803038559337201 54 29 18
0.14268101611403766 0.15670077310489539 -0.38372911184672487 55 28 17
0.1456630645934654 0.15572855833410776 -0.38608218880271133 65 39 28
0.14764108871859014 0.15511467574007412 -0.3886365152699812 63 38 29
0.1514991200935174 0.1538290630395439 -0.3907895456216034 53 24 15
0.1583571187304265 0.15147130065996164 -0.39229402175657563 55 21 13
0.1609510550940791 0.1506364971256541 -0.3946894963544313 53 22 13
0.16560035729679834 0.14906693577931995 -0.3966343286858385 52 23 13
0.17110483447568198 0.1471912710534296 -0.39837906374958276 57 23 13
0.18234187097042226 0.14326581915861897 -0.39885102365363423 58 23 10
0.1753458698636123 0.14585806667296025 -0.40331109260717385 89 57 43
0.18080525403020342 0.14399728025601669 -0.4050259178410136 96 71 59
0.18731939564404593 0.1417587480309896 -0.4064874275121915 114 92 78
0.18998692400871425 0.1408954544009003 -0.40879682451710586 82 50 29
0.18815722749275854 0.14164075263270562 -0.4121214626082268 73 35 12
0.18305138160341838 0.14355846087574584 -0.41620424607406753 67 29 7
0.18379988373141665 0.14338180912010673 -0.41895436416933035 73 35 13
0.18501099176996713 0.143039556701919 -0.4215957785145624 77 39 17
0.18401323832018843 0.1434878776202049 -0.42475172870811284 74 37 13
0.1830508837254089 0.14392367319773602 -0.427904056672475 73 35 11
0.1856691080147998 0.1430775744420414 -0.430210466328302 77 45 24
0.19085193780772605 0.1413128424819786 -0.43189589673679085 78 50 32
0.17108218690137675 0.148576711703299 -0.44252924543487027 87 62 45
0.10899650337990804 0.17110294582758145 -0.46677209739838527 80 52 35
0.10793956954927225 0.17157734558108548 -0.470098805717289 69 41 23
0.10747009285542118 0.17184131303290767 -0.47328304290655043 71 43 25
0.10745208333334609 0.17194351139979025 -0.4763562003352196 72 43 25
0.10723085219057069 0.17211862782559048 -0.4794825629697139 66 37 19
0.10690423112712857 0.17233160885571291 -0.48263810702690585 59 30 13
0.10618433903145144 0.17268573024257028 -0.4858975925764863 57 28 13
0.10439332149682436 0.17342422734691026 -0.48943893839346014 58 30 13
0.10393693644644458 0.17368410352496058 -0.49263917563275283 58 30 12
0.10764544159877061 0.17244952311823505 -0.49474740248601956 58 31 13
0.10891797694031505 0.17208885953484526 -0.49748906674078136 54 26 10
0.10856688496241845 0.172310908727963 -0.5006602398750069 55 27 10
0.10828139506007843 0.17250948881272607 -0.5038164688007468 57 29 13
0.1096324955304398 0.17212051498930547 -0.5065337100804653 61 34 15
0.10821272455728484 0.17272649087034167 -0.5099998457995429 59 32 13
0.10777038773537359 0.17298160427588524 -0.5132053114070303 58 31 12
0.10793965433877052 0.17301711194188754 -0.5162456543667093 59 30 12
0.1080165471778672 0.17308583394349755 -0.519312414118585 67 36 18
0.10782187033357256 0.17325217419224687 -0.5224559200380476 58 27 9
0.10753656426950087 0.17345115042003903 -0.5256269117791739 59 28 10
0.1073283982675129 0.17362247598325328 -0.5287786050828317 62 30 12
0.10810249472017451 0.17344076309040002 -0.5316541484776687 69 37 19
0.10818298974824925 0.1735083875606339 -0.5347262141843968 78 46 27
0.10585858447629462 0.17444082439307682 -0.5384890825814045 72 40 22
0.10614648513290781 0.17443405901619957 -0.5415077924675515 68 35 17
0.10608022902911043 0.17455469710465993 -0.5446297456460695 71 38 19
0.1072808569504735 0.17421962762057827 -0.5473836000397214 68 35 16
0.10720833164177862 0.1743425590781613 -0.5505086019840246 68 36 16
0.1102151406775432 0.17335742757974812 -0.5527259547827157 70 38 18
0.1099319461505766 0.17355612301652892 -0.5559116772298177 73 40 20
0.11166041373079963 0.17303077097227892 -0.5584988731892467 71 39 19
0.1062566184337656 0.17507301000519385 -0.5632245094272066 73 38 18
0.10622965781510421 0.17517983762346745 -0.5663454426849666 71 36 16
0.10620269372540403 0.1752867151844635 -0.5694679376460148 69 34 14
0.10893141279049728 0.17440110810136752 -0.5717498534479073 70 34 15
0.10823751453761654 0.17474818545863408 -0.5750757006405649 74 38 18
0.1085081697367829 0.17474786978918141 -0.5781073182617608 69 34 14
0.10869924457805107 0.17477624677007758 -0.5811642059117239 70 34 15
0.10826074388335605 0.1750315427856305 -0.5844186363306528 67 35 14
0.1077834963828348 0.17530089793575238 -0.5876882228879398 66 34 13
0.10650482410882182 0.17585926308356598 -0.5912141144146832 63 31 10
0.10617429884523263 0.17607595482591382 -0.5944447133485069 67 35 14
0.10315309865833433 0.17726300284226282 -0.598537245317628 72 40 18
0.10313090084158397 0.17736880125666366 -0.6016787179408234 73 41 19
0.10222960273639797 0.17779175212729112 -0.6051055387991497 76 44 22
0.10225213640424906 0.17788155750157011 -0.6082371300488231 77 46 24
0.10105152876945273 0.17841274280880903 -0.6117692042803788 73 42 21
0.10076360228065775 0.17861473948106651 -0.6150075547524123 74 43 22
0.09916697513757253 0.17928916247593163 -0.6186799034360855 70 38 18
0.10005052820039365 0.17906849990008258 -0.6215371907331645 61 30 10
0.10241770606106734 0.17831214418156588 -0.623898587336704 64 32 12
0.10228596380810298 0.1784579183215078 -0.6270902146819092 63 32 12
0.1027552025458579 0.17838671157532793 -0.630081469138696 63 31 12
0.10851021886463047 0.17640627952181287 -0.6312839731829608 65 34 15
0.10480853930209298 0.17784153845291403 -0.6356843947283405 66 35 16
0.10124480355455928 0.17922740427452072 -0.6400519893151774 59 28 9
0.10868176511315278 0.17663846848279688 -0.640653760289795 58 27 10
0.10905496973554102 0.17660172978139935 -0.6436704775828714 55 25 11
0.09882820414167354 0.1803965722490606 -0.6503662024520444 52 23 9
0.09705657279854571 0.1811358313659398 -0.6541498415457849 53 25 11
0.09932306228148194 0.18041523060885264 -0.6565256413745778 53 24 10
0.1015850025040628 0.17969607598931378 -0.6588966648313586 52 23 9
0.10573914356225486 0.17829233754705975 -0.6605914547761046 51 22 8
0.1092173116322574 0.1771327223419312 -0.6625137649471347 49 20 6
0.10785450882048261 0.17772422000923047 -0.6661560917717725 50 21 7
0.10533331123758527 0.17873507826183005 -0.6702208086357062 51 22 8
0.10414270207098497 0.17926471131326135 -0.673815498499765 50 21 8
0.10470106391710596 0.17916146471904854 -0.6767814474034548 50 21 8
0.10342624428401956 0.1797218410832773 -0.6804150979224918 50 20 9
0.10205612011644102 0.1803169101004827 -0.6840896095181195 50 20 10
0.10557335578450204 0.17914235192253902 -0.6859720408813234 53 22 11
0.11496096623786667 0.17584134168166451 -0.6856733408187602 52 21 10
0.11819759790450451 0.17476743393175778 -0.6876281712572 52 21 10
0.12023539054190527 0.17412754273655912 -0.690020600332295 52 21 9
0.1215538060583534 0.17374813560071248 -0.6926771361064052 52 23 9
0.12285961173015436 0.1733732009996134 -0.6953353062657776 52 23 9
0.12380586499925189 0.17312849032200664 -0.6981264796514621 54 24 10
0.12228757368134008 0.17377713236736608 -0.7018528945433117 54 25 10
0.11919210756274953 0.17499780717527552 -0.7061885662305842 55 26 11
0.11688222846362142 0.17593400265721423 -0.7102351540981369 56 27 12
0.11808617852203224 0.17559614104280555 -0.7129368535819536 56 27 12
0.1163192031048482 0.17633582012134208 -0.7167862780729435 56 26 12
0.11664277381901221 0.17631733451882436 -0.7198302183296853 54 24 11
0.12008934667013682 0.17516573087626894 -0.7216542266373415 52 22 10
0.12103652156051406 0.1749207986796937 -0.7244486576884923 50 22 8
0.13566586631266456 0.1699060564730439 -0.728131980084589 54 25 11
0.13254147264101854 0.17113866821793272 -0.7325251422636755 53 25 10
0.1304037397473385 0.17201335176053115 -0.7365348636450736 53 26 10
0.13411929808478248 0.1707622963454937 -0.7381943172594616 55 27 12
0.1377282176319471 0.16954961797677362 -0.7398853412415338 55 27 12
0.13715681550772946 0.16985541788949243 -0.7432648688462244 54 26 10
0.1366101582543588 0.17015233587380516 -0.7466378152067791 53 25 10
0.14291182978888053 0.16796041530493416 -0.7472054465847068 52 24 9
0.1466449120194119 0.16670151242475212 -0.7488103221605615 52 23 9
0.1458010494930042 0.16710618709824324 -0.7522968581360664 51 22 8
0.1334508968155554 0.1716947345400039 -0.7605680875810713 52 23 9
0.13649412382857 0.17068674906252723 -0.7624622286826048 52 23 10
0.13825829731269676 0.1701436848071832 -0.7648830089755656 50 20 9
0.1380349973824049 0.17032345542057017 -0.7681352929055512 50 20 9
0.1381415002750809 0.17087698991031464 -0.7870735289334488 53 24 10
0.14372563338781735 0.168942364763452 -0.7878237321807766 54 24 10
0.1438596981183634 0.16899215289687833 -0.7909261646332971 53 22 9
0.15025913719685222 0.1667596949976802 -0.7912932877274388 52 23 9
0.14612219179757172 0.16836523175623266 -0.796259579716934 53 24 10
0.14727864437279026 0.16804246923366126 -0.7989114232357134 54 25 11
0.16392711973551097 0.16207378660876226 -0.7947118636675433 54 25 11
0.170687874164355 0.15970728296722814 -0.7948433033031992 55 26 11
0.1737425027345717 0.1587884060354062 -0.799721594361057 58 29 15
0.1797368540167036 0.1568939619615099 -0.8063698411623783 58 29 14
0.1865586863996453 0.1547928432408232 -0.8156935419193961 57 28 14
0.18999234620738376 0.15363632629396262 -0.8172149519762225 58 29 15
0.1902782251745274 0.1536287411750042 -0.8201846677578687 61 32 18
0.19161748551481703 0.1532365174336889 -0.8226646817638591 60 31 17
0.19319407964328877 0.15275751222073747 -0.8250305215154846 58 29 15
0.18977392478380778 0.15410355213693197 -0.8297352789901521 56 27 12
0.18871309143204995 0.15458809452938416 -0.8333432442042601 56 27 12
0.18191475511879207 0.15716919792172354 -0.8396675720834823 57 27 12
0.1788872676874644 0.1583730891629082 -0.8442292869434141 57 26 12
0.1813121564213714 0.15758454117739432 -0.8462074691221388 58 26 12
0.18164693104184446 0.15755981549576117 -0.8491773229808345 60 27 12
0.18643522605735546 0.1559068517005899 -0.8500110854096327 61 27 8
0.1915867473647264 0.1541205776700743 -0.8506542140374017 65 28 9
0.19220492868025627 0.1539917115476111 -0.8534713083871482 71 33 9
0.1923317052256947 0.1540425678220669 -0.8565260681461178 79 43 17
0.19257825875011683 0.15404963833651444 -0.8595235554663134 87 58 34
0.18283650399952614 0.15771135398720187 -0.8674031904551502 92 65 44
0.18180223988957947 0.1581877367297683 -0.8710482271818014 93 66 46
0.1861763351455508 0.15668480730315523 -0.8720357870325809 91 64 44
0.18794952628830716 0.15613351756197638 -0.8742942767776569 87 60 39
0.1892061041090386 0.1557712154336184 -0.8768040868688118 84 57 35
0.19021804617563057 0.15549839762830273 -0.8794326376847243 86 59 37
0.18644279790984705 0.15697871974086003 -0.884450581978738 88 63 41
0.18339841805908555 0.15819180942740396 -0.8891172718538636 87 62 40
0.18400718272640776 0.1580669912102297 -0.891958277269571 87 61 40
0.18166598878006254 0.1590230117054639 -0.8962883466570954 83 56 35
0.17783656285098626 0.16052471468131202 -0.9013826971707659 84 56 36
0.1773403995288216 0.1608052197066286 -0.9047970641138087 77 48 28
0.17910501566966439 0.16025709899133211 -0.9070607547644396 77 45 23
0.17751980482613114 0.1609369559540987 -0.9110355684410701 85 53 26
0.18006435900783074 0.1601027320158231 -0.9128946422527641 92 62 33
0.17466854900352446 0.16218030255166085 -0.9188424291437618 100 73 45
0.17854969826056866 0.16085579129876384 -0.9200085318290585 97 70 45
0.17861376123382677 0.1609311922638244 -0.9231451714377259 91 63 38
0.1796704595164403 0.16064242761076228 -0.9257655993320805 88 59 37
0.17999695922947914 0.1606215485252294 -0.92876574345903 81 51 33
0.18104920222720167 0.16033431647520277 -0.9313852224185037 65 38 23
0.17216251721781456 0.16369538566644304 -0.9392384770002619 55 28 14
0.17479446414210004 0.16282860976601338 -0.9410363849423423 49 22 10
0.17830388400602862 0.16163938066553823 -0.9423607618957269 47 19 7
0.17981034217703618 0.16118538761576376 -0.9447400486049744 47 19 8
0.1857892205671692 0.159088520283833 -0.944726544656204 52 25 11
0.18682497630975842 0.15880694437987625 -0.9473420179379062 56 30 13
0.1861107490533435 0.15916827892406132 -0.9508963559208894 62 35 19
0.18942617205649556 0.15804893511732385 -0.952280406710429 68 43 29
0.19002095203072122 0.15792919285120532 -0.9551269354682619 71 48 36
0.194065534612399 0.15654130994305065 -0.9560986470245653 80 60 48
0.19560551347435584 0.15607382902164693 -0.9584223538801079 82 64 54
0.19848407152240508 0.15511401561845142 -0.9600098382933012 81 65 55
0.1990666647684245 0.15499829377212973 -0.9628482658753181 87 71 61
0.20219822762524037 0.15394498848671417 -0.9642826183392637 89 74 64
0.20567456385656238 0.1527645379104041 -0.9655165478760735 97 82 74
0.20585156057167342 0.15279768163958474 -0.9685679985827429 98 82 76
0.2066599969291149 0.15259848766657488 -0.9712691826163865 109 92 86
0.20662510697457226 0.15270963547906835 -0.974439469093467 106 89 82
0.20958020446461037 0.15172019781387067 -0.97593764935757 97 80 73
0.21345694714389385 0.1503911512466182 -0.9769088679140823 92 74 67
0.21804084794241385 0.14880131573127775 -0.9774688855967935 91 73 66
0.21671790137351993 0.1493863752715651 -0.9813527852132246 102 83 76
0.22771342093313793 0.1454342813018622 -0.9782565737476676 101 83 76
0.225639218819642 0.14629579110779212 -0.9825580494043713 112 94 87
0.2243728358421981 0.14685994420374088 -0.9864075624325456 101 83 75
0.22366021459334887 0.14722022400247084 -0.9899461437875035 90 68 60
0.22258195348215054 0.14771539676099976 -0.9936989620796179 85 60 48
0.22730734851048645 0.146071366403763 -0.994112153695829 80 51 38
0.2299639839412355 0.14518955566759545 -0.9957056403534245 79 45 27
0.2353782647053562 0.1432906298936959 -0.9956911718361086 75 38 18
0.23732858590483064 0.14266862996582277 -0.9976739930090768 73 35 13
0.2356874291958408 0.1433711915116097 -1.0017477676074045 70 32 11
0.23915017748109307 0.1421910881588943 -1.002840119033285 69 31 10
0.24167503361300008 0.14135668797142148 -1.004472169053799 69 31 10
0.24368077544383904 0.1407136119619494 -1.0064023215428421 69 31 10
0.2450295725235126 0.1403128215614326 -1.008714943710938 69 31 10
0.256400437364047 0.13621232216787285 -1.0050804813572982 70 32 10
0.24857936598243405 0.13919628011039492 -1.0128227648631947 70 32 10
0.2461462009364614 0.14019164653832442 -1.0173802999354191 71 33 11
0.24729906338140176 0.13986295362088522 -1.0198017212287298 71 33 11
0.2461765383442 0.14037465101760577 -1.0235867137404786 73 35 13
0.2447103211446065 0.14101349836968172 -1.0275844297889847 75 38 13
0.24537018369193994 0.14086699136044528 -1.0303045476929458 78 42 16
0.247794493442003 0.14006840147358687 -1.0319543704213887 82 45 19
0.24803504528193773 0.14007671541895786 -1.0349242614839715 91 56 29
0.24882016761588419 0.13988373904379822 -1.0375627128611657 95 63 37
0.24932639813461596 0.13979383265241405 -1.0403703546578094 98 68 42
0.25517520765869167 0.13772831445017897 -1.0398998527064396 100 70 45
0.2523115895656524 0.1388843873567146 -1.0447705754144345 97 69 45
0.248808931718001 0.14027722282312943 -1.0500479725306002 91 62 39
0.24748534932269484 0.14086434616108057 -1.0539908731655157 92 62 39
0.25111798382913914 0.13961778639901368 -1.054862484450523 92 61 40
0.2504544747712645 0.13996074839657813 -1.0583979567582074 91 61 40
0.25254310767510646 0.13928517476182753 -1.0602180933010774 90 60 39
0.2436793207016845 0.14266390684464328 -1.0688947981390138 89 59 38
0.24278454729293225 0.1430931895715197 -1.0725978883147924 87 58 37
0.2386113744027453 0.14473664672779787 -1.078372425965588 85 57 38
0.24019360662939987 0.14424902426157415 -1.0805254377475688 80 53 36
0.2388660575687777 0.14483912440114863 -1.0845191687094735 68 41 25
0.237985520878814 0.14526381721476467 -1.0882351458906614 60 37 24
0.23897311172479857 0.14499643953199043 -1.0907643887688163 44 24 17
0.2420212103069723 0.14396536653643896 -1.091973301434764 38 18 13
0.24648979457673145 0.14240746667231668 -1.0922609125647686 41 20 13
0.24469661474884644 0.14317044759742403 -1.0965626876244592 43 20 13
0.24730989260650993 0.14229987019342688 -1.0980289430269257 48 23 12
0.25577715797451545 0.13925816125211823 -1.0956978799269554 55 25 9
0.25280969603523606 0.14045659387571063 -1.1007592321656428 63 28 8
0.24838914870560658 0.14219445180925686 -1.1067793091460134 71 34 9
0.24864536261058892 0.14219773889389892 -1.109764101258743 77 38 11
0.24857370894622305 0.14232270687054807 -1.1129641714962653 84 44 16
0.24828216063697234 0.14252934158667968 -1.1163104722154362 90 51 23
0.24776028721670637 0.14282155361821622 -1.1198111192386662 94 57 31
0.2516233956299683 0.14148595781433881 -1.1204192009426297 96 62 38
0.2522332951527644 0.14135789611312052 -1.1231690035525692 98 68 42
0.25223658806869215 0.1414550845234229 -1.1263209926709672 99 70 45
0.25211287696221807 0.14159949379916775 -1.1295591321544656 99 71 46
0.2522601716570342 0.1416432919814651 -1.132618264729114 99 70 45
0.25517219673901603 0.1406599036882039 -1.133826267632436 96 67 44
0.2563119141502954 0.14033481433287714 -1.1362154572272034 94 66 44
0.2574876540787776 0.13999625078249903 -1.1385776218744739 92 65 44
0.256977902823934 0.14028412935231435 -1.1420756111956705 88 63 43
0.25639432491167 0.140599564340047 -1.1456271156710338 71 49 37
0.24715693950607215 0.1443312967542518 -1.161419166646669 131 123 115
0.04197397636817975 0.17314969033383 0.1203393889193727 165 159 153
0.05508144135979803 0.1686947866443902 0.11649518816356173 133 112 101
0.06870491682916977 0.16405973359399637 0.11265373205445037 126 98 85
0.08213676306821815 0.1594898780991267 0.10886629687291904 152 121 106
0.09466446114300946 0.15523239483121304 0.10518011719195615 142 107 83
0.0792935726441179 0.16074028978224006 0.10052394810675111 69 33 7
0.0877660936331037 0.15788844378613148 0.09714258610782044 57 26 8
0.08833112103714982 0.15778017424601018 0.09427101249157346 52 23 8
0.08850723613587097 0.15780688314633923 0.09142316158051408 53 24 8
0.08774768958785917 0.1581584319073068 0.08862905578567651 53 24 8
0.0918211165646902 0.15683208154689637 0.08555745799384028 54 24 9
0.09136162606525407 0.1570794288575149 0.08274705353958202 55 23 8
0.09085565362296069 0.1573430026766045 0.07993644215685453 55 23 8
0.09052355756570676 0.15754626946559655 0.07711394425469069 55 23 8
0.08584558220221886 0.15925933458901267 0.07450843365466864 57 25 10
0.0857760100003514 0.15937174160847958 0.07166173497163049 58 26 10
0.08583191378645821 0.15944059339004357 0.06880759973295347 58 27 9
0.0869774050983603 0.15913080733301313 0.06590245809051773 57 26 8
0.08709358219957074 0.1591787250239681 0.06304513862678568 58 27 9
0.0871823165172874 0.15923621119284342 0.06018807163604578 61 30 11
0.08569586595022102 0.15984139129317881 0.057394785928506824 61 30 12
0.08649044333128422 0.15965357297600125 0.054505323351956424 60 29 10
0.08629337762443914 0.15981058946714602 0.051654748933645946 59 28 10
0.0860964711997326 0.159967609337839 0.048802269969728355 59 28 10
0.08589926696627267 0.16012479161495674 0.045947901875542534 57 25 8
0.08617894138500526 0.16011611575406318 0.04307573542198768 56 25 7
0.08630205155999479 0.1601619325705282 0.04020812941693597 56 25 7
0.08642552023520333 0.16020765259224265 0.03733960910136733 56 25 8
0.08678628994144119 0.1601708036815608 0.03446338724399112 56 25 8
0.0866817522461823 0.1602959408947956 0.031599607194695234 55 24 7
0.08640635453352209 0.1604806156113087 0.02873857079009104 54 22 7
0.08735397859704341 0.1602394846431977 0.025846080264919594 55 23 8
0.08796606164970196 0.16011515791150807 0.02296277777245432 55 23 8
0.08839601383903364 0.16005424987112865 0.020083893070833456 55 23 8
0.08926031804524348 0.1598420298691879 0.017196696969676756 54 22 7
0.08957398115443399 0.15982161333712339 0.014320659223784307 51 19 4
0.08965345216825124 0.1598828119754142 0.011448087787968398 50 18 3
0.09050935571463349 0.15967345290505786 0.008563169574221517 51 19 6
0.09224427570423814 0.15915766705429174 0.00566822744363929 50 20 6
0.0915640050507614 0.15948369166542553 0.0028050109197176303 49 20 6
0.0922382724460765 0.15933756269583763 -7.49740298844866e-05 48 18 7
0.09087498048742666 0.15990190268019985 -0.002937277516930477 48 18 7
0.08882086074181059 0.1607073399559155 -0.005800535241005477 48 18 7
0.08821760302590749 0.1610069624256982 -0.008678994811066083 48 18 7
0.08762424780088517 0.16130322952168766 -0.01156068932832393 50 21 5
0.08745632690302563 0.16145116346363647 -0.01444639709743823 49 20 5
0.0864876900847882 0.1618785578495302 -0.017333613028226398 50 21 5
0.08429238675568862 0.16273418289776906 -0.02022662245960012 50 21 5
0.0959817971300672 0.15874374274281572 -0.023089715876938484 50 21 7
0.08256858780665036 0.16351524469497575 -0.026025799277946033 51 21 8
0.08392231628327726 0.1631324035853788 -0.028918354026677525 51 22 10
0.08501638880133737 0.16284013911719616 -0.03180988867470082 46 18 7
0.08634888435126307 0.16246454249365505 -0.034697118613389845 44 17 6
0.0852246002284017 0.16294697076438006 -0.037607591286458956 43 18 8
0.08655455105645439 0.16257220375245585 -0.040492935422464314 41 17 8
0.0847723751637691 0.1632846689648 -0.04341834348607475 39 14 7
0.08516857068516029 0.16323615844368405 -0.046317189252208124 35 11 4
0.0841468337331908 0.16368318918342262 -0.049240156338401175 34 11 3
0.08264496578216889 0.16429818069061597 -0.05217658328917357 37 14 6
0.08442964201553194 0.1637644557552512 -0.055052906967663934 39 16 8
0.09019243763646098 0.1618397370199212 -0.057838480091173525 41 18 10
0.0898430164612839 0.16205179174371276 -0.06074955630844595 45 22 13
0.10143154985964997 0.1580889131711068 -0.06336586969995184 50 28 20
0.11444179534645513 0.15362765745085413 -0.0659090615732493 83 62 57
0.1247592396462441 0.15010716925900056 -0.0684878277755612 64 39 34
0.1383903161963945 0.1454263556490592 -0.07093683412020813 115 94 88
0.13702879586319158 0.14599048460446734 -0.0738122903355955 143 126 119
0.13046235638046316 0.14837636094313472 -0.07686428234072398 151 133 124
0.1257542558642853 0.15011246671000536 -0.07987447444810387 97 71 60
0.12745650849134643 0.1496050037957677 -0.08267004153455623 60 29 14
0.13800386384323066 0.14600057155023027 -0.08512879335005981 49 20 8
0.13960918462326272 0.1455263594789556 -0.08790581943478243 50 22 9
0.1443715874492788 0.14394636192159876 -0.09055020984890162 57 25 10
0.13908141872167928 0.14588702203641446 -0.09360687667137471 65 39 26
0.1419659910479035 0.14496449566970743 -0.09632210434717203 101 81 72
0.15240341512062328 0.1413954604578232 -0.0986851141749972 95 76 69
0.15480959900186508 0.14063970526363243 -0.10139501777707192 97 75 66
0.16055445707152546 0.1387136631733905 -0.10393565794250006 91 63 54
0.16661471206215261 0.13667654113524835 -0.10644332997887465 111 83 72
0.1725591739112921 0.13467945168302725 -0.10893892133146765 110 83 70
0.1778467868452489 0.13291211312942228 -0.11145196325791282 114 84 67
0.18250846117383818 0.13136378362370904 -0.11398389167241306 162 140 129
0.18503296004958847 0.13056456582858622 -0.1166235075023242 164 146 138
0.1877955757544463 0.12968161450242885 -0.11924240222683583 134 110 94
0.18998242190854264 0.129000415068121 -0.12188824526971172 98 61 38
0.19115178309543346 0.12867603403799843 -0.12459100412663952 91 47 21
0.19261031606940232 0.12825010241952434 -0.12727300379652212 84 40 15
0.19368042790965456 0.1279603856480182 -0.1299767546786889 77 35 10
0.19474944288667667 0.12767098666234372 -0.13267840694409377 70 32 8
0.19581781202962978 0.12738174724170984 -0.1353779337196532 68 33 11
0.19688519777941008 0.1270927859569264 -0.13807536013265312 66 32 9
0.20168738418957022 0.12549224574609363 -0.14050462445364859 66 31 8
0.20064105087706613 0.12594532266602051 -0.1433456482137703 65 34 16
0.19762954248258222 0.12708882914237762 -0.1463375856787856 65 43 30
0.1947021588105587 0.1282031211356758 -0.14933408577338841 66 48 35
0.19198750707225937 0.12924299897985847 -0.1523247620707596 66 48 37
0.18980972714597225 0.13009452539850774 -0.15528289899039352 65 47 37
0.18886566207790517 0.13051270853407346 -0.15814954487204244 64 45 37
0.18410832357223075 0.13227142470220338 -0.16133508678205416 62 43 36
0.18515050584949438 0.13199178323462568 -0.16404946950908295 61 42 35
0.17986170248524846 0.13393810725387817 -0.1673044779532645 60 41 34
0.17638533031003467 0.13524764251481067 -0.17041955728896346 60 41 34
0.1766179361511242 0.1352530852618183 -0.17321723030369313 59 40 33
0.17393795847345556 0.13628307159765404 -0.17627923360385864 59 40 33
0.1796982774959855 0.1343439948423787 -0.17857310809680096 59 40 33
0.17270229861426728 0.13689279900109855 -0.18204624280035198 60 41 34
0.1713838379079642 0.13744437401008422 -0.18500154538005334 58 41 33
0.1749665513863648 0.1362711078635115 -0.18748678773233443 57 40 32
0.174742621696736 0.13678819668025183 -0.20166537412527333 56 39 31
0.1401830100054379 0.15030746588575963 -0.24880990620075286 53 36 28
0.15722804612241587 0.14482736561641865 -0.2639220448827753 53 35 23
0.1411040310062708 0.15061384510967885 -0.2690878420537854 55 37 25
0.13903732498976062 0.15143453822132405 -0.2723020147989148 56 36 25
0.13950801705781055 0.15135870758645262 -0.275158087858982 54 34 24
0.14158692373250442 0.15071440869477432 -0.27777920523816324 51 31 22
0.14498327507364644 0.14960419060164315 -0.2802003640206391 51 31 22
0.1435182261776669 0.15021254211511137 -0.28333732397032496 52 32 23
0.14360763066205007 0.1502713882526245 -0.2862458736793061 48 28 17
0.14165529276081434 0.15105238564231138 -0.28946694578323834 41 21 10
0.14358383192587737 0.15046084664030154 -0.29209737914285877 41 21 10
0.1397780396778866 0.15189784207096207 -0.29561646468669184 51 31 19
0.1374506151325955 0.15281217585885035 -0.2989166127497391 47 27 15
0.13591119408856175 0.15344792918680586 -0.3021003866324813 49 31 23
0.13917660632425294 0.15238329453609373 -0.30451804389897785 54 37 32
0.14066657768620683 0.1519468455729225 -0.30721468366905796 77 60 50
0.1436616616890386 0.15097742422103677 -0.30966079627876536 48 24 10
0.14694402931968692 0.14990601566483563 -0.31205076364591183 52 23 9
0.14649315526926826 0.15015639250042032 -0.315056147879885 52 23 9
0.14852775192332635 0.14952653308760658 -0.3176442300272919 51 23 9
0.14792768779150464 0.1498298079686831 -0.3206766644853304 53 25 11
0.1489150848219876 0.14957076376424122 -0.3234388429139512 52 24 10
0.15159435732142537 0.1487121582008318 -0.32590471790010805 59 33 21
0.14035132492232485 0.15278728833917238 -0.33080866562417605 60 34 22
0.1384945163490446 0.15353671960070686 -0.33408688847349777 42 21 11
0.13922626834540663 0.15336875022068605 -0.3369093487429442 25 10 4
0.13380446949417402 0.1553824709577747 -0.3408422745425373 25 11 4
0.12848378661375048 0.15736093536246132 -0.3447761235883118 42 21 12
0.1280797989233488 0.15759628451105612 -0.34782458289384516 45 22 13
0.12505219790426664 0.1587623164370443 -0.35136273097548254 43 23 12
0.12511826148124755 0.15883121714078624 -0.35433296465852643 44 24 13
0.12345800360275816 0.1595126596038937 -0.35763052088681363 47 27 16
0.12918490283434006 0.15757294290856075 -0.35952702635015016 42 22 12
0.14576278004619742 0.15178159193062668 -0.3593196746224216 30 14 7
0.14359724985088781 0.15264170667851978 -0.362693301384185 22 8 5
0.14159430943879364 0.15344436612608406 -0.36604371005248865 41 26 21
0.1380473917075835 0.1547954817000551 -0.36970671990596843 57 38 30
0.13532405194417851 0.15585454249790037 -0.3732191022364435 48 28 21
0.13910700988126895 0.1546031194042492 -0.37543686827174183 49 28 21
0.1402266187252802 0.1542974137638984 -0.3781820731865476 43 20 13
0.14023668480996473 0.15438582033385337 -0.38115118492214617 50 23 13
0.1400848866278025 0.15453178221175629 -0.38415492293872555 52 26 15
0.1416256112536762 0.1540763282705228 -0.3868097526002563 64 38 26
0.1454677125846367 0.15280279505951228 -0.38897997949084917 65 40 29
0.15024629456486127 0.15119601152798598 -0.3909415140166433 52 23 15
0.15451716563296206 0.1497692806785418 -0.39299622061077677 52 19 12
0.15901739534114967 0.14826059497701596 -0.39498894004838064 52 20 12
0.1646075771606234 0.14636386529086903 -0.3967329443659991 51 22 12
0.1678097700980123 0.1453159636169099 -0.3989785095818166 56 23 12
0.1764011334788696 0.14235066029782906 -0.40003460587756223 58 23 10
0.17270126337826192 0.1437575566215322 -0.4037753737249141 80 47 34
0.17859933992571014 0.14174956570661512 -0.40539599177384444 98 71 60
0.1843386185304451 0.13979751886254238 -0.4070337537120367 111 88 75
0.18949091938807983 0.13805384757650763 -0.40878608168163405 81 50 30
0.18194896282038014 0.14082876052066146 -0.4134087299472559 68 31 9
0.18169241528100444 0.14101056013982566 -0.4163893705274708 68 30 9
0.18370139459694468 0.14038567919716985 -0.41884951273411775 69 31 10
0.18367726009762655 0.14048472481911797 -0.42177678101092003 70 33 11
0.18245060749465364 0.14101215469105136 -0.4249869976606402 71 34 11
0.18101241196587223 0.14161511775994295 -0.42825258699067714 73 36 12
0.18307861028378836 0.1409696352051213 -0.4306922255934386 75 42 22
0.19081047677905527 0.1383049700630948 -0.43177133713430993 77 48 31
0.18491761377650368 0.1404955403509127 -0.43610704117579063 79 52 35
0.1081526313677995 0.1682342679261266 -0.46683238559097456 73 44 28
0.10632735168961291 0.16898012051292854 -0.4703503969769736 68 39 21
0.10799747649381121 0.1684793123357328 -0.47299878549110536 68 39 21
0.11015582564291912 0.16780418657116924 -0.4755196062330204 66 37 19
0.1077811588440992 0.16874639154779852 -0.47918752988254715 65 36 18
0.1100332825732213 0.16803767340714923 -0.48168027186125495 63 34 18
0.10746538162438186 0.16904919452733896 -0.48540912026792804 57 28 14
0.10526465099047001 0.16992995472771585 -0.48905285354433653 56 28 11
0.1042825597420611 0.17037588873968137 -0.4923872696469067 55 28 10
0.10531498286205715 0.17010260456350415 -0.49519699897194847 54 27 10
0.10598566366590763 0.1699584507454395 -0.4981003569316743 52 24 8
0.10744809565534662 0.1695314603005571 -0.5007921036632293 53 26 9
0.10760988492330256 0.16956901437187316 -0.5038287914420699 55 28 12
0.10960212260776898 0.1689525736035516 -0.5063728557270488 61 34 15
0.11425434587856344 0.16738541016222494 -0.508189893415259 58 31 12
0.11025245925923473 0.168910841975166 -0.5123552732740918 57 30 11
0.11036237539979211 0.16896693592343215 -0.5154061250032872 58 30 11
0.1119048503468001 0.16851090537432525 -0.5180620585719354 66 35 17
0.10988908765216025 0.16932705910433474 -0.5217038214869101 67 36 18
0.10971315339952746 0.16948551456451622 -0.5248390640936581 62 32 14
0.10949399663636401 0.16965949292693247 -0.527988525580231 63 32 14
0.11011902886159988 0.16953155304022072 -0.5309010776489286 64 33 15
0.10983734720449698 0.16972799294677718 -0.5340713145522025 65 34 16
0.10648035312583143 0.17102494452267009 -0.5381255191368731 62 30 13
0.10708288344355424 0.17090525293746328 -0.5410508673886165 63 30 13
0.10759503863684161 0.17081789116435925 -0.5440018295775756 75 42 23
0.10806960426067941 0.17074397694512972 -0.5469634669998777 74 42 21
0.10660917669624974 0.1713628645183737 -0.5504928459894187 73 41 20
0.10699523314151167 0.17132073724925675 -0.5534835945810661 73 41 20
0.10795124072743352 0.1710744880351635 -0.5563052555687803 76 44 23
0.1112582733447682 0.1699860454966516 -0.558423019175936 70 38 17
0.11221126635812573 0.16974063925306077 -0.5612379298510802 67 32 12
0.10923202474069324 0.1709041209790629 -0.5652387961216018 71 36 16
0.10894672755238917 0.17110256444632949 -0.5684329974892603 70 35 15
0.10822705778684373 0.17145676811351843 -0.5717623397212486 69 34 14
0.1087570663689495 0.1713631270401338 -0.574711710341125 69 34 14
0.11071783830338025 0.17075651955278365 -0.5772187299408695 68 33 13
0.11109368470848514 0.17071805872395593 -0.5802128248412463 68 33 13
0.10982640537127036 0.1712688696194551 -0.5837203469709727 67 35 14
0.10603059869279131 0.17272678925679819 -0.5880278666360765 67 35 14
0.10627592113157433 0.1727354776780242 -0.5910737170161773 65 33 12
0.10653340340658207 0.17273982284263256 -0.5941163365514575 65 33 12
0.10531454960944353 0.1732739522848246 -0.5976308640892567 63 31 11
0.10453232554640168 0.1736515547165079 -0.6010109237733876 63 30 11
0.10271363768359969 0.17440132008283743 -0.60472962415748 66 33 14
0.10331776283955152 0.17428153922092893 -0.6076700652033754 71 40 19
0.10178993881378152 0.1749272202761428 -0.6113052360783126 70 39 19
0.10025554586012903 0.17557546955866782 -0.6149493210756392 68 37 16
0.10058635254756398 0.1755540258839002 -0.6179854181491423 68 37 16
0.10100362346866437 0.1755015338497818 -0.6209932114957919 65 34 14
0.10140722480851727 0.1754539542492761 -0.624005603456498 63 32 12
0.1026205613611805 0.17511542385047354 -0.626746996358149 63 32 12
0.1036905413163551 0.17482832806145174 -0.6295339218898612 64 33 13
0.10549905761040329 0.1742757139782104 -0.6320688191688573 66 35 17
0.10023875433463209 0.17626405395818903 -0.6370022436832941 64 33 15
0.1101690699749068 0.17279146004040918 -0.6367644575373093 59 28 10
0.11096892063088981 0.17260104930474346 -0.6396296203628171 55 23 7
0.10991436171748781 0.17307752126409964 -0.6431336184379836 53 22 9
0.11030989324045894 0.17303256211349435 -0.6461396937980763 51 22 8
0.0977961158792287 0.1777297727819059 -0.656814204110921 51 22 8
0.09895946307595085 0.1774092370276254 -0.6595733825516877 51 22 8
0.10321503476050169 0.1759756987946451 -0.6612357514259646 50 21 7
0.10261992849379606 0.17628781941005545 -0.6646097984722977 50 21 7
0.10272089976333468 0.17634945010328387 -0.6677386704549796 50 21 7
0.10159470550382642 0.17685298449954748 -0.671309368547646 49 20 6
0.10111953006195466 0.17712223814812256 -0.6746505807623235 49 20 7
0.10164061967509563 0.17703275497062818 -0.677633724937465 50 20 9
0.10172266176283346 0.17710142204240506 -0.6807765170999962 50 20 9
0.10866747910356656 0.17469755123878586 -0.6814082445614592 49 19 8
0.11247561754420768 0.17342325382238938 -0.6831709668297312 50 20 9
0.11896117527376368 0.17118365957136783 -0.6839324052999696 51 21 10
0.11735826429967297 0.1718589006017519 -0.6876760445482516 51 21 10
0.12070637036661987 0.17074949827621289 -0.6895797470804038 51 22 9
0.12016962084671948 0.17104049757083778 -0.6929293275704862 53 24 10
0.1235033568697106 0.16993585521807678 -0.6948248086180955 54 25 10
0.12396160376809648 0.16986799165966343 -0.6977979505276123 53 24 9
0.11928404269681693 0.17165271921795294 -0.702722922850458 53 24 9
0.11575902189168281 0.17302219260126034 -0.7072257301075946 55 26 10
0.11270737423386704 0.17422128816482474 -0.7115608309676935 56 27 11
0.1139899795173294 0.17385659949940915 -0.7142380539587392 56 27 12
0.1139998507078539 0.17395119674632448 -0.7174049360024323 56 27 13
0.11620895587412566 0.1732519324310025 -0.7197181564449169 54 25 11
0.11860341041732309 0.17248555484225025 -0.7219527329072586 52 23 9
0.1328865858660544 0.16771802548917775 -0.7289509736077633 53 25 10
0.13228176742385334 0.1680340165078827 -0.7323405670240671 53 26 9
0.13272205369729523 0.1679724465099493 -0.7353145523918083 55 28 11
0.13647743742972848 0.16671270454952325 -0.7369527995931693 55 28 12
0.14384757652752367 0.16414592644795853 -0.7371165072205879 55 28 12
0.14090707768828578 0.16530607368018144 -0.7414463621789403 54 27 10
0.13742124096444464 0.16666377865369852 -0.7460107056609725 53 26 10
0.1380647616157338 0.16652854170952774 -0.748895949204411 53 26 10
0.13599515596156214 0.16737462330468908 -0.752897519860236 52 24 10
0.13613099733617956 0.16742314351608162 -0.7559959514771861 52 23 9
0.13602494596091197 0.16755921508591443 -0.759195864026357 52 23 9
0.13685013295155346 0.1673583616292458 -0.7620092968351901 52 22 10
0.13864504693468857 0.16680650025935445 -0.7644151864837619 52 22 11
0.14358239145191654 0.1657025846183816 -0.7844095474912486 53 24 10
0.1510565434836761 0.16309201076328975 -0.7843309974287852 54 24 11
0.14903819335599372 0.1639208872103676 -0.7883545562346306 53 23 10
0.14852543847948307 0.16420429932820865 -0.7917295214317818 52 23 9
0.14091150486131673 0.16706217140128288 -0.7982205556059252 52 23 9
0.16271345883399163 0.1595462668683484 -0.8011920969828572 58 29 15
0.1700784004481218 0.1569713380383079 -0.8010339407251642 58 29 15
0.17821590055607098 0.1541153143084576 -0.8005040989262923 58 29 15
0.17890867204264768 0.15396021606406468 -0.8033029370803153 58 29 15
0.1770892069784818 0.1549099359873181 -0.8134716751633302 58 29 15
0.17594956225784827 0.15542034310328068 -0.8171127615753702 58 29 15
0.17918012177122 0.1543437154883289 -0.8187501804505163 57 28 14
0.17810929753414953 0.1548292274243953 -0.8223628438207206 61 32 18
0.18066124936133546 0.15399875261548077 -0.8243022581839277 61 32 18
0.18397743550934215 0.15289035295752634 -0.8258785562164841 59 30 16
0.18713874130089397 0.1518379167495426 -0.8275167819970268 58 29 15
0.18916214856959865 0.1511987631049922 -0.8296785246190146 57 28 14
0.18318091178163426 0.153469290622115 -0.8356008300161 57 28 14
0.1845132420138851 0.1530814847055228 -0.8380918201409772 57 28 13
0.180466642233289 0.1546495317192979 -0.8431297339719874 57 28 13
0.18298352072829063 0.15383101549898937 -0.8450600903012979 59 28 11
0.18382361094208463 0.15362218738565936 -0.8477839158704525 59 26 12
0.18486407447749809 0.15334041663889064 -0.8504101468923877 61 28 10
0.19195348239255192 0.15085763552569345 -0.8501227491096734 67 30 11
0.19329276439716328 0.15046664557301684 -0.8525892489809399 72 32 10
0.19278848480426078 0.15074654825512357 -0.8559463856565263 83 44 18
0.1905265971723843 0.15166636312195245 -0.8601622927891993 90 59 36
0.18729749129011464 0.15293862066828026 -0.864860365748425 92 64 44
0.18846039485204616 0.15261200370905556 -0.8674181126611062 92 65 46
0.1851665118823556 0.153908422260369 -0.8721664698156646 90 63 43
0.19089100539933868 0.15192034597596574 -0.8724737797323474 86 59 39
0.1964103501787225 0.1500064122554512 -0.8728636164523919 86 59 37
0.19162412021829492 0.15184682811937725 -0.8783625111469413 86 59 37
0.1875574886780911 0.15342559488664154 -0.8835208951317393 85 59 37
0.18494211978686154 0.1544759222014141 -0.8879681904559312 85 60 37
0.18702342189861418 0.1538145297415233 -0.89006416351738 85 58 37
0.18304046989675848 0.15536387105729352 -0.8952152775855832 82 54 33
0.17839235245690152 0.15715625135349395 -0.900719323526305 78 50 29
0.18074229702368982 0.15639704527690537 -0.9026838459245601 73 45 24
0.17903339997085085 0.15711808826508167 -0.9067123052170676 73 42 19
0.17735297528843577 0.15782898376710344 -0.9107339194495684 82 51 23
0.17698410068850748 0.15806157933892956 -0.9140892190558548 90 59 31
0.17461031624753526 0.15902589450138868 -0.9184812767892533 96 70 42
0.1762662416620504 0.15851977823749244 -0.920798155674392 96 68 44
0.17722481432292447 0.15826807927540676 -0.9234726953300252 87 59 35
0.17778853989105736 0.15816047406862963 -0.926351053882829 87 57 35
0.17725335487059227 0.15845411436945456 -0.9298035769654698 81 50 33
0.1767168371690664 0.15874834942300292 -0.9332602897606052 65 36 24
0.17723595296325065 0.15865711473748492 -0.9361646095871314 53 27 13
0.178804541944391 0.15818248210792493 -0.9385140209798032 47 21 8
0.18248769664746992 0.1569351204930769 -0.9397380253006424 47 20 8
0.18352951991635902 0.15665260403138795 -0.9423554952572919 48 20 8
0.1857134958341763 0.15595257973623106 -0.9443609177973465 53 25 11
0.17958508005114107 0.15829086731666853 -0.9508130047347724 57 30 13
0.1829541295736028 0.1571576559000218 -0.9521837104718037 61 35 19
0.18644936677207471 0.15597797011394518 -0.9534755828738383 70 44 30
0.1895325841903024 0.1549486159857752 -0.9549792012081885 73 49 37
0.1924097159163901 0.15399433952348013 -0.956584990305837 76 57 44
0.19510242982939383 0.1531072489421579 -0.9582822690191273 84 66 56
0.19651443120758177 0.15268848750088254 -0.9606713844011517 80 64 55
0.20085533751599738 0.15119782019223688 -0.9614502750983489 81 67 56
0.20324919181993878 0.15041931570685674 -0.9632863709519833 88 74 63
0.2062824729698195 0.14940652463742493 -0.9647621310887718 92 77 69
0.20786154930526501 0.1489258308539858 -0.9670339695433162 92 76 70
0.20701383316010724 0.14933360852232042 -0.9706505218920217 105 88 81
0.20905959430308094 0.1486818790005745 -0.9726580132939538 114 97 89
0.20995283697993708 0.14845210585243432 -0.9753044054131692 99 82 75
0.2111898070016496 0.14809635935159274 -0.9777560848801399 100 81 74
0.21673081919278536 0.14616355523206248 -0.9777806113501286 98 79 72
0.21616397809343613 0.14646838040671917 -0.9812376026631077 105 85 78
0.22717839879608925 0.142528722012151 -0.978132728193591 101 82 75
0.2272420494651118 0.14260199611453378 -0.9812170308752215 106 89 81
0.2254786346684165 0.14334514812366864 -0.9853451328720817 110 92 84
0.22371039834444487 0.14409031670140843 -0.9894840258703868 96 76 67
0.22297922849138455 0.14445540730739218 -0.993035405077828 87 65 53
0.22575271930653626 0.14353515105160317 -0.9945718820320187 80 53 38
0.22737110145223854 0.14303837453145127 -0.9967672703080273 77 43 25
0.23043319089083047 0.1420117563076861 -0.9981211135822005 74 38 17
0.23825187941628828 0.13923934097931634 -0.9966983833651542 75 37 15
0.2403194509838904 0.1385768516645876 -0.998604159876608 73 35 14
0.23667695160635938 0.14001020924817267 -1.00384632762669 70 32 11
0.24024151625972276 0.13879806982235635 -1.0048713431154297 69 31 10
0.24173606543981668 0.13834566160539497 -1.0071040775936384 69 31 10
0.24189547345223422 0.1383834586523362 -1.0101217729919056 69 31 10
0.24259899009505537 0.1382214299046101 -1.0128178629324915 70 32 11
0.2427037072382698 0.1382793450092674 -1.015868938856518 71 33 11
0.24402246051827767 0.13789123231957287 -1.0181969843651877 72 34 11
0.24643328105220866 0.13710170346998746 -1.0198682169800564 72 34 11
0.24956489624217015 0.13604702618058756 -1.021099389068309 74 36 13
0.24922442731811928 0.13626835333860063 -1.0244108843991917 76 38 14
0.2502436506935097 0.13598987375145505 -1.0269040113783385 79 42 17
0.2506250382148952 0.1359458621519043 -1.0297812668460355 84 46 20
0.25119755972566454 0.1358315610863213 -1.0325424855496415 92 57 31
0.2513831490977197 0.13585956442602207 -1.0355389398133696 95 63 39
0.25484849618443944 0.13468102891846578 -1.0365310551386224 98 68 42
0.2551570565849973 0.13466364877822373 -1.039447656137978 102 72 46
0.25194726673031576 0.135941025219574 -1.0445288008302505 99 71 47
