ply
format ascii 1.0
element vertex 675
property float x
property float y
property float z
property uchar diffuse_red
property uchar diffuse_green
property uchar diffuse_blue
end_header
-0.18471703419754976 0.11719223202074573 -1.0793871561183066 52 35 28
-0.1800697960680067 0.11495512902604466 -1.0855536385399889 56 39 31
-0.18245426073058285 0.11592857802978923 -1.0873921227639611 66 48 41
-0.1816826088878465 0.11546075212856943 -1.0911802906927042 62 43 36
-0.18110757567397037 0.11508258743447596 -1.0948506359495178 63 44 36
-0.17924650284613544 0.11411673087010785 -1.0993271299428067 64 44 37
-0.17934627080157273 0.1140465660176388 -1.1025850773255197 58 39 31
-0.17870873316242133 0.1136394046221676 -1.10630703967555 60 40 30
-0.18133469750657324 0.11472377329746627 -1.10797808809378 63 40 29
-0.1800800961841371 0.11403446508199513 -1.1120915088620809 68 44 29
-0.18155620064549063 0.11459343963788568 -1.1144814317801548 76 51 33
-0.18327929355558994 0.11526549843142685 -1.1167103367653788 82 59 37
-0.18467166090576512 0.11578647781046492 -1.1191449807568512 83 61 41
-0.1872983929755621 0.11687219820919947 -1.120786837340512 84 63 44
-0.1859393721054843 0.11613482961294883 -1.1249755503349794 86 63 45
-0.1866955769209256 0.1163650310882553 -1.1278108517370475 85 63 45
-0.18362074722255922 0.11484216293140065 -1.1331156329309253 85 64 45
-0.18056036008719167 0.11332544003679931 -1.1384244031591737 84 66 45
-0.1836977925069911 0.11464526064476017 -1.139725437001065 84 65 47
-0.18571958813426298 0.11545469699318188 -1.1417419454284525 84 65 47
-0.1799397021245981 0.11269214353083977 -1.1488437520465942 83 65 47
-0.1783301032856357 0.1118385174451879 -1.153239704961163 79 61 47
-0.1703028896297387 0.10804528834070724 -1.1618562668745112 84 70 59
-0.16687345262275255 0.10635706610352581 -1.1674781743930303 106 96 86
-0.15671955597287918 0.10158755776130234 -1.1775549653795827 136 131 123
-0.15505655737407747 0.10070725751867726 -1.1820495538397833 162 159 152
-0.14387984021247305 0.09546674907457224 -1.1928705778981155 178 176 172
-0.13084766561264985 0.08937424551800063 -1.2049720614425157 186 185 184
-0.16960330794202425 0.10702011327455524 -1.1825315847228008 189 189 189
-0.17149698403487265 0.10777067219977914 -1.1846378592098168 192 192 192
-0.17954179528334646 0.11134201300961082 -1.1826058243712494 195 195 195
-0.18164206955154522 0.11218813264716784 -1.1845496091887133 197 197 197
-0.18391323227570397 0.11311286305001737 -1.1863714002735894 199 199 199
-0.23679269481634133 0.13725432061821835 -1.1538923677005928 200 200 200
-0.23517216867299917 0.13639739033261022 -1.1582467115681676 201 201 201
-0.23868738112681934 0.13789689183113668 -1.1591088862552883 202 202 202
-0.23503834830907766 0.13610878037986981 -1.1648552155185858 203 203 203
-0.23971241324084389 0.13802714975689445 -1.1681664702146852 204 204 204
-0.2596156926369705 0.1470523163043857 -1.157703733666642 204 204 204
0.043590181066851086 0.06255337721429177 0.10307920013515674 183 183 183
-0.049386244985101 0.10255165687070822 0.0946411078590486 183 183 183
-0.045985715521693 0.10098085378305569 0.09183339789525047 183 183 184
-0.03821096912068474 0.09752224457681732 0.089248621480157 183 183 184
-0.038177078205607756 0.09740317826873418 0.08623401078163984 183 183 185
-0.03440722305505984 0.09567165725894816 0.08340683022660118 183 183 185
-0.03266319114336269 0.09481411141898068 0.08046712943853085 183 182 184
0.015806974856414618 0.073784589655903 0.07973244241273203 184 183 184
0.009210592765968795 0.07652500322584985 0.07632257647906819 184 182 183
0.0069286260349942196 0.07740308526498904 0.07312294059581759 181 181 181
0.004274999291751409 0.07844188315260682 0.06991350050783779 178 177 177
0.0030072043876831246 0.0788823566465581 0.06676796266040953 176 175 174
-0.001815516324997761 0.0808585797987982 0.0634854277230068 176 175 174
-0.00659703799629633 0.08281749448594773 0.060218625655117076 178 176 173
-0.008084926597001642 0.0833537477337901 0.05708476307910941 176 171 167
-0.03211558228765297 0.09363189619644119 0.05317695679662173 144 134 128
-0.03704409373088992 0.09565669037763617 0.04997319874578372 113 99 91
-0.04949812696076791 0.10093495491782063 0.0465487132526471 104 83 71
-0.05431088576014705 0.10291113653443548 0.04338965559665798 91 64 48
-0.059727940875318464 0.10514908972359832 0.04022786972742404 60 32 15
-0.05784907655453382 0.10423266310598467 0.03727510193657087 49 24 10
-0.05741561839402799 0.10394109287204685 0.03427911156257609 48 26 12
-0.06103713289888249 0.1054033551763064 0.03118633674696773 43 21 9
-0.056840531384391574 0.10348391623889837 0.02827275929073818 39 17 8
-0.057084744624022306 0.10348527647841332 0.025255629253610124 40 19 11
-0.055550236806878886 0.10271695818408051 0.022270650986010863 40 19 11
-0.05614976160675625 0.1028719487904665 0.019243686820815255 40 19 11
-0.056243028828836375 0.10280784490166119 0.016225022807479415 40 19 11
-0.052339722324407666 0.1010136987610722 0.013259349766991786 38 18 10
-0.05447098997097835 0.10183161098943377 0.010207995235623307 35 16 7
-0.05447280109146728 0.1017276947482663 0.007184111702198395 31 13 4
-0.05554466374158169 0.10208710978713173 0.004149677059243616 32 14 5
-0.06057765745155158 0.1041621542128757 0.0010895693991361671 34 15 6
-0.059461486691429616 0.10357418849488023 -0.0019222622764320033 38 17 8
-0.058486802603138294 0.10304734577854516 -0.004939549480963316 38 17 9
-0.0605270608362209 0.10382661909289778 -0.007967823786539006 38 17 9
-0.061641972544759865 0.10420510392523247 -0.010990275793943164 38 17 8
-0.05331021347667657 0.1004896900159598 -0.014020646901327085 37 17 8
-0.057539457320168644 0.10221766227389152 -0.017045370597264395 37 17 9
-0.06006561093735477 0.103207791841244 -0.02006503458697452 36 17 8
-0.06062370495112262 0.10334491467303596 -0.023089518996291934 36 16 8
-0.06113448940169229 0.10346154161603889 -0.026113851533835726 35 16 8
-0.055739053810610936 0.10101689240488179 -0.02919225287002152 34 15 8
-0.05222526995089492 0.09938769184362413 -0.032269127957330654 34 15 8
-0.04463843720299396 0.095991273725207 -0.0354095625133412 35 17 10
-0.043584032655880484 0.09542790890059136 -0.038483919055958375 36 18 11
-0.039322813407308796 0.09347298993105597 -0.04161348548509927 35 19 12
-0.02926058779198629 0.08900024552855422 -0.0448590019579915 65 57 53
-0.020739452802048544 0.08519514865046447 -0.04810941023823617 169 168 168
-0.014105946306651473 0.08220837625560651 -0.05135003631167862 181 181 183
-0.006367229588602044 0.07874102300333281 -0.05463827476452154 181 181 183
-0.040465117798352025 0.09343685489518117 -0.05695344994956164 181 181 183
-0.029766673768384863 0.08868483863199086 -0.060302149627376914 181 181 183
-0.014509460307874242 0.08195177763222437 -0.0638110109581634 143 140 139
-0.005799318840225106 0.07806058183283596 -0.06718256885380433 53 45 42
-0.006248664438443952 0.07814718159518995 -0.07030519077553979 58 45 43
-0.008029914496664937 0.07881243265541427 -0.07338497557557673 67 51 48
-0.010802092272047219 0.07990840461387014 -0.07642687304888685 78 59 53
-0.03819464049562456 0.09170378392741907 -0.07859064031664775 82 64 54
-0.0495280820382451 0.09652259670432585 -0.08126000194847635 76 58 51
-0.04684031367552448 0.09524793774615191 -0.08443519765394758 73 55 48
-0.06213767054948299 0.10179168924306717 -0.08689621454416364 73 55 47
-0.06376955744357961 0.10239549998898634 -0.08988113106433081 73 54 46
-0.06903908751363223 0.1045812747179242 -0.09270356070907522 70 52 42
-0.06911193607393326 0.10450753777393791 -0.09574489128834142 73 56 47
-0.06531355899460128 0.10274992567295863 -0.09896864955027239 76 59 51
-0.05835699160095838 0.09961796125623876 -0.10235936116662528 76 60 52
-0.04344624950556283 0.09302448503996603 -0.10617307053219048 78 60 53
-0.055405514237144515 0.09812129929443063 -0.10864583910345398 79 61 54
-0.0054151692136491375 0.07625955736298068 -0.11439039158030381 76 58 51
0.0038859069589047886 0.07210196506571559 -0.11806001955138745 83 65 56
-0.017223500532428618 0.08118108351490003 -0.12003669050597263 81 64 53
-0.011116779338960377 0.07841370808641906 -0.12353379277139778 79 59 48
0.017553314126437614 0.06582107391006438 -0.12840670180357777 95 76 64
0.02226027543002393 0.06366048070102244 -0.1318977493786302 93 72 58
0.03316225909921541 0.058801164554161796 -0.1357980183964252 94 72 56
0.0531323360502878 0.04999058068323008 -0.14032489551295188 94 71 57
0.060197572865118815 0.04679962311778046 -0.144059358602501 88 66 49
-0.1331299454188718 0.13091986180354076 -0.13413565421332874 74 47 29
-0.13657235820409439 0.13231749693015005 -0.13685341234530285 65 39 22
-0.14121707108262826 0.13423946743118853 -0.13947499309154293 61 35 22
-0.14985247698369894 0.1379013752658241 -0.1417901847382856 57 34 20
-0.14189979630631194 0.13433292045561676 -0.14532051392253803 57 37 26
-0.14314023059884953 0.13477162646930219 -0.1481746708147574 60 41 36
-0.1421506473285524 0.13423803436677106 -0.1512004192610394 60 45 42
-0.11726713960101828 0.12328399967780926 -0.15613921397106428 60 47 43
-0.1200997784179349 0.1244158325222798 -0.1589021005064701 60 49 44
-0.1529237995328983 0.1386308146415198 -0.15916185409678 60 49 44
-0.11826093869231771 0.12340645516726387 -0.16504031105826367 60 49 44
-0.11797081259337205 0.12317612367153848 -0.1680615100674295 60 49 45
-0.11556979471707651 0.12202453418043802 -0.17127110656171693 62 51 47
-0.11493393957565196 0.1216430301519648 -0.17433141506432087 64 53 49
-0.12360649038200684 0.12532460717490107 -0.1765434203159748 63 52 48
-0.11725061131665446 0.1224462328411681 -0.18012799542862712 63 52 48
-0.1169530384365868 0.12221228185966884 -0.18316053011029168 63 52 48
-0.1163563046806467 0.12184761315283524 -0.18622423379184982 63 52 48
-0.11196557049169181 0.11982584127295945 -0.1896636612959959 64 53 49
-0.10819237954462244 0.11807325812540553 -0.19305739115890497 64 53 49
-0.10247637620840959 0.11547146690212251 -0.19666220975392112 65 54 50
-0.09074250681984983 0.11023968880186034 -0.20090824990461595 64 53 49
-0.08242331602207355 0.10649862159064141 -0.20483681328636708 63 52 46
-0.07000244248083051 0.10096399561175008 -0.2092313367682866 64 52 46
-0.06944672106827864 0.10061397732440153 -0.2123852040436463 66 53 47
-0.06979705937963743 0.10065992631020675 -0.21544275434870352 67 54 48
-0.06851205017951058 0.09999089231838218 -0.2186828550824595 68 55 49
-0.06590256896920532 0.09874252449481782 -0.22207852502019637 68 54 48
-0.07631484763985824 0.10318845151131811 -0.2239885625891298 68 53 48
-0.07425637779677315 0.10218113853244101 -0.22731840288030272 67 53 48
-0.07681318432643792 0.10319241657782495 -0.23011090734944278 68 54 48
-0.07387533240289544 0.1018000778660513 -0.23355494091394055 69 57 49
-0.0717620800530179 0.10076815445517134 -0.236909935383158 71 59 51
-0.06920594513492986 0.09954212986034212 -0.24032795576238977 72 59 51
-0.0706760867878271 0.10007792458238837 -0.2432529517306183 71 61 53
-0.06839267427943974 0.09897082281515196 -0.24664956610945535 72 61 54
-0.06680031363963247 0.09816593846122615 -0.24996656429664643 73 60 53
-0.0649466244614027 0.09724640149744704 -0.25332423818076905 75 61 55
-0.06135251012579502 0.09556447212000449 -0.2569186157909307 76 61 54
-0.058226783884192404 0.09408721052174333 -0.26046400315577417 76 62 55
-0.0546877412015466 0.09242849855714391 -0.2640770772986669 76 61 54
-0.05124527762036848 0.09081163523671036 -0.2676902377070735 80 65 57
-0.04739654663734495 0.08901632428968048 -0.2713725836517763 81 66 57
-0.04413957111156709 0.08747981773042109 -0.27498640011850595 82 69 60
-0.04058140816839932 0.08581088829261105 -0.27865526942258617 81 68 60
-0.04598327364898114 0.0880687339377269 -0.28105243535909796 82 68 64
-0.0474849663024206 0.088617463509728 -0.2839987304190353 82 67 63
-0.046090266823537035 0.08789647461728943 -0.2873665337914668 80 66 61
-0.035134791141215 0.08298304849203475 -0.29216008770993307 86 74 69
-0.03439095445302434 0.08254650760450617 -0.2954584946282699 76 64 58
-0.03507123508635175 0.08273444729709545 -0.29854454039076445 81 68 61
-0.04179954079758002 0.08557542837777159 -0.300700975550134 92 78 71
-0.039609341170994065 0.08450445929998103 -0.30422062989700854 90 75 69
-0.0422649857537522 0.08555941772599071 -0.30698858962412107 85 69 62
-0.045466339300406444 0.0868541140736205 -0.3096623924514496 81 63 55
-0.04762914419536059 0.08769332704004894 -0.3124932578002869 79 59 50
-0.017032487153348916 0.07415296880980968 -0.3206258663250575 79 59 48
-0.01883435551859132 0.07483221570723686 -0.3235594811889585 80 62 50
-0.02333641116610782 0.07669719007446238 -0.3260417679058213 84 65 53
-0.021828559488784104 0.07592353480312262 -0.32951449504973684 82 66 55
-0.021455001342487134 0.07564781818284756 -0.3328022853264229 85 71 62
-0.01693451740048353 0.07355049614746333 -0.3367998212635467 100 89 85
-0.012867096955808344 0.07165162523668357 -0.34073611809951815 120 114 113
-0.010184260751842804 0.07036055954941008 -0.34444688611969315 179 178 180
-0.00984499812684406 0.07009894286071683 -0.3477566752840043 179 179 182
-0.004400814047136908 0.06759372865901966 -0.351974156347758 179 179 182
-0.00018096015843572025 0.06562596335708121 -0.35599244129944274 179 179 181
0.007711849169863744 0.06204302951157623 -0.36069025229875645 179 179 181
0.010427477546197807 0.06073529483760755 -0.3644720335475023 180 179 182
0.016536184906728427 0.05793520094848557 -0.36888922379164585 180 180 183
0.015628560776774752 0.05821993777675023 -0.37202494498124467 182 181 184
-0.0072341675982985805 0.06816131784333707 -0.3710419730241993 174 171 173
-0.014218846554866223 0.07112071532783851 -0.3729870126774823 143 139 139
-0.01783006507517533 0.07259672948423275 -0.3755537607991262 122 117 116
-0.020389648014500696 0.07361039005599798 -0.378312203005434 105 97 92
-0.02114364741830512 0.07382972095978663 -0.38141425219170433 94 83 76
-0.02955835894809778 0.07742079267525086 -0.3830132015172788 92 81 77
-0.032842682956584816 0.0787544751982103 -0.3855994449471025 90 78 74
-0.0391858024996256 0.08143512404129266 -0.3875657121559754 87 75 72
-0.038890530608356906 0.0811935472480165 -0.3908472864608967 84 73 70
-0.05252008294133772 0.08708390439205904 -0.39130589450971065 87 76 73
-0.06452441593452016 0.09226004126485517 -0.39205178283701125 80 68 65
-0.07479447542907185 0.09667363292806137 -0.39311577799679776 80 66 63
-0.0693759213806018 0.0941768714101979 -0.39740990506926765 80 66 62
-0.0695187607849591 0.0941297862640062 -0.40055746228636196 80 67 61
-0.06799755971828406 0.0933493887366533 -0.40405784094888675 79 64 58
-0.08941826430468677 0.1026797685626799 -0.40267379715140467 77 61 54
-0.09628579077005657 0.1054892585608839 -0.40748212691896357 76 57 48
-0.1051141818824801 0.10927303931563366 -0.408692771304974 82 60 48
-0.10595684217991273 0.10953643370141232 -0.41163184059682356 93 72 56
-0.10999075524154124 0.11120728616361289 -0.41386161359542906 104 83 68
-0.1130115592536152 0.11243170997462933 -0.4163053240727292 96 74 60
-0.11140182381756189 0.11161373450579541 -0.4197829564962887 87 61 46
-0.11554329138966116 0.1133329422657767 -0.42196225749567845 79 52 32
-0.11024142639167198 0.1108856470830897 -0.426288146578654 69 42 24
-0.10355195031240762 0.10782529313934833 -0.4309534105070465 68 40 24
-0.10901931428433516 0.11012985118550689 -0.432821207142551 70 47 30
-0.1017832405939556 0.10682724012132107 -0.4376422635020256 74 54 38
-0.10519092645321121 0.10822290715065928 -0.4399822426846623 84 67 55
-0.09693435631001143 0.10446849795352356 -0.44507985716249027 93 82 76
-0.08628098227217046 0.09965458307459096 -0.45078032469383217 114 108 106
-0.08036337285967157 0.09693102172165038 -0.455378828666006 174 172 173
-0.07511912168203894 0.09450414976990945 -0.4598359294913733 182 182 183
-0.06984270742003157 0.09206239079552013 -0.4643204516993167 182 182 184
-0.05477765771669919 0.08529477688984476 -0.4712322369588822 182 182 184
-0.25812685950945446 0.16856661976197707 -0.6112360698878185 195 195 197
-0.285470174347753 0.18035213725456695 -0.6130684842523071 198 198 200
-0.32677801458246986 0.19867916816776487 -0.6007456952070376 198 198 200
-0.3332486342829368 0.2014675294732751 -0.6011968162711786 199 199 201
-0.047467357383578386 0.07384105505748978 -0.7105374728999253 200 200 202
-0.06540632875632102 0.08173121942036259 -0.7071733293867082 201 201 202
-0.04607174464538344 0.07298584369470054 -0.717770340860728 201 201 202
-7.866168125476858e-05 0.05233687346639663 -0.7385158482804258 202 202 203
-0.002056358091875543 0.053100700553395455 -0.7412072434393219 203 203 205
-0.03300453703361158 0.0668015969541924 -0.7328375350378963 203 203 205
-0.029966453118380858 0.06532747871734867 -0.7373890134100647 204 204 206
-0.02680463317620775 0.06379765988260315 -0.7420005868102599 205 205 207
-0.02353198412405407 0.06221788312978247 -0.7466679348939971 205 205 207
-0.019891152694138853 0.06047314147104142 -0.7514917201104143 206 206 208
-0.01688351211632074 0.05901084397912568 -0.7560828113708866 206 206 208
-0.015087955457730916 0.058089831239317165 -0.7602106564009704 207 207 208
-0.01256112403815203 0.056841669554219335 -0.7646347642609245 207 207 209
-0.008391675255360512 0.054858805333822244 -0.7697199605541885 208 208 209
-0.005998670838794032 0.05366963988169457 -0.7741150839196351 208 208 207
-0.004734531854938467 0.05298492336299658 -0.778069311641579 200 199 197
-0.0022764843902172427 0.05176603357359365 -0.7825088701492918 176 174 172
-0.00014215920679888638 0.050691583997664276 -0.78682833362064 147 141 139
0.008356793645012198 0.04676951487143862 -0.7937346479560857 123 114 110
0.013333415499939216 0.04442231029507185 -0.7992403421487688 112 98 91
0.017404313334671212 0.0424797297208004 -0.8043955019521379 105 88 79
0.030054240876793592 0.03669703722259197 -0.8130877706237335 104 84 77
0.035735815023334755 0.034031832726010555 -0.8189549286536032 98 78 69
0.041452942592762304 0.03134994552286038 -0.8248589381281617 95 73 63
0.046860033073298515 0.02880610244523492 -0.8306563036715914 93 70 58
-0.042001255446421935 0.06847497146653661 -0.7971057367235471 90 67 55
-0.044211357671968446 0.06934702860705205 -0.7995799686239589 86 62 49
-0.0487186561745165 0.07124828318302778 -0.8010800587164201 83 62 46
-0.05091217735458277 0.07211350335583584 -0.8035442321925118 83 61 46
-0.05211205483473364 0.07253374181343594 -0.8064241697769328 82 59 45
-0.050555643500551646 0.07171894533236203 -0.8104773595338248 82 58 44
-9.814526300877535e-05 0.04898755846201882 -0.8354916378029679 82 56 42
0.004678957370826797 0.04672555036346231 -0.8410338166629552 82 57 42
0.006416011326804957 0.04582574873060543 -0.8452812433759065 80 57 43
0.008998560346261328 0.04454658270655093 -0.8499034655426044 80 57 43
0.013941038661867897 0.042208777213482554 -0.8555650222457194 79 55 41
0.007202962997106627 0.045108921691489876 -0.8561350270648461 80 56 42
0.00664970802824022 0.04523563115327398 -0.8593996988291502 80 56 42
0.010599606299641434 0.04334216254421563 -0.8646508028384412 81 56 43
0.00923434562268105 0.043832947888257645 -0.8675630971507269 80 56 43
0.019556374560930512 0.039079256330909064 -0.8756711495020395 79 56 42
0.029977182003563765 0.03427987472186665 -0.8838625334060883 81 57 44
0.0002672850133331184 0.04749257242444477 -0.8740950092451866 81 57 44
0.0011894661391294858 0.04695722489475443 -0.8780150181145989 84 59 46
-0.0242172557816277 0.05824327285536964 -0.8700355216508029 88 63 49
-0.030101300000246696 0.06076564193711612 -0.8708275941259078 91 66 51
-0.03892777009158864 0.06461020906514003 -0.8702586181280457 91 69 53
-0.04224359928386653 0.06598053822659886 -0.8721807643889365 87 65 48
-0.0467099600852684 0.06786810748438271 -0.873563751862074 88 61 43
-0.06157478216480794 0.07442834183175114 -0.8701353993961369 85 57 37
-0.07158058495470501 0.07880688113776642 -0.868904479311135 87 59 37
-0.08586778343020288 0.08511085966543488 -0.8656479159930175 91 64 41
-0.0961212694302952 0.08960343356790129 -0.864223393005992 91 66 42
-0.1042385457607153 0.0931368885015841 -0.8637638721630703 89 67 44
-0.1009130314526991 0.09152630994998044 -0.8686591830643933 93 72 55
-0.09560198159326527 0.08902237601646279 -0.8745059105212888 95 77 65
-0.10218145694012895 0.09186554954992707 -0.8747363604326965 94 79 71
-0.0912238386499785 0.08682097888217784 -0.8832906992243794 96 83 74
-0.09616514181249938 0.08892761818157763 -0.8842907720577667 97 85 77
-0.09288861502278144 0.08733724729864026 -0.8892155591517571 98 87 78
-0.09600096717925838 0.08862146769933626 -0.8910780350383642 97 86 77
-0.08708036735488697 0.08449031260448112 -0.8987459235532402 95 82 73
-0.08268051309212474 0.08239292584451337 -0.9042550520077489 90 74 66
-0.08257473860975914 0.08222812542448303 -0.9076908664402625 82 65 57
-0.08279253731014828 0.08220895150126806 -0.9109704586318135 79 64 55
-0.08469373301708974 0.08294783385243201 -0.9134248521023316 86 72 61
-0.08294630387647342 0.08204359112097577 -0.9176706935726181 94 80 70
-0.08322355293802385 0.08205110098136548 -0.9209236707361264 96 81 73
-0.0824585725369964 0.08158904679749682 -0.9246943089910135 95 79 72
-0.08183654637783266 0.0811912538988075 -0.9283981328127026 94 79 70
-0.07987412846369107 0.0801892824573494 -0.9327758274988119 94 78 67
-0.07930599672539669 0.07981542767598446 -0.9364627996285961 91 73 60
-0.07775021838312537 0.07899623863539211 -0.940650773512085 89 69 55
-0.07540629184844037 0.0778214674871669 -0.9452444004479577 87 67 52
-0.08401865986971888 0.08158658017525033 -0.9442905938128497 86 64 50
0.020746042226455125 0.03422329164042595 -1.0010277025662546 85 62 48
0.010235128056228698 0.03883954224343784 -0.9992530636061879 86 63 49
-0.0023019932659067294 0.04437109827459819 -0.9964020858201573 89 67 52
-0.00466102866294979 0.04531225511835808 -0.998744592811713 91 68 55
-0.06778652764048912 0.07367298870061322 -0.9696930353532741 91 69 57
-0.08290667047712057 0.08037748640163597 -0.9652936264353325 89 68 56
-0.0913965034185521 0.08409126053609252 -0.9642889644126582 85 64 52
-0.09785784358186142 0.08689037453396858 -0.9643133990548414 81 60 47
-0.10062234583610587 0.08802121045658035 -0.9662523245667429 81 59 44
-0.10264126025572914 0.08881568077171106 -0.9685745671815238 80 57 42
-0.0998239347272878 0.08742626058216106 -0.9734427411372097 82 59 43
-0.10188523150842861 0.08823997446314492 -0.975739638428422 83 60 45
-0.11909896604142912 0.09589885045237413 -0.969978764454382 82 60 44
-0.12212982135326379 0.09715201410751659 -0.9717182318215198 83 61 45
-0.1317953775219769 0.10140352508160909 -0.9698977242802472 83 61 45
-0.13590285278081504 0.10314435119837236 -0.9710272372206082 82 61 45
-0.1401119526466492 0.10493158824137896 -0.9720882189319545 83 63 47
-0.14139747992716786 0.10539768023206726 -0.9747157930540594 84 64 49
-0.13886923967270942 0.10413958034721751 -0.9794092951175225 85 66 51
-0.1415068722779919 0.10521706174780106 -0.9813013399842514 84 65 50
-0.14449521283497285 0.10645344066305235 -0.9829934820946178 84 65 50
-0.1396188572130867 0.10413279101841859 -0.9889871077506901 85 66 51
-0.1456575153142997 0.10674924611420286 -0.9889969189611296 86 67 52
-0.150485898723556 0.10881884132539221 -0.9896536355547986 85 66 53
-0.1566631239615484 0.11149937948010874 -0.9895468735290734 88 69 55
-0.1576391567748102 0.11182671280131255 -0.9923085195093692 90 70 59
-0.1582752016052809 0.11200022619058031 -0.9952575862158096 95 75 64
-0.21070594064760934 0.13562169735958285 -0.9692324908040372 94 75 65
-0.19540258449491177 0.12858168532833725 -0.9810289474535773 95 76 66
-0.1864336254615994 0.12440809615723578 -0.9893171466821905 94 75 65
-0.17717790170433972 0.12010341308449847 -0.9978025215368472 89 71 60
-0.17199905019464196 0.11764417092887568 -1.0040130099115834 83 63 49
-0.17420808284289854 0.11853116448822228 -1.006042475270843 78 52 36
-0.1839110107157127 0.12281386840937072 -1.0037888008216418 74 44 24
-0.18869406113627218 0.1248682712887903 -1.0043169304437956 74 41 19
-0.18828200210909155 0.12456866988032311 -1.0078126878176716 73 40 19
-0.19083927702436068 0.12561494439600138 -1.0096003172805512 73 41 19
-0.1946192299462991 0.12721581240461124 -1.0106729180234812 73 41 20
-0.18535212144037178 0.12290126261019 -1.0193007706179225 73 41 20
-0.17784251070804555 0.11938245897922077 -1.026942295909305 74 42 21
-0.1772944959698851 0.11902008981422788 -1.0305493220413684 76 43 24
-0.17832544245962842 0.11937384522689723 -1.0332351327368616 78 48 29
-0.18084179271169862 0.1204015888519841 -1.0350457682796577 81 54 36
-0.18235203590599786 0.12097308637695056 -1.0374415125640468 81 56 41
-0.18466522955525408 0.12190912062490915 -1.0393582400999022 81 59 45
-0.18477215988445417 0.12184402187150989 -1.0425766355393644 80 59 45
-0.1843438339677579 0.12153590622167526 -1.0461147077925332 78 56 43
-0.1845732071485685 0.12152628541444468 -1.0492632540861497 77 56 44
-0.18572248050270984 0.12193434840863064 -1.0518615040306347 76 57 45
-0.1865431083647262 0.12219325682695897 -1.0546543893161555 77 57 45
-0.19157109432634922 0.12436324114828096 -1.0549098533645518 77 58 44
-0.1826269806523785 0.12018665798710398 -1.0635954708392137 77 57 46
-0.18183783084766297 0.11971397869352533 -1.0673704854344837 75 57 45
-0.18715842522260867 0.12201744814103282 -1.0674328484742117 73 55 44
-0.1828516216818687 0.11994618195579332 -1.0733521484275863 66 49 41
-0.18291461362201208 0.11986053291040576 -1.076614154659702 59 42 35
-0.1829881861106172 0.11977964888256563 -1.079870961195747 54 37 30
-0.18260122870642218 0.11948933257329214 -1.0834127102795565 61 44 36
-0.1832064632750153 0.11965009636097619 -1.0863443983221042 65 48 40
-0.18371481409226714 0.1197668237035216 -1.0893353734253979 65 47 38
-0.18463529921398333 0.12007103078653633 -1.0920697318558306 64 46 36
-0.183931078685105 0.11963617441113544 -1.0958152984666851 64 45 35
-0.18398014013841082 0.11954391390804105 -1.0990939059756852 59 41 31
-0.18166592279237032 0.11837616242222176 -1.1038566182752936 59 39 28
-0.1746492144122629 0.11506780552596703 -1.1115890552847023 60 39 27
-0.1752788656195896 0.11523906385458692 -1.1145232321926457 63 39 25
-0.1849996276827971 0.11954919287762608 -1.1117006914878642 72 46 28
-0.1820750007994329 0.1181027464486696 -1.116872932220335 79 54 33
-0.1835513479101241 0.11866003967868458 -1.1192546908516818 81 58 40
-0.18348052583181984 0.11851279959100802 -1.1226207850662553 82 60 43
-0.18438960799339507 0.11881186920977035 -1.1253608070944705 84 62 45
-0.1840096908187558 0.11852374615391019 -1.1289273235469774 83 61 44
-0.18526428430752945 0.11898029915246339 -1.1314432470103675 82 61 44
-0.18614642236999848 0.11926722711192617 -1.1341967187224498 81 61 44
-0.1842798565501068 0.11830138106795177 -1.1387306946559832 82 63 46
-0.1852559768889454 0.1186310956553132 -1.1414246624325806 83 65 48
-0.18515650494291971 0.1184704968248357 -1.144818008758408 84 66 49
-0.18059246828104314 0.11627402929454442 -1.151133899222661 81 62 47
-0.17171398348439393 0.1121092651572748 -1.16029953879598 79 63 50
-0.1799177414691726 0.11573488653566333 -1.1582604969979684 96 85 73
-0.18158841769698414 0.11638121503324755 -1.160502915784152 121 115 106
-0.14531405821951487 0.09971502602460465 -1.187854537937061 153 149 143
-0.1470432144795949 0.1003858513161303 -1.1901213603810283 174 172 168
-0.13431852978915196 0.09446026216531496 -1.2020050312312758 183 183 182
-0.16918187125083417 0.1102547942220134 -1.1821684414499574 188 188 188
-0.1709342330596434 0.11093798317167994 -1.1843686133531057 192 192 192
-0.17514975680083877 0.11274600607115277 -1.184909673469529 194 194 194
-0.17858894930066926 0.11420001974299555 -1.1859588534445435 196 196 196
-0.18069886084395434 0.11504732403508633 -1.187894053254435 198 198 198
-0.18120871141097278 0.11516396332354434 -1.1909063413577843 201 201 201
-0.18402653213783218 0.11633502843902196 -1.1923507025852806 201 201 201
-0.18731039209516412 0.11771936000851471 -1.193468337406924 201 201 201
-0.189856546970317 0.1187669518156943 -1.1950787507807636 203 203 203
-0.18973072287528556 0.11812955762652641 -1.2119126713198052 206 206 206
-0.16448700553300272 0.10646712842363032 -1.2328025371117926 206 206 206
-0.02970416524208598 0.09771677760387143 0.10469611833934271 184 184 184
-0.04627549280129011 0.10473011003708117 0.1006787809714079 183 183 183
-0.04154183388992193 0.1025937313524094 0.09795889619931294 183 183 183
-0.03977941874453471 0.10173323969266704 0.09505360735861947 183 183 183
-0.036342499411527486 0.10015304810970233 0.09223395941073335 183 183 185
-0.03297647653915703 0.09860289919985005 0.08939822369092895 183 183 183
-0.0318456080390537 0.09801293048120646 0.08643402536037506 183 182 182
-0.028712491286164737 0.09656218283213852 0.08356597810430018 183 182 181
-0.018470294274162767 0.09205501622504728 0.08103404766734668 181 177 176
-0.017863750259518335 0.09168935172021433 0.07801250457164409 166 160 158
-0.017260309101758367 0.09132490965823999 0.07498757025217176 146 138 136
-0.0039780453848498945 0.08550792639748148 0.07251807870369066 127 120 118
-0.00476279499693668 0.08573961905409659 0.0694073732262346 112 104 101
-0.012257333682519626 0.08885758662762418 0.0660237437443132 109 100 96
-0.015282276637489385 0.09005348135423646 0.06283829366203975 109 100 95
-0.017695456158444943 0.09098644591519159 0.059684278076551196 115 105 98
-0.019839400363955137 0.09180377520827918 0.05654640961406796 104 92 85
-0.028607953932564267 0.0954723540972059 0.05318605949519688 105 91 83
-0.03714530275214951 0.0990423408155158 0.049860197547550854 107 90 81
-0.05490690467559108 0.10658412422251835 0.04627262951787507 100 77 63
-0.061986692808408836 0.10952888459115463 0.04305712503638534 74 46 30
-0.057083929619621346 0.10731475695034744 0.04019850939339121 52 26 12
-0.05687155660938494 0.1071199607461738 0.03719909056702557 47 23 11
-0.05662661483519381 0.10691106910733117 0.03419850454871334 47 24 11
-0.056245773363463064 0.10664356559155161 0.031198984802993053 45 23 10
-0.05578544127370713 0.1063417295167072 0.028198657210623652 41 19 8
-0.0563534567614985 0.1064828845070076 0.02517506229788252 43 21 10
-0.056036380617624865 0.10624264739257097 0.02216821422179481 44 22 11
-0.05298867300295296 0.10482547344402703 0.019204632820674153 44 22 11
-0.054852384955895506 0.1055249299726905 0.01615585234672655 44 21 12
-0.05680141080621624 0.10626132750411471 0.013110652850533231 43 20 11
-0.05786196859425492 0.10661483398213184 0.010080983951515412 41 19 9
-0.05821795380618874 0.10666459801385703 0.0070606550783939015 38 17 8
-0.05850378787123613 0.10668410359133149 0.0040407858021193985 36 16 7
-0.05859912353177456 0.10662143112983319 0.0010218758926549623 37 17 8
-0.05879814110979664 0.10660345024276176 -0.001998579387634928 41 18 10
-0.056341342953682205 0.10543965144979833 -0.005009743753560482 41 18 10
-0.058000143937039485 0.10605135151821551 -0.008038912303637971 41 18 10
-0.05181463403295011 0.10327805500890475 -0.01106007734366327 40 17 9
-0.05256057171396126 0.10349560963241249 -0.014094839924233373 38 16 8
-0.05635097100269927 0.10502735070318364 -0.017120123403900733 37 17 9
-0.05787976191544072 0.10558311611256743 -0.020144285253009656 36 17 9
-0.05825282903906223 0.10564000782500284 -0.023171713850874284 36 17 9
-0.0587639593096644 0.10575651476443515 -0.02619818195679534 35 17 9
-0.05927526312150999 0.10587310893408525 -0.0292242913021427 35 16 9
-0.052829319586515884 0.10298466026663841 -0.03232571760401079 34 15 8
-0.0369464318176515 0.09601880186011345 -0.035567451504770586 33 15 8
-0.02862901858253761 0.0923197340964718 -0.03875530727855622 34 17 9
-0.026235015435644618 0.09117919213369645 -0.04187821976411007 34 18 10
-0.02842157475752416 0.0920178522683138 -0.044930595135572834 41 31 28
-0.017239040448541017 0.0870784317008618 -0.048231515217780976 153 151 150
-0.009613997431224756 0.08367549976755334 -0.05149677467043833 180 180 181
-0.004922908587023173 0.0815400846155916 -0.05472287475849454 181 181 183
0.0024251728486676047 0.07825526523271281 -0.05802920391708692 180 180 182
0.006770167257334434 0.07626821781396895 -0.06128414933890321 173 171 174
-0.009109204779611024 0.08302752399141172 -0.06400475652138826 90 83 83
-0.005932449872796241 0.08154586382015416 -0.06722408992861942 40 30 28
-0.005808771348926989 0.08138457611009527 -0.07036216866511694 47 35 32
-0.007756664462466516 0.08211951689445693 -0.07343551450494207 64 47 45
-0.008927310217063694 0.08251830174711677 -0.07653005777120235 75 55 49
-0.037013182337681805 0.0945653817778196 -0.07867005397932239 77 61 51
-0.05006333271896177 0.10010766401830545 -0.08127585166730597 76 59 51
-0.050959094650828526 0.1003898984253953 -0.0843099747052764 69 51 43
-0.06841647158201798 0.10784242546811068 -0.08667520279749202 74 55 48
-0.07220407713434432 0.10937787214109547 -0.08955766865619126 71 53 44
-0.07027890828621146 0.10843974996734297 -0.09267794086514622 70 52 42
-0.07147572493337301 0.10885353598459901 -0.09566468834859068 75 58 49
-0.06726418389420916 0.10692467924764272 -0.09890224796515167 70 53 45
-0.058743841857919345 0.10312861871018003 -0.10236395566226125 73 54 47
-0.04684396012289524 0.0978672553061182 -0.1060244778806994 77 57 50
-0.06033415557037261 0.10360700056575481 -0.10841048487216878 77 57 50
0.0004856032064143711 0.07714264899871898 -0.11472436393598666 75 55 48
0.0009792735161034648 0.07681981760800781 -0.1179168483816091 86 66 59
-0.00994894469439344 0.0814483685264307 -0.12046435346846601 76 59 48
0.027492074453361617 0.06510689556141823 -0.1258009721425696 90 70 59
0.022748409059042053 0.06705333055889827 -0.12873015573223734 105 87 75
0.03192171130691517 0.06296476528981912 -0.1325034459495571 95 76 62
0.038888783135181224 0.05983203110609303 -0.1361686870400848 96 73 59
0.054865945247243766 0.05278995207641666 -0.14044378923165252 91 65 50
0.0671741162011742 0.04733779756618732 -0.14452860647496338 77 50 31
-0.14087158491300625 0.13749699220005251 -0.13360932804420925 59 32 11
-0.14511904307328122 0.13923898997887144 -0.1362563004417724 57 33 14
-0.1509312982269648 0.1416605790913717 -0.13877848245529958 57 32 17
-0.1400031424410407 0.13681617031352675 -0.1425088269106544 52 28 13
-0.14021724291047355 0.13680769709245252 -0.14544208605797793 55 36 24
-0.14320685837540664 0.1380043054043763 -0.1481634418220063 60 42 37
-0.14593405267083442 0.13908725458209445 -0.1508966995856979 62 47 42
-0.1136923106938733 0.12498331827471579 -0.1564150893075068 62 48 42
-0.11620841121437227 0.12597311648183204 -0.15920801417556468 60 48 42
-0.12060183264477183 0.12777869915066342 -0.16183773262026258 59 48 42
-0.11509609327789934 0.12528379837244372 -0.16529405670197703 58 47 41
-0.11731619926447129 0.12614535361448015 -0.16810164587404416 59 48 44
-0.11957080584133836 0.12702211113879922 -0.1709001246574399 61 50 46
-0.11841093507673459 0.1264149905909828 -0.17399912689831118 63 52 48
-0.11727216585115728 0.12581686549341384 -0.17710135926989107 63 52 48
-0.11345169224134569 0.12405266496647407 -0.18045849147950502 61 50 46
-0.1154593333156852 0.12482215223271555 -0.1832770475367172 61 50 46
-0.12164487823382908 0.127408691720659 -0.18568714651938448 62 51 47
-0.12186425093861593 0.12740101154202776 -0.18866350838260204 62 51 47
-0.11621976730996188 0.12484259311001542 -0.1922257264007097 63 52 48
-0.11100432859898089 0.12247013748506033 -0.1957645288725408 63 52 48
-0.08558047792393816 0.11130426600272073 -0.20140644391049267 63 52 48
-0.08086871541974519 0.10914854492619938 -0.2049635879299088 63 52 46
-0.0734436591820497 0.10581135916908044 -0.20882671388036306 63 52 46
-0.07137057639464921 0.10480286427909419 -0.212137147512217 64 51 45
-0.0704797644879446 0.10430876782932193 -0.21532601426196668 65 52 46
-0.07017279369693093 0.10406872212530505 -0.21845411365960213 66 53 47
-0.071792026370206 0.1046673582993805 -0.2213666115538592 66 53 47
-0.07063762147150618 0.1040581965896323 -0.2245935640911673 65 52 46
-0.07736330505762679 0.10688113995365799 -0.22690761478221919 64 51 45
-0.0756821566970646 0.106042612125181 -0.23019406383814037 64 51 44
-0.07360689145650373 0.10503213564869426 -0.23353473249800324 65 52 44
-0.07118520490528632 0.10387042496769666 -0.2369258096111953 68 55 47
-0.06884590060536146 0.1027442902721675 -0.2403162091499558 70 57 49
-0.06988519078826028 0.10309040720688291 -0.24329386469022846 69 58 49
-0.06716112894448037 0.10179611463414366 -0.24674570493357925 70 59 51
-0.06411341093444686 0.10036035721970091 -0.25024955614358324 71 57 50
-0.061465192036561 0.09909839274968495 -0.2537131008000495 72 57 50
-0.05888524292679343 0.09786584665436636 -0.2571779240787623 74 61 53
-0.05820767587476135 0.09746266207236613 -0.2603992310478697 74 61 53
-0.055228290364897924 0.09605530151469494 -0.2639348532478795 72 59 51
-0.0619125192188599 0.09886336506856747 -0.26616136572123034 70 57 48
-0.059247076013514643 0.09759275727877476 -0.26966009787189565 73 59 50
-0.06017231950257354 0.09788867028415545 -0.27266643215952485 74 60 51
-0.06532286590843014 0.10002869352565552 -0.2750723086518315 76 63 54
-0.06227273854926038 0.0985897684419835 -0.27863803829509814 77 62 55
-0.059211111363423954 0.09714542233101743 -0.2822170919315499 77 62 55
-0.060941344540171326 0.09779282034468613 -0.2851046182425712 74 59 52
-0.05215091450678982 0.09384639516555299 -0.289549395312881 69 56 48
-0.047344999126784776 0.09163902054416144 -0.2934270304971941 72 59 51
-0.040799415888013384 0.08867119079240068 -0.2975863973503139 70 56 49
-0.04324538172501165 0.08963038927472773 -0.3003889932494704 73 58 51
-0.04695047426748279 0.09113992974296871 -0.3029893021022361 78 63 56
-0.05023305117645078 0.09246523376391735 -0.3056447640734708 81 64 57
-0.053062423001753505 0.09359281622695706 -0.3083623828706143 79 62 54
-0.038092991858505086 0.08694137303430523 -0.31392449408947626 74 55 47
-0.041399488704476364 0.0882770466997904 -0.3165785947135012 75 55 46
-0.04101601921549321 0.08799985721943375 -0.3198267983102022 76 56 45
-0.03576541275769185 0.08559444905787433 -0.3238825094510173 80 60 49
-0.038018419379684074 0.0864697267429713 -0.3267039427202777 79 61 50
-0.022162626478064096 0.07942514524095955 -0.3325749428595705 77 58 51
-0.024756165878974487 0.08044875069781836 -0.3353565873302672 87 72 68
-0.01907889833909821 0.07785432043819812 -0.3395545930850629 99 92 89
-0.010337517942813474 0.07391851968503585 -0.34430596587463125 148 146 146
-0.007717070370460282 0.07266013235942916 -0.34801400568707375 179 180 183
-0.0038249057537254848 0.07084481929779865 -0.3519577826654282 179 180 182
0.00039516175666962083 0.06888547498930214 -0.3559749062682731 179 179 181
0.0062151938855599075 0.0662251717036054 -0.36029684607639584 180 180 182
0.008170492929925995 0.06525622604942484 -0.36393533370417464 179 179 182
0.007445542572303905 0.06546064695092019 -0.36708863890839594 178 175 179
0.003374674002892982 0.06713043174538594 -0.3696194209870539 129 124 125
-0.003873993090320795 0.07019253171513343 -0.37154208576607484 84 75 73
-0.009075288116080256 0.07235855517811496 -0.3738287570136283 78 66 61
-0.011018406809858697 0.07309766345358172 -0.37672099702333633 84 70 64
-0.01678344878676118 0.07551163982167883 -0.37887205145993036 92 76 69
-0.023689208849550468 0.07842615025129322 -0.3807832417876965 92 76 66
-0.032356878116076994 0.08211366253181802 -0.38232696499310126 89 73 64
-0.03642433203538972 0.08378561225173106 -0.3847519395800686 90 74 68
-0.04052377778369447 0.0854720168796783 -0.3871580533588369 85 71 68
-0.043701568048206865 0.0867547331545414 -0.3897369276065239 81 69 66
-0.053696730038169646 0.09102741334409499 -0.3909236005338393 85 73 68
-0.0636631176652439 0.09528860132681384 -0.39208335772107805 79 65 61
-0.07653914233831256 0.10082722761285728 -0.39261027277661714 77 63 59
-0.08187927543275846 0.10306125824724685 -0.39466167382081263 78 64 60
-0.06905619471299806 0.09732643150594086 -0.40050461683875654 75 62 54
-0.06731693743554543 0.09645392615130488 -0.40404987989348384 75 60 53
-0.08798921310065631 0.10541727699291803 -0.40282639439030543 78 61 54
-0.09193854328663927 0.10704256478457873 -0.40512588270851735 78 60 52
-0.09598324036689032 0.10871013755175007 -0.40739254973433275 77 57 49
-0.10103006181936158 0.11081813634745724 -0.409427985393267 77 57 45
-0.1050936571733764 0.11249492740286976 -0.41166375255249926 92 70 54
-0.11031206889460257 0.11467932530245244 -0.41363090857321416 103 82 67
-0.11357782763036058 0.11600660848634761 -0.4160177569934379 100 81 66
-0.11522822967644175 0.11662460483751308 -0.41875842924107093 93 68 53
-0.11967709821658604 0.11847228068975038 -0.42085992895916996 78 48 29
-0.11692687611323935 0.11715702429452599 -0.42459309029476255 69 41 23
-0.11125690271296514 0.11455822951576936 -0.429009552690238 66 39 20
-0.11831776809655806 0.11755438723279474 -0.4304929697493664 69 43 23
-0.1033863924485487 0.11088363098926168 -0.43709427600971595 72 49 33
-0.10545881571510997 0.11168686832862627 -0.4397443788106661 81 62 50
-0.09758961301175251 0.10811882341051592 -0.4447469721716011 89 76 70
-0.08911885469774797 0.10428524718821652 -0.4499218745976332 105 96 94
-0.08265994428722112 0.10133549457861937 -0.45464326846076625 166 162 162
-0.07505757432230492 0.09788192570495904 -0.45966556750902554 181 181 182
-0.06741571395321055 0.09441003007196806 -0.46472521573763725 183 183 185
-0.05951255791012998 0.09082220299968669 -0.4698769681951551 183 182 184
-0.04171023133313197 0.07480136792236408 -0.712345988804837 200 200 202
-0.05567089563288268 0.08089028847563838 -0.7104822729975308 201 201 203
-0.044681219183403634 0.07589070591409271 -0.7179529576448758 201 201 203
-0.02624297799980762 0.06757845075767169 -0.7282789139502952 202 202 204
-0.03195659584597265 0.07000209753030645 -0.7295034077687299 203 203 205
-0.03572336689867114 0.07156068253215646 -0.7314515563901601 203 203 205
-0.03231939047053652 0.0699305898995566 -0.7361357263643997 204 204 206
-0.024036847662262592 0.06613005043512843 -0.7427119489911679 205 205 207
-0.01785449595995872 0.06326272613230059 -0.7485070411998657 205 205 207
-0.011450775786336798 0.060296094478631226 -0.7544118831094265 206 205 208
-0.011839333579060349 0.0603510652201099 -0.7576895734995092 206 206 209
-0.009404610866676502 0.05914954523728787 -0.7620746925378532 207 208 210
-0.006862549554153274 0.057899893901012675 -0.7665124040362555 206 206 206
-0.003689700843284488 0.056369068386355456 -0.7712104682522732 198 197 196
-0.002261975581495948 0.055614777940208145 -0.7752276673022287 175 173 169
0.0008105674072760027 0.05412783330203366 -0.7799084820058488 147 142 137
0.003406639970816319 0.05285265231794378 -0.7844107701432753 122 112 105
0.006435392936192469 0.05138437326764793 -0.7890983408744222 109 96 88
0.01590350846761597 0.047047073546343056 -0.7964049670990505 100 86 78
0.021250938191016214 0.04454447429730116 -0.8020718720344178 98 81 72
0.026630771173408035 0.04202671844312385 -0.8077728796136956 97 79 67
0.042610639211997745 0.034784191100770974 -0.8178429859531687 96 76 65
0.03000398440696124 0.040281370955060056 -0.8161946815953538 91 69 57
-0.04200480354545117 0.07226080217597357 -0.789921438201572 90 67 53
-0.04571047927324247 0.07379619358641483 -0.7917773299886388 88 65 49
-0.04765603613885066 0.07454713447231029 -0.7943560800141365 86 63 47
-0.051032580939293797 0.07593644797261079 -0.7963294233812959 86 63 48
-0.05358268927978062 0.07695750788442864 -0.7986400518014927 84 61 47
-0.05827052225263546 0.07893246828289895 -0.8000390565072204 81 58 44
-0.06125925062434723 0.08014988559649366 -0.8021441616480168 80 57 43
0.01414518861423393 0.04638677576635061 -0.8376722746530505 79 56 42
0.011005392338583428 0.047667366463232004 -0.8398361530768427 79 56 42
0.01575322685440149 0.04542766695300326 -0.8453826717438295 79 56 42
0.02051815065209281 0.04317969147606453 -0.8509553899228066 78 55 41
0.026572624451795035 0.04035531753998136 -0.8571063095013252 79 56 42
0.025507977554039413 0.04070906925133985 -0.8601801635259133 80 56 42
0.026717809978387463 0.04004712179614824 -0.8642465162820704 81 56 43
0.0207448060832663 0.0425932533217144 -0.8651643730486107 82 56 43
0.020637914413943415 0.04251955186607936 -0.8686490245196871 83 57 44
-0.00427586058477894 0.05352915311466826 -0.8611501778287706 82 59 43
-0.00602230680072971 0.054189551050888914 -0.863863137314807 82 60 45
-0.0019187974547392322 0.05223570796214488 -0.8691830380970104 84 61 48
0.0037003198559971695 0.04960386053072136 -0.8751988795240174 86 63 50
0.006068768230275107 0.04842441855315948 -0.8797736904265099 89 66 52
-0.01307388404807093 0.05686219925540916 -0.8746375287093223 92 69 56
-0.03443374434720564 0.0662937747912777 -0.8684271099824947 93 71 57
-0.044023399555587164 0.07046406179552306 -0.8675024176158402 93 72 58
-0.0446803772949473 0.0706400331010071 -0.8706300018176 92 69 55
-0.05229355358187481 0.07392788335720021 -0.8705623527347336 91 65 50
-0.05649433280964192 0.07568988878383454 -0.872041711354958 89 61 43
-0.0601325886920137 0.07720065357700384 -0.873767648383278 88 60 38
-0.08635120431188764 0.08881738785599327 -0.8649887405482704 89 62 39
-0.09731716003222425 0.09361026575388282 -0.8632312664332599 91 65 41
-0.09944758632397344 0.09444912556227343 -0.8655733920181086 92 68 43
-0.09654088534337918 0.0930329449054322 -0.8702776563586483 95 73 54
-0.09630915427289073 0.09281416943139831 -0.8737314487924928 94 75 63
-0.09457716040560735 0.09192341536059283 -0.8778985301255802 94 77 67
-0.09343413136412 0.09129619683525536 -0.8817933298362057 94 79 70
-0.10101491114112791 0.09457686341677382 -0.8815280182471464 95 82 73
-0.09749115096960734 0.09288313394666317 -0.8865594936385787 96 82 73
-0.09548085196309902 0.0918670965460513 -0.8908771678375877 94 80 71
-0.09276681521048635 0.09053535940573675 -0.8955436923760217 91 77 68
-0.08808349657830289 0.08832053208587562 -0.9011765812616199 87 70 61
-0.08421940838078305 0.08647231620519365 -0.9064295059276808 79 62 52
-0.08551542833488861 0.08693713420029545 -0.9091772177389412 74 56 45
-0.08728418417900922 0.08761404782247403 -0.91168988265788 78 60 49
-0.08948902768181827 0.08848671078406058 -0.9139829264303632 87 71 61
-0.08687151007574054 0.08719653939400683 -0.9186520047072863 94 77 69
-0.08701341838185776 0.08714389283130612 -0.9219638301949706 95 78 70
-0.08478509403878143 0.08602774726174132 -0.9264564963690837 94 77 68
-0.08318652150218676 0.0851938592868601 -0.9306443082882232 93 75 64
-0.08267669316737097 0.08484834515160819 -0.9342936228163269 91 73 61
-0.08250825849715696 0.08465595242964577 -0.9377745549497312 88 68 55
-0.08062529476894535 0.08369378333334995 -0.9421237572790717 88 66 52
-0.08726714909205163 0.08655889873234848 -0.9421594427497598 87 65 50
-0.0003981043368331827 0.04743318711776014 -0.9897545658902994 87 64 50
0.0026237895893778673 0.04595375858545891 -0.9948524371473408 87 65 48
-0.004344994919643658 0.048961533388022 -0.9948424616571906 90 69 54
-0.006969398425138537 0.050018440070501616 -0.9970430490093553 93 71 58
-0.0722001485214325 0.07920531389589236 -0.9669151206090906 93 72 61
-0.07397416213092747 0.0798846238930124 -0.9694240823406279 92 72 61
-0.08984162678108602 0.08689823823178039 -0.9646000707733592 90 71 61
-0.09349033493307364 0.08842146989706533 -0.9660946469133185 83 65 54
-0.09533014237701999 0.08913189395448523 -0.9685245052977067 80 60 48
-0.10264238519183153 0.09230306734618424 -0.9680732012515489 82 61 47
-0.10796632096581092 0.09458099280967845 -0.9686448881991945 83 61 47
-0.11453901008500354 0.09742118108529109 -0.968537454081921 83 61 48
-0.12497588371796713 0.10200034845151458 -0.9663548691861675 83 61 47
-0.1270321831012881 0.10281050196438662 -0.9686015050233798 85 63 47
-0.12520617704786507 0.10187402570964313 -0.9729183613447148 85 64 48
-0.12468844693090897 0.10152600407246765 -0.976541429414222 84 62 48
-0.1279768191667579 0.10289090302402124 -0.9781182142023572 84 62 48
-0.13403725481174772 0.1055039905829459 -0.9781862421432242 85 65 50
