ply
format ascii 1.0
element vertex 687
property float x
property float y
property float z
property uchar diffuse_red
property uchar diffuse_green
property uchar diffuse_blue
end_header
0.10936421083237281 0.056219109736861075 -0.4314739043062939 83 47 25
0.10813228928616117 0.05120499019798036 -0.43339593282905786 86 52 29
0.10288963226337466 0.030810558651651013 -0.43178526168529363 86 54 32
0.1047849175463536 0.03779304178627599 -0.436415785732546 88 60 42
0.10526620385665242 0.03935202422025422 -0.43981243140197984 87 67 56
0.10574854685239299 0.04091443577682535 -0.44321646914461027 97 82 74
0.1462605465413772 0.16831928360720397 -0.7687597427035869 176 173 175
0.1450345548010284 0.1633695615926402 -0.7702549735434573 145 140 140
0.1440230199547147 0.1592316936159788 -0.7720484303576856 120 112 110
0.14280879044567524 0.15432912371588856 -0.773532798205986 109 99 96
0.14174173072668744 0.14998393848574143 -0.7752191817071199 104 91 87
0.1407155274581114 0.14579430520525744 -0.7769532064768652 100 86 81
0.13469513458754437 0.1215071682966852 -0.7840974384348209 82 62 51
0.13129572163156158 0.10836964348178899 -0.7821558595937704 81 61 49
0.13010355818192754 0.10356407936932902 -0.7835312003387178 83 61 49
0.1273336841262761 0.0928081739853765 -0.7824814577147478 83 61 47
0.12599577953370586 0.08745662478115288 -0.7835946362814 84 61 47
0.12649506827232687 0.08842520137270962 -0.7938459784572963 82 59 45
0.12671870366829083 0.08896317724729474 -0.7973576076867007 81 57 45
0.12342613512393977 0.0738216174963692 -0.8205424204009351 84 60 50
0.12242455692482541 0.06974867715628866 -0.8220672732690649 85 61 50
0.12269093294969377 0.07044784056453487 -0.8256446910288276 86 62 50
0.12281951468309438 0.07062822969034563 -0.8290007926346842 87 63 51
0.12252986824844594 0.0692352421346765 -0.8316728437628812 90 66 54
0.12140774338379524 0.06471168512892461 -0.8329706582498076 92 68 58
0.12128497236224887 0.06394729305372582 -0.8359072569121796 94 70 60
0.11978096056885354 0.05798996422499528 -0.8365505003971887 95 71 61
0.11853855720849422 0.05301780936922079 -0.8376112411776807 94 70 60
0.12004215629214818 0.05836788293030126 -0.8432488573130371 95 71 61
0.11859955161173381 0.05174054047548918 -0.8533367854666524 88 57 38
0.11607380827364092 0.041953781232745846 -0.8521602890737154 86 48 26
0.11688281686800021 0.044691478661261774 -0.856654816557186 88 48 26
0.1137973981671091 0.03280756534601259 -0.8544763483131312 88 51 29
0.11250685409718604 0.027664624096583296 -0.855351333438227 91 57 31
0.11248101925441496 0.027269669047321365 -0.8583970889608186 97 68 43
0.11343759365541833 0.030561092748541463 -0.863147670180269 97 70 49
0.11465393745993024 0.0348259043405976 -0.8683632214501581 99 73 54
0.11690416683969546 0.04296749108661613 -0.8754015786172203 95 71 55
0.11719662556346654 0.04376349970545143 -0.8790349112071398 94 71 57
0.1156966694566316 0.03783757785714184 -0.8795173075697815 94 72 59
0.11662298834663787 0.04101043345736444 -0.8842676295421005 94 72 61
0.11663834497108919 0.04076712505105906 -0.8874151453850289 93 74 62
0.1181129546312749 0.04538941505060434 -0.8994219335952603 88 68 58
0.12105586321084102 0.05611253135261876 -0.907845584653667 86 67 54
0.12128965407231054 0.056684401448363925 -0.9114185288307487 82 63 49
0.1207447855442918 0.05433976101401908 -0.9135850519835959 84 62 49
0.1208156635910968 0.05430139685053889 -0.9168641105642965 96 73 59
0.12035378099390732 0.05226828828424668 -0.9191732266858397 104 81 67
0.11938670663528028 0.04834460635671822 -0.9205527549529875 108 83 70
0.1192217620851109 0.04742416430973023 -0.9233933378528016 110 84 70
0.11880855929930226 0.04557486713747838 -0.9257750463361409 111 85 70
0.11844263021622897 0.04390289095213104 -0.9282394985662366 106 80 63
0.11838005414284876 0.04336610543983918 -0.9312625959237393 92 66 49
0.11587755211556988 0.0337034144864862 -0.9297441905374737 84 54 36
0.11534442973719264 0.03140848490196402 -0.931872661210439 78 49 33
0.1136401525281652 0.02473516865786196 -0.9318003633037535 73 45 33
0.11427589159673696 0.026811836922291832 -0.9361067807957886 73 48 36
0.11426121222657187 0.026456535157502764 -0.9391947763443519 86 65 52
0.1154219885019152 0.030494109348414983 -0.9445081053374735 89 70 61
0.11768104494481457 0.038028632473439655 -0.9582009319620751 96 78 77
0.11407217506171205 0.0230447071191881 -0.9668933033768377 83 63 53
0.11375433280200153 0.021557756216838503 -0.9693936541426935 86 66 56
0.1132739260925208 0.019464595054034473 -0.9715725488542913 89 69 62
0.11201674798655298 0.014474231320204284 -0.9722215333466202 91 71 64
0.10744478328600232 -0.0040668177291701135 -0.978653751801299 91 72 65
0.10758884525149123 -0.0038271674301748326 -0.9820245484786878 89 70 63
0.10748628370729219 -0.004506717676814848 -0.9849027981135863 94 75 68
0.10759992865084217 -0.0043806989870665 -0.9882155754496733 94 75 68
0.11094262875095448 0.00777330044309793 -0.9980515779385503 93 74 67
0.1104989253117405 0.005821184200227175 -1.0002597343232509 94 75 68
0.10051404741550662 -0.03518290320889092 -1.0196131701005482 76 38 17
0.10269646648119371 -0.027367459870157096 -1.027277355325174 77 39 17
0.09943227492105916 -0.03978986868308729 -1.0234163115777273 76 38 15
0.09893161463477429 -0.04194301411949425 -1.0253939734864705 81 40 18
0.09855610746231291 -0.04363078618240057 -1.0276328894239306 85 47 22
0.09789657746857616 -0.04637282244514945 -1.0292596728657697 89 54 29
0.09779116204287429 -0.047056829638039505 -1.0320681335033621 89 57 30
0.09772108076535874 -0.0476095967079411 -1.0349518831061628 93 62 33
0.0980165144916765 -0.04680572522276563 -1.0386246066411433 97 66 39
0.09813402958959894 -0.0466625045333052 -1.0419163099473567 101 71 44
0.09803705808504111 -0.047315283487665394 -1.044744159140775 105 75 51
0.09818248636681105 -0.047068778931441235 -1.0480994135064892 106 78 56
0.09782255120687122 -0.04869691652778299 -1.0503528840980365 108 80 58
0.09709011952867051 -0.0517060379030336 -1.0517860577381963 107 79 57
0.09689374616520634 -0.052726713207258635 -1.0543885421979275 100 73 52
0.09746348193939705 -0.050907089896238794 -1.0586776468223484 95 68 47
0.10082834970753228 -0.03872786151211299 -1.0691531255511733 93 68 48
0.10175441920586917 -0.03559091026030267 -1.0742656614309951 93 68 48
0.10257109131976955 -0.03286050771006821 -1.0791473641408567 94 68 51
0.10358972967052082 -0.029382935222255768 -1.0844903634774663 88 62 47
0.10315595642425995 -0.03128656416888739 -1.0865993376855108 74 48 35
0.1005009210293736 -0.0414161452424667 -1.0837223989209945 63 38 27
0.10018833533633195 -0.04286870316770533 -1.0860797516666996 59 35 23
0.09831894812313663 -0.05008461771468964 -1.0849228229475054 61 36 24
0.09838561083657842 -0.050131710566540394 -1.088121050202319 69 43 32
0.098979806632607 -0.048226523678394334 -1.092517105688672 68 41 29
0.1027548614329907 -0.03484838057927622 -1.107233178967609 69 41 22
0.10377147249371604 -0.031384558298387266 -1.1126363675235698 75 42 20
0.1033224378672486 -0.033342828119594436 -1.1146916274689471 82 45 19
0.09879013648932614 -0.05040030119774283 -1.1073505044110996 85 48 18
0.09993171276508223 -0.0464740396500638 -1.1130377375135128 92 58 29
0.10042414273820638 -0.04494894831460422 -1.1172388467356673 96 66 39
0.10091768858779997 -0.04342039456896224 -1.1214494089357725 95 68 42
0.10117934368578485 -0.04274945154599177 -1.1251275846712936 97 69 44
0.10134712450361136 -0.04242573826740276 -1.12859076580739 96 68 46
0.10152110893147256 -0.0420793688671206 -1.1320711652004924 94 67 44
0.10031566313955234 -0.04682836725003939 -1.1323199541117555 93 67 44
0.10006245575127617 -0.04805930690155452 -1.1347927114429908 93 69 45
0.10104982854487198 -0.04470928233358837 -1.140187519717875 93 68 46
0.10115412052070641 -0.04462066521084743 -1.1435079771730396 93 68 46
0.10174813283750272 -0.04272459835583159 -1.1479911549557462 94 71 48
0.10212644437774915 -0.042219893986255724 -1.1581354263962298 100 91 78
0.10099727381695339 -0.04668238583072193 -1.1585135470360823 127 123 112
0.10342804172020259 -0.03801426355800361 -1.167430286827947 158 154 150
0.11465868683166505 0.1238630223955876 -0.07112583985090022 104 88 81
0.11297173089948945 0.11694412375094469 -0.07388495444559814 98 76 66
0.1122872902910927 0.11396814557372709 -0.07676166013151706 90 64 51
0.10860276556007784 0.09920094793870128 -0.07920116577638622 93 65 51
0.10830154229229398 0.09773423011711738 -0.0821014188585964 95 68 55
0.10963845873232565 0.10270468940119355 -0.08525286053384845 88 62 49
0.10977335438516475 0.10295104350641758 -0.08822712717659678 81 57 43
0.1068139482622597 0.09104209011699724 -0.09068576310313181 90 64 51
0.10867138077302697 0.09805533131530615 -0.09394429380674317 89 66 54
0.10464559716989463 0.0819626306912543 -0.09617015853907943 87 67 59
0.10315926641531786 0.07584566315230518 -0.09881886373536274 86 67 60
0.10240315353170398 0.07259713287365341 -0.10158996561944311 91 72 64
0.0971085085411496 0.05153426932957872 -0.10345563482480752 95 75 66
0.09644954102635328 0.048671307594392324 -0.10620176827901542 97 76 67
0.09865142831271545 0.057035487453048955 -0.10954037952996078 99 77 67
0.09737614104570291 0.051754123055438 -0.1121559259666708 97 74 63
0.09753166474503486 0.052087245449960025 -0.11507392500806936 105 80 68
0.08797502549365001 0.012422741144180169 -0.1355845894663471 88 48 25
0.09063814749045665 0.02258420987592733 -0.1391517721316862 82 45 25
0.0889533578705909 0.015711055546724896 -0.1415236397850309 73 41 23
0.08822605126716912 0.01258987378851819 -0.14415183359874056 71 42 27
0.08919470578576423 0.016110865936893745 -0.14727135173116682 72 49 36
0.09118106486800648 0.02361541095962469 -0.1507091483066879 74 54 46
0.08972252578138387 0.017631406676377637 -0.15311483655182848 73 54 46
0.09008136670959219 0.01876272456735391 -0.15607184891318707 74 56 46
0.09374744176794408 0.032836965975183874 -0.16008843272582413 73 55 45
0.0952322182952161 0.038371289778338355 -0.16344119563081866 73 55 45
0.09655934048093714 0.043287008895783005 -0.1667603282202332 72 54 44
0.09671192588677874 0.043606447666309375 -0.1697001269882496 72 53 44
0.0975650964569238 0.046665874577988584 -0.17288275471806896 72 53 44
0.0988689080352394 0.05120763498861228 -0.17913764341474134 72 54 46
0.09962974813237116 0.053903184030734956 -0.18231714000214178 75 56 49
0.09869923553534518 0.04998631731220735 -0.18488475327868725 74 55 48
0.09968484698799704 0.05300014865153612 -0.19398003280399723 72 53 46
0.09886748682535074 0.049527272529730784 -0.19657175572130575 72 53 46
0.09816281449688165 0.04649546841863519 -0.199198894153666 72 53 46
0.10061481613739391 0.05579276026315728 -0.20309353024762083 72 53 46
0.1034704874960602 0.06666341916572409 -0.20718413888026965 72 53 46
0.10254821196588054 0.06278041782314224 -0.20973742858712346 70 51 44
0.10248720312845921 0.06226059166195552 -0.21264377143619528 72 53 46
0.10379304455685436 0.06707578980420224 -0.21613553599921356 72 53 46
0.10461523010788196 0.07000191615687808 -0.21943357341825137 71 52 45
0.10542854917769959 0.07289243193184607 -0.22273825817815956 72 52 43
0.10667245422389637 0.07746182320087622 -0.22624575725792778 72 52 41
0.10980187718206905 0.08938472169635057 -0.23062282197911282 73 53 42
0.11173858605900587 0.09665206881433155 -0.23449120301954593 74 54 43
0.11227278521495146 0.09844783745393415 -0.23773151025764264 77 57 46
0.11227965885354993 0.0981868675361296 -0.24073042128146532 78 59 48
0.11251873747070128 0.09883107705869815 -0.2438407766354496 80 60 49
0.11165148294147528 0.09516262052740206 -0.24641982329339202 80 60 49
0.1126154341396271 0.09863184282456246 -0.24988514460204306 80 61 50
0.11254148557156604 0.09805551007699616 -0.25284841384947165 82 63 51
0.11143968224143123 0.09347458546775808 -0.25529565340393134 81 62 51
0.11175300120686656 0.0944075325648233 -0.25844856754183243 79 60 48
0.11214858450768199 0.09566047382880302 -0.26164812513980135 80 61 49
0.11248728110564819 0.09669136267489621 -0.264823474028749 82 62 51
0.11322880671015594 0.09929031889293005 -0.26821544534838415 82 63 51
0.11391637213015296 0.10167827629275596 -0.2715883031331481 82 63 51
0.11443929671395003 0.10342449655631075 -0.2748814734228445 81 63 51
0.11532360067496267 0.1065765357534513 -0.27837834594343974 84 65 53
0.11466017090912392 0.10370462689101302 -0.281034399001019 85 66 55
0.11341770188446632 0.09858051058828154 -0.283360515312425 87 68 57
0.11531987084187996 0.10569116184130058 -0.28744188596735437 86 66 55
0.11540992255028497 0.10575104041723254 -0.2905160647753096 83 64 52
0.11552364507272944 0.1059028179091624 -0.29360550210722614 85 63 50
0.11563747210809208 0.10576408216754445 -0.2997234551253638 87 66 53
0.11703616647684649 0.11091042290142133 -0.30358057544378914 82 61 50
0.11844585539376644 0.11609779759009001 -0.3074619695507882 83 59 51
0.11813310227281563 0.1145898610350482 -0.31031789282751726 84 59 46
0.11927585105399047 0.1187376238021869 -0.31406105536820045 91 66 45
0.11772604496251127 0.11242359425499285 -0.31615487484516575 94 66 44
0.1192880381324206 0.11819863494964603 -0.32017229505366557 93 65 43
0.11669457885496881 0.10783302550707685 -0.3215905461446876 93 64 42
0.11702763312426645 0.10883455535658175 -0.32483984707857466 98 69 44
0.11850138798098452 0.11426449716834355 -0.3288266716106096 93 66 42
0.12074059308011018 0.12266411711816583 -0.33332861811024106 90 67 49
0.12233883962429533 0.1285732296761602 -0.3374389173522036 96 78 64
0.12565064169900853 0.14083306584998345 -0.3457969440590046 160 156 155
0.12490061725599574 0.13762587752324545 -0.34838766938633503 181 180 182
0.12785983350856667 0.1476123547324769 -0.3659340929388383 78 69 66
0.12574766941123638 0.1391264237905509 -0.3675469248074377 73 61 57
0.12365534721997293 0.13071983076037774 -0.3691485600154664 75 60 55
0.12374351111109752 0.13076483519670937 -0.3723000641537057 82 65 60
0.1231713290314137 0.12825129325722934 -0.37497215787715377 81 63 56
0.12006486484278028 0.1153318872065114 -0.38191135780378627 89 68 60
0.12258590600002092 0.12479846974321224 -0.3868784417351085 89 70 62
0.12181000658602328 0.12149837248277964 -0.38937392037203167 89 70 64
0.11870907872242781 0.10919949112626687 -0.39008081821025764 82 63 58
0.11656676374754846 0.10061422683693638 -0.3914897129824306 77 58 51
0.11422830698126094 0.09127245666528082 -0.3927202306809316 83 64 57
0.11189423022513699 0.08195034717262942 -0.39392592458005493 75 54 47
0.10940007067661568 0.07201168298171085 -0.39497693605973916 73 52 46
0.10732930867437768 0.06371354059008175 -0.39633486542779894 75 54 47
0.10579356607662427 0.057486834961657476 -0.3980970935846888 82 58 50
0.10371323645758693 0.0491561814484045 -0.3994006166189664 81 57 47
0.10351855702225768 0.0481179286650225 -0.40221525112134754 84 61 51
0.10504090067297715 0.053716908237685795 -0.4064374525730461 86 62 51
0.10493961195876185 0.05303893758458124 -0.4093361832804658 93 66 54
0.1029370898710064 0.04501418073157418 -0.4106501081531858 98 71 58
0.10143003493747868 0.038906064579407304 -0.4123557389805223 110 83 67
0.10093528088775057 0.03671027443869876 -0.41489924102638526 110 82 64
0.10118107553877745 0.037375373268845616 -0.4180678994536695 104 73 53
0.10143814693716759 0.038083678804400556 -0.4212498005339221 96 63 39
0.10199080453314938 0.03993297291981687 -0.4246908120095671 85 48 25
0.10470878232911099 0.050141210849295084 -0.43002350199559203 85 48 25
0.10219726988046164 0.04015978386003331 -0.43080716376498357 87 52 29
0.10117236639428008 0.0359188722497131 -0.4328723867093076 88 53 31
0.10037740186712767 0.03256644160498447 -0.43512984159491985 90 60 41
0.141579727836076 0.1651173592795805 -0.7470451122111951 208 207 211
0.14138534599188043 0.1640636967538148 -0.7500323802096516 208 207 211
0.14112473688858532 0.16213123898227985 -0.7594485688496017 162 158 158
0.14101528222186455 0.1614012446557567 -0.7625535698009849 136 130 130
0.14040906658454158 0.15878141886441627 -0.764934658419384 118 108 107
0.1396050648405651 0.1554099180105008 -0.7670195660736838 107 95 92
0.1388482102539646 0.15221864319632666 -0.7691641879667007 103 89 83
0.1374168921660468 0.14646347820237193 -0.7703053642082929 98 82 76
0.13495901948867262 0.13649684761883993 -0.7731374381016259 90 72 62
0.12817853455778383 0.10919022128603334 -0.7789918958062426 84 63 47
0.12734792463384143 0.1057293477704411 -0.7809146389400841 83 60 47
0.12105766722592615 0.07730250997558494 -0.8185591031241182 84 60 50
0.12005951697493342 0.07321844235173883 -0.8200900743100399 84 60 50
0.12031687668425772 0.07389079821361877 -0.8236580472291836 82 58 48
0.11624216098762319 0.055453879803585376 -0.8482779257936641 105 81 69
0.11400969091578453 0.0467125785326053 -0.847609399563803 102 77 64
0.1113283442976548 0.03627707813576428 -0.8461465687194691 92 61 46
0.11034888003008192 0.032277260303306465 -0.8475677488603172 85 49 28
0.11206921473185845 0.03848116556497072 -0.853622197969571 88 51 27
0.11025923973970428 0.03134397030971611 -0.8536026204765932 89 53 29
0.1086760270068301 0.025065584932208618 -0.8539537142109087 94 59 32
0.10851344395656397 0.024155063107879682 -0.8567565507433426 95 67 40
0.10915558997156345 0.026283811789642203 -0.860962840258356 96 69 47
0.11047813361757444 0.030980889379833315 -0.8663700231048238 97 72 51
0.11247028591269922 0.038204320847257806 -0.8729720625632783 94 71 53
0.11334394089708838 0.0412032157214271 -0.8776259122632274 93 70 55
0.1107696943860218 0.031188098098116096 -0.8761844392638579 93 71 56
0.11110924530108628 0.03217139220415277 -0.8798903245334653 94 72 58
0.11115393838992343 0.03204173995128942 -0.8830750884897884 94 73 59
0.11384207883135791 0.041883912173622195 -0.890993381598971 91 72 58
0.11332407153610094 0.03963008712490704 -0.893186248244707 90 70 57
0.11435066832509705 0.0432016993232876 -0.8981579166620236 92 70 58
0.11660337647110358 0.05139504961316729 -0.9053615505681113 88 66 55
0.11681943441658646 0.05190766401734756 -0.9088965771141436 83 61 49
0.11663529761136933 0.05091151610653047 -0.911705781524457 81 59 47
0.1167358878671754 0.05098857807988719 -0.9150337935858737 89 66 53
0.11663754309342184 0.05031586414613498 -0.9179986799752873 98 75 61
0.11502950649324195 0.04395553601649643 -0.9181835279374863 102 77 63
0.11541394678886266 0.04510244368375588 -0.9220293582855879 105 79 63
0.11497599022685162 0.04315149690096137 -0.9243561536339536 105 79 61
0.11495018158122694 0.042753018997574055 -0.9274445839154885 102 76 57
0.1146487902343156 0.04131694800580993 -0.9300189041299494 98 71 51
0.1136314914947964 0.03718623436530197 -0.9312492230454347 92 62 41
0.11312939661530477 0.034995822532611465 -0.9334353237649632 79 49 30
0.11033828958060776 0.02419202815838764 -0.9312996620505881 72 43 29
0.11181892779536262 0.02946428130718548 -0.9372106453500757 71 44 30
0.11160840771784457 0.028372621380386126 -0.939930830208609 80 57 43
0.11168722116824154 0.028369444559685236 -0.9431999703524764 90 71 60
0.11295158080911741 0.03162209138447425 -0.9612545587726306 87 68 61
0.11213246792065718 0.028243366155621424 -0.9627942101594564 86 66 59
0.10956504019054988 0.0182970746691222 -0.9609162396522185 85 66 57
0.10838206119237645 0.013554472943292123 -0.9617134657930567 83 64 54
0.11107647691318054 0.023376099902979286 -0.9701032959122187 85 65 56
0.11010860557712135 0.019441687764781113 -0.9713196111136987 90 70 63
0.10960312571761296 0.017244503592555166 -0.9734372246369155 92 72 65
0.10628318654444208 0.004482424903854448 -0.9699734026017564 91 71 64
0.107396163324733 0.008362776443767678 -0.97527786477667 91 71 64
0.10430798013311568 -0.0035242646562211044 -0.9722208260861892 92 72 65
0.1072122013867731 0.0070768493073524175 -0.9811108326365134 91 71 64
0.10727073460417702 0.006998633041696151 -0.9843284250288041 91 72 65
0.10735297359908008 0.007009208994725652 -0.9875950520626621 94 75 68
0.10637113894780087 0.0030290186042862266 -0.9887145841374009 94 75 68
0.10696009792971357 0.0049399845847870605 -0.9930041254045391 95 76 69
0.10707451955453504 0.005071091190315624 -0.9963374504067181 95 76 69
0.1066003976589561 0.002995862612957423 -0.9984730676639995 95 76 69
0.10066378945391487 -0.02279031038598031 -1.023149166782475 76 38 17
0.09830425570372894 -0.03220424666449062 -1.024265510976685 76 38 17
0.09556224949873907 -0.042750731600572967 -1.02146734771795 77 38 16
0.09479641610977313 -0.04590569507671227 -1.0228653024631515 81 40 17
0.09520489901365439 -0.044670145361209224 -1.0267755609432563 86 46 21
0.09428189640246962 -0.04841145907069373 -1.027824037496676 91 54 28
0.09477979216253911 -0.04684208530974868 -1.0319304885754959 91 56 29
0.09457979835069089 -0.04788081810091796 -1.0345319123456602 95 63 34
0.09423098706430341 -0.04947527505184046 -1.036807964066664 100 69 41
0.09488864413110214 -0.047310250875546134 -1.0412735096707197 102 72 44
0.09448166668575347 -0.04912178717459244 -1.0434210490454303 104 74 48
0.09464559339942874 -0.048801282955234754 -1.046815429128131 105 77 53
0.09437070680067766 -0.05011916716292433 -1.0492477137740441 107 79 56
0.09482383494076775 -0.048719465295518655 -1.053282286103738 106 78 56
0.09413948386629264 -0.05156529347474319 -1.0548078147871751 102 75 53
0.09448352505174094 -0.05057314563428858 -1.058605903137285 99 72 51
0.0979966317013671 -0.03775886477926402 -1.069457734444798 95 70 49
0.09783761850543317 -0.038646028142615724 -1.0721639886120837 94 69 49
0.09880831694044619 -0.03531990732133827 -1.0773960278755221 95 69 52
0.100835232217898 -0.028056639964413488 -1.0850107416067605 89 63 48
0.100615026079761 -0.029173560919523195 -1.0875961838310888 78 52 39
0.09954043403784898 -0.03347502549110393 -1.0882515538798252 64 40 28
0.09931709292376473 -0.03460266771350293 -1.0908198821295427 57 34 21
0.09928817687061267 -0.035005600616795585 -1.0938270989446452 60 38 25
0.09796238581171612 -0.04024030762592029 -1.0938832660344422 72 48 36
0.09652458730578317 -0.04589066649986437 -1.0936673321013175 67 42 30
0.10056758739109123 -0.031126314753153944 -1.105976401661945 71 44 31
0.09990012280165575 -0.033908017353240005 -1.1075277439171805 69 41 26
0.09865153265385113 -0.03885260669756757 -1.1077336634475972 71 41 22
0.0996162557916947 -0.035556425845554546 -1.113032031003085 79 43 21
0.09525946610615901 -0.05206806630246005 -1.1060279678272547 86 47 19
0.096205630086344 -0.048840154741891295 -1.111274977882067 92 56 24
0.09669310027485942 -0.04732015039928156 -1.1154672889238841 94 64 34
0.09714352608641999 -0.04593861327294402 -1.1195799978151586 97 69 44
0.09734827294158002 -0.04547149247018192 -1.1231241780338574 103 76 51
0.09759396371995813 -0.044852413616946946 -1.126767636515242 102 74 52
0.0977941919537427 -0.044402735295003576 -1.1303078578727441 99 72 49
0.09862048104722605 -0.04162588471589426 -1.1353283375595735 97 71 48
0.09764206555245994 -0.04555825284075676 -1.1360904329773462 95 70 47
0.09758791990244511 -0.046054497281997814 -1.1390330931612707 93 69 45
0.09818839127266385 -0.044118309261169664 -1.1435327716935044 93 69 45
0.09891596163023599 -0.042006695456380944 -1.1514249461769022 91 66 46
0.10073325226641011 -0.03644521075536036 -1.1681479503062486 151 145 140
0.11028758754931578 0.11881755119281341 -0.07098544851523678 102 86 79
0.11131170640269436 0.12258514935809126 -0.07409225216368831 98 75 65
0.10822465284263351 0.11008786353850214 -0.07664466983530337 92 65 52
0.10551677202592527 0.09909389160035306 -0.07921471204338656 90 63 46
0.10782802034296088 0.10795266220633315 -0.08250607357214595 92 65 50
0.10415498866283532 0.09314555696676183 -0.08489101576072514 88 62 48
0.10297064598730714 0.08818204226660582 -0.08763580368256593 80 56 42
0.10198066018985524 0.08398815911263303 -0.09039943939321404 85 59 46
0.10086307186144057 0.07929103375448215 -0.09312928275510986 94 71 59
0.10015736480940357 0.07622286810750645 -0.09592042999311129 94 74 66
0.09937873915599081 0.07286735108047679 -0.09868989534769637 94 75 68
0.09789615347331453 0.0667315418747706 -0.10131469444634442 88 69 61
0.09669694057240502 0.06171677244163383 -0.10397831000394943 92 72 63
0.0926916751084538 0.045620692448828715 -0.10605270911871177 97 75 67
0.09377427485362833 0.049621070019350455 -0.10915262724305617 99 76 68
0.09312696564274445 0.046789782475743766 -0.11189061282764205 99 76 66
0.09402126974100479 0.05004518989533344 -0.11496537817431249 111 86 75
0.08420155625766877 0.009388035356751964 -0.1325324339072898 91 52 26
0.08567870159596198 0.01494230542338381 -0.13575906211192967 83 43 20
0.08665932777613003 0.018537248659568184 -0.13886612897921496 80 43 22
0.08393117738158797 0.007511122799596863 -0.14093144226392318 74 41 23
0.0843924024521738 0.00905868515438666 -0.1438900194308615 72 42 27
0.08513694953848068 0.011722174407868637 -0.1469387368969268 71 48 35
0.0861547125023418 0.015461273130724339 -0.15007973132927174 73 53 45
0.08661176700787596 0.016990149747434548 -0.1530605885467865 72 54 45
0.0870394129150113 0.018402601035371086 -0.15603828622587343 73 54 45
0.08736311823016185 0.019405137273090706 -0.15898836817826664 73 55 45
0.08890824952721012 0.025217066726911652 -0.16234236432690904 73 55 45
0.09274751110480933 0.040059791201514657 -0.16648004956633242 72 54 44
0.09186410660219112 0.03630623811230212 -0.16906299478155828 73 52 43
0.09382857517953422 0.04376323323661413 -0.17261924616192392 73 51 43
0.09464941459434166 0.046162809431374394 -0.18159029054426037 72 53 45
0.09275618313255907 0.03843804792689386 -0.18378695422353597 73 54 47
0.09269048598227242 0.03790349318698777 -0.18664807587461085 73 54 47
0.09413898457396813 0.043323696631030084 -0.1900874958889581 72 53 46
0.09603142564216703 0.05048774165440367 -0.1937175325213348 72 53 46
0.09657053127853588 0.05232897327043392 -0.1968375810500834 72 53 46
0.09602305225147273 0.04989832718264267 -0.19952960073775586 69 50 43
0.09704123097984875 0.05362171194814397 -0.2028520509283497 68 49 42
0.09888042805114122 0.060570184455681894 -0.20652637599618276 69 50 43
0.09729313040609071 0.05405346026325833 -0.20878851413043967 71 52 45
0.09899998752893621 0.060479628918686267 -0.2124317433716496 71 52 45
0.10136904935364449 0.06950482506680905 -0.21638193525787064 72 53 46
0.1002127324499818 0.06468188417079347 -0.21882017470173704 72 53 46
0.10067111579435647 0.06620075359016178 -0.2219607243694626 71 51 42
0.1009867740093538 0.06715867370137436 -0.22504326869014343 71 51 40
0.10460315076662768 0.08107334978898606 -0.22963428533594005 70 50 39
0.10404069147209924 0.07858189830739022 -0.2323403727094227 68 48 37
0.1087645432412546 0.09655023063174312 -0.24050631672306338 74 53 42
0.1088260071034051 0.09650495429637998 -0.2435288391396524 79 57 46
0.10915036173238424 0.0974907757773055 -0.24668052230745863 79 57 46
0.10942294079510813 0.09827309844773363 -0.2498112310109047 79 57 46
0.1058247026775963 0.08387583781635634 -0.25101557077701664 80 58 47
0.10562092956462582 0.08279198178385998 -0.25388980252816545 81 59 48
0.10634869290852082 0.08536019058819654 -0.25723804766613123 80 58 47
0.10702447991224137 0.08772376074428466 -0.2605689019800524 83 61 50
0.10757038030561553 0.089577445975207 -0.2638406417848182 85 63 52
0.10822762691333408 0.09186674788564765 -0.2671785842587727 82 61 50
0.10886698398244307 0.09408513453288778 -0.2705155723690746 82 60 49
0.10952491666630212 0.09637548331217788 -0.2738710319892473 81 59 48
0.11043062450465976 0.09963547633062181 -0.2773708797531825 82 60 49
0.10909978320541167 0.0938484018565144 -0.28264542403165216 83 61 50
0.10919579927459094 0.0936495235186044 -0.28870623558884884 82 59 49
0.10942626345623353 0.0942640173896267 -0.29184392225100186 76 52 42
0.11143390306249659 0.10183263940074679 -0.29602431201943735 76 52 42
0.11135696644762524 0.10124269676357969 -0.2989980487718331 86 62 52
0.11172666302691565 0.10240003314016274 -0.3022380859850074 78 56 46
0.11331704146659058 0.10833149991571298 -0.30621966912262466 80 56 49
0.11522902649337703 0.11551879168797943 -0.310417417505277 84 59 50
0.11702349031887091 0.1222442366336236 -0.3145669433174475 85 58 44
0.11654621132648182 0.120085755864689 -0.3173265790131759 93 64 47
0.11426358007513879 0.11087052748092815 -0.3189471718139156 92 65 46
0.11374049265799516 0.10853509217711528 -0.321655949336205 94 64 45
0.11367756239300493 0.10799846758731982 -0.3246534651852495 90 57 38
0.11432018870564997 0.1102186887205713 -0.3281068839131445 88 59 38
0.11502688986748841 0.11268842009235676 -0.3316106049746033 97 74 54
0.11888618926155296 0.12747169848398526 -0.337200625726049 90 72 54
0.12371033221797968 0.14572173468608812 -0.34658262227043884 107 95 89
0.12390875674768491 0.14590246404969992 -0.35292421175661925 137 129 128
0.12221153985566247 0.13809209623158464 -0.3641457114534871 95 83 81
0.12184751394319263 0.13637575874452162 -0.36698243942398195 72 58 56
0.12031601403699702 0.13010640643345905 -0.368973909494972 70 54 51
0.11879694291801837 0.12388728118997115 -0.37095602557645735 72 54 51
0.11937586643059286 0.12585003366598643 -0.3744577391758334 72 55 51
0.11859920020698131 0.1225273723185746 -0.376965135673764 77 58 51
0.11880474433371108 0.12303407631620425 -0.3801955971865231 80 59 50
0.11927309623814646 0.12456471036077257 -0.38362668039492653 84 64 53
0.11920436039169668 0.12400189027818133 -0.3866571363274317 82 64 53
0.11452151586051225 0.10546224278851207 -0.386162322063304 86 67 59
0.11392489763832013 0.1028458638268435 -0.3887570641877122 80 61 54
0.11290380760587486 0.09857687383819518 -0.3910154310749149 73 53 46
0.110863558902337 0.09034014861382093 -0.3924641629622662 77 56 49
0.10859588873120404 0.08122028161062882 -0.39370878236410894 80 57 51
0.10673879927941461 0.07370148298960769 -0.3952522256467011 69 47 41
0.10456395887612792 0.06494798848470525 -0.3965186278051313 75 54 47
0.1040656518550124 0.06272194147816929 -0.39911213421474034 82 58 50
0.10346951595041347 0.06011575067846496 -0.4016204155699288 79 55 45
0.10146921917586584 0.05204701332617448 -0.40297079272445036 80 56 46
0.1008322573264432 0.049284149604284275 -0.40542293540705177 82 58 48
0.09992760652439381 0.04548080469091777 -0.40764495542941226 86 62 51
0.0996034216365982 0.04393588124033518 -0.41034292520274984 95 69 56
0.09760495788080642 0.03588111166738939 -0.4116233687023411 107 80 64
0.09657720173573663 0.03160253795637551 -0.41370538983688476 109 80 63
0.09681005224804803 0.03222531424154988 -0.41685550503205593 105 74 54
0.09672581980807876 0.03161539872258154 -0.4197353436100567 98 65 41
0.09689034441885651 0.03197219479323886 -0.4228309433861478 87 50 26
0.09780632052286872 0.035248416045837255 -0.4265871111268807 88 50 27
0.09831996084423843 0.036960509708975325 -0.4300004056359082 87 51 27
0.09555820752895625 0.02594969863800943 -0.43051190468147715 88 52 30
0.09967484863693923 0.041655002076021366 -0.4371407335858232 89 59 38
0.13767802277493238 0.16386958679704466 -0.7362865592754774 204 205 207
0.13738810032537277 0.1624462784910463 -0.7391347815746419 206 207 208
0.13717507495832879 0.16131802779478682 -0.7420891742923686 206 206 205
0.13696225354224306 0.16019075911442326 -0.7450417643838297 196 194 193
0.13680509141996922 0.15896548463014248 -0.7513271388954665 145 140 137
0.13586890268123095 0.1547565257671404 -0.7564796986087923 112 101 97
0.13539395432789497 0.15262656188786927 -0.7590380027167773 105 93 88
0.13406106260299205 0.14690193022197282 -0.7635749728810521 95 79 73
0.13208921546785787 0.1387348957168181 -0.7671325828086278 90 70 60
0.1300506649688556 0.1306251215575651 -0.767325114541795 89 68 56
0.12771143906636903 0.12106082376402405 -0.770246059850435 86 64 49
0.12420318447273158 0.10733596238575521 -0.7681561485982757 85 62 49
0.12284523554806864 0.10183840457981799 -0.7692808810097903 85 62 49
0.12318095230461687 0.10281825621383842 -0.7729662249483779 87 64 50
0.12315783733354711 0.10242585072958232 -0.7761081022216206 87 63 49
0.12212774679206775 0.09818441390466684 -0.7777052175079556 83 60 46
0.1188648211955221 0.08450593561228723 -0.7853063070866696 81 58 44
0.11736860340136807 0.07547815479284142 -0.8175867635444196 84 60 50
0.11696290496592826 0.07362992238017724 -0.8200733087289512 87 63 53
0.11860995600125371 0.07960725077835365 -0.8259262920024206 87 63 53
0.1177009409702167 0.07584029904632769 -0.8275869849243707 93 69 59
0.1165189935126382 0.07103430545387504 -0.8287850264919391 96 72 62
0.11545213280177588 0.06666819740753543 -0.8301598101006367 98 74 65
0.11131822396690778 0.05002287800698327 -0.8326379156487776 96 72 62
0.11367767287979193 0.05870888158069329 -0.8397339457320468 99 75 65
0.1114230195529919 0.049526976722664456 -0.8421667702626534 103 79 69
0.10892110802670366 0.039706421387703694 -0.8410177658371626 97 73 61
0.10751548887357901 0.034060608743430504 -0.8417145049099723 96 72 59
0.10942517128594513 0.04103023579668538 -0.8480913410377654 92 63 48
0.10875101894986132 0.03816829764530322 -0.8500362318799317 87 52 32
0.10611308781195011 0.02754241852360889 -0.8516610640755881 92 56 31
0.10573748545034564 0.025818738721759216 -0.8540943537062595 94 59 32
0.10482365629452241 0.022049303137140125 -0.8555813236327521 94 64 36
0.10473623389583143 0.02142214803577608 -0.8585090033227463 97 70 46
0.10603822835430804 0.02607545170763842 -0.8638858544706163 98 73 51
0.10850175913566364 0.035140761655075514 -0.8713352206145042 93 70 51
0.10964177042280614 0.039174658651804584 -0.8764661646159305 92 69 52
0.10589087761088736 0.02433265751641403 -0.8759862613017902 90 67 53
0.10593234461107999 0.024194289211563746 -0.8791521687028545 90 68 54
0.10801578103562122 0.03180873465470463 -0.885997588126177 94 74 59
0.1095677742653974 0.03740312927986281 -0.8919094397985862 91 70 56
0.11166342316515199 0.04505905209351985 -0.8988279673745216 89 67 54
0.114851562212338 0.05655672213774568 -0.9109143312345781 85 63 52
0.11215731509333618 0.04603383760421978 -0.9091270083076768 80 57 46
0.1129946190284013 0.04890978229052556 -0.9138029164802952 80 56 44
0.11381278012109489 0.05171204824489575 -0.91845476425593 90 67 53
0.11403870892222215 0.052267575372952596 -0.9220205355061906 96 72 57
0.11406975925072044 0.052083931125914223 -0.925227515762705 101 75 59
0.11377551708083611 0.05066711645609723 -0.9278287071617929 104 79 59
0.1108085569800989 0.03912084729014004 -0.9254242170204865 105 79 59
0.11285212110349777 0.046565271100496214 -0.932392546751468 103 77 57
0.11145986787137828 0.04098939298928783 -0.9329128591661385 98 68 46
0.11029731895452276 0.03628533553967059 -0.9338502771466869 80 52 31
0.10847644262618295 0.02908915927827932 -0.9335243587885665 72 43 28
0.10793703620623246 0.026748081932848194 -0.9356152194961969 73 45 31
0.10856037146578153 0.028810197957074568 -0.9399206855421744 75 51 37
0.10902362106095229 0.030265447244439303 -0.9439279065458009 89 68 57
0.10903560258400338 0.030011952181156265 -0.9470738955955498 94 76 69
0.10535402448548675 0.014295856592920153 -0.9586032953190056 86 68 60
0.10905694096428792 0.027999104970798105 -0.9689932064604546 87 68 59
0.10886182338869621 0.02696220257310991 -0.9717357855241321 88 68 59
0.10915674097356413 0.0277776399554934 -0.9754469981302843 91 71 64
0.10794686761235392 0.022906019084150048 -0.9761725397198904 91 71 64
0.10667223900940906 0.01779115718477342 -0.9767540445845839 91 71 64
0.10616133956839373 0.015563018564361042 -0.9788471026405413 91 71 64
0.10604721914416357 0.014834158859629437 -0.9817302198570058 88 68 61
0.10548831477047999 0.012425628233355218 -0.983717235005273 91 71 64
0.1054138484170742 0.011846944309189533 -0.9866757792480643 94 75 68
0.10512815958753365 0.010470860916103969 -0.9892061026599219 95 76 69
0.10344356030618349 0.0038145752607456618 -0.9888908007820634 95 76 69
0.10337587472113151 0.0032627125721820804 -0.9918503145265896 95 76 69
0.1045443472937473 0.007078315076241237 -1.000442945882964 94 75 68
0.09525242205097695 -0.03118882232160078 -1.0149258239547005 76 39 17
0.09578129504054016 -0.029489486177623897 -1.019104251830109 77 39 18
0.09512893921772818 -0.03223802882482635 -1.0207682314173199 75 37 16
0.09503842340666008 -0.03287091300152967 -1.0236274720137029 75 37 16
0.09165932564223556 -0.04588076497168485 -1.0194228558661687 76 38 17
0.09139826216146178 -0.04715327897305818 -1.0218922846786795 79 38 16
0.09091869093838552 -0.049247638394570484 -1.0238867759972887 82 42 17
0.0905452582321675 -0.05094218923648258 -1.0261056606630887 86 48 22
0.09156651093276838 -0.047390687444725244 -1.0313517885312828 90 55 28
0.09127340847802282 -0.048783198531160366 -1.0337462804815565 95 62 34
0.09162920013084042 -0.04773560340418434 -1.037556367564028 96 65 37
0.09152361548779062 -0.04842296018744617 -1.0403598247948325 99 69 41
0.09132076034616252 -0.04947585059929101 -1.0429485414031063 102 72 47
0.09145135215980729 -0.04927542411318221 -1.0462707451397755 104 76 52
0.0909441747240214 -0.051471605839627455 -1.048184234371795 106 78 55
0.0913063423667699 -0.05040122156888058 -1.052020636979968 102 74 51
0.09064020180091378 -0.05319389538940697 -1.0535740264492874 98 71 49
0.09168285875008846 -0.04956822870097777 -1.0589329324198489 97 70 49
0.09409445571217943 -0.04080355259743876 -1.0673698206699909 94 69 47
0.09386158555735923 -0.04197021957947594 -1.0699025454840276 93 68 47
0.09364324615220596 -0.04308210776979743 -1.0724655355669732 92 67 48
0.09459926937657592 -0.03978624245241072 -1.0776774888577858 87 61 45
0.09776044948544647 -0.028216735696800915 -1.0878949623923213 79 55 42
0.09624142043652781 -0.03421084370827185 -1.0875273946320647 67 43 31
0.09494347817985224 -0.03937376808196677 -1.0876441533270733 57 35 22
0.09364331063904743 -0.044543485636634766 -1.0877396008647024 55 33 20
0.09340303263398153 -0.04573702329927143 -1.090245862907978 72 48 36
0.09666968041289423 -0.03407586338379695 -1.103880126959432 70 43 30
0.09692540725936544 -0.03341187880186294 -1.1075484753935085 69 41 27
0.09521511487741176 -0.04011603493694263 -1.1066677268135896 68 41 24
0.09132662640092915 -0.05527106421411446 -1.1037518021994353 81 44 17
0.09297417634336173 -0.04939127146955921 -1.1106447260697343 86 51 19
0.09305936170940582 -0.049364751491953796 -1.1139008928970702 97 67 35
0.09333616035499914 -0.04862090400200311 -1.1176086859794105 99 72 44
0.09368124530916214 -0.04762180164110308 -1.1214814320325484 100 72 48
0.09256087094294725 -0.05210871092946523 -1.1218989599604565 103 75 53
0.09357300877016703 -0.04861315632740176 -1.1273516708735838 100 73 50
0.09365480482601833 -0.04860022673065831 -1.1306092760195159 97 71 48
0.09369482620140394 -0.04874374692870387 -1.1337690593581964 95 71 47
0.09330848254361865 -0.05048228815728811 -1.1359121256229034 93 69 45
0.09549439780445101 -0.04377844415306115 -1.1565239202999271 89 73 60
0.11057368719688528 0.13224755104642924 -0.07143270996212252 99 83 76
0.10578183492268214 0.11288275002971658 -0.07378788551508789 93 69 58
0.10464493926882389 0.10807423719887185 -0.07659273367813556 85 58 44
0.10282302414340534 0.10054026712294843 -0.07928485036868398 87 61 47
0.10461291061366332 0.10738310553340631 -0.08250116371172778 93 66 54
0.10202163682457979 0.09678962955515473 -0.08505084901270352 89 62 52
0.10040810056244809 0.09008931709921185 -0.08772910829671027 82 55 43
0.09850424008266326 0.08223587411309975 -0.0903389245881791 82 55 40
0.09729127634800312 0.07713271432158932 -0.09304730863781208 87 63 50
0.09615932681551743 0.07235311528971222 -0.0957560889898534 81 58 49
0.09514324713481379 0.06803553660952198 -0.09847329994286211 82 63 57
0.09353339496164322 0.06135834512667206 -0.10106337880847106 85 66 59
0.09157321050749988 0.05329032089517824 -0.10356413172318715 93 73 65
0.08980486945241493 0.045987053372142164 -0.10608095334330385 96 75 66
0.08880656284807646 0.04174599349233236 -0.10874018101446276 98 75 67
0.08676658536520393 0.03336695994699617 -0.11116003438573613 98 74 66
0.08739059723403225 0.035574096626118934 -0.11415392410389016 103 78 70
0.08094628827008121 0.008089665425285428 -0.13244628896373536 85 45 19
0.08202662916192428 0.012107720560695548 -0.1355641419555304 84 46 20
0.08273825632003946 0.014661530765076501 -0.13859256775693035 81 46 21
0.08270103748464182 0.014243730143556205 -0.14141603217240234 76 41 22
0.08198438540743025 0.011130959274801518 -0.14404101625177912 73 41 26
0.08245635261444241 0.012732928854166312 -0.1470123351461577 70 46 32
0.08364153515226792 0.017162421936192718 -0.15020714462817517 72 54 40
0.08362245801520929 0.016815910288130148 -0.1530429378710351 72 52 41
0.08285737381832861 0.013512091268752566 -0.1556426771585442 71 51 42
0.08535050650518873 0.023123256353578314 -0.15928575987901714 72 52 43
0.08829020940108388 0.03450119432544039 -0.16310699654496005 74 54 45
0.09152104726412899 0.04537401316369373 -0.18442710420289546 71 53 43
0.09022552354716011 0.03996992612001183 -0.18683287265948767 72 53 46
0.09158221494613529 0.04506395856266475 -0.19024301645346786 72 53 46
0.09213681887417628 0.04698240396757861 -0.19335704880011684 71 52 45
0.09431150611048301 0.05531003308117743 -0.19712135878310766 72 53 46
0.09489038400547409 0.05732214871442237 -0.2002698885066256 69 51 42
0.093467431076031 0.05141561070540276 -0.202606993742909 66 48 38
0.09212869750795802 0.04584376192138252 -0.20496205739830367 67 49 39
0.09206677850284639 0.04532217220006678 -0.20783932040443856 69 51 41
0.0936625175839752 0.051354283477415864 -0.21142528747047978 70 52 42
0.09578165187179716 0.05945344261170865 -0.21525854787216278 72 54 44
0.09553628829514314 0.05820461604548433 -0.21807807184042877 72 54 44
0.09587369275105762 0.05925901717428742 -0.22115512413776467 70 51 41
0.09761488195876185 0.06585963764271038 -0.22487189690836065 69 49 38
0.09918091574507004 0.07176618256567657 -0.22853038943782938 68 48 37
0.10254465560145352 0.08477185447803542 -0.23304418243527647 68 48 37
0.10377069493093535 0.08933075721818141 -0.23659344002586097 69 49 38
0.10396068962720453 0.08979696057811598 -0.23966412000186557 69 49 38
0.1041776413600956 0.09036932241278256 -0.24275071653164482 70 50 39
0.10610453087461659 0.09740609076410284 -0.24967352448689234 73 53 42
0.10176148396622268 0.07998056331908873 -0.250490836740047 73 53 42
0.10128381695548186 0.07781259199314483 -0.25321851427522934 75 55 44
0.10173734715470592 0.07931901507707262 -0.2564196117837242 76 54 43
0.10213215480223882 0.08059320649833049 -0.2595963037041118 74 52 41
0.10244025369244396 0.0815248881183781 -0.2627327659012709 74 52 41
0.10287832237125102 0.08296869877812066 -0.26594282053937074 78 56 45
0.10332058604804378 0.08442848169240807 -0.26916110008583327 78 56 45
0.10386748604415691 0.0863002074461686 -0.27244243534261986 78 56 45
0.10431774456637591 0.08664976156963605 -0.2876429790548828 77 55 44
0.10500588010679175 0.08907495439498153 -0.2910363165359093 74 50 39
0.10785638832353503 0.10001524495087584 -0.29571122801462124 72 48 36
0.1090383685100571 0.10438202101254562 -0.2994298010149342 75 51 40
0.10682781366746162 0.09539070865980726 -0.30112509596770115 78 55 43
0.11203933169528359 0.11561877037614082 -0.30729928216347174 73 53 43
0.11142231436312991 0.11290017274211463 -0.3099641539533641 74 54 45
0.11206334529075666 0.11513304120760892 -0.31340126310833366 79 56 44
0.11027180745244183 0.10779366544262943 -0.31532485136744265 88 60 44
0.1074476495195787 0.09639391518960425 -0.3165742484130119 93 62 45
0.10752462446171583 0.0964091147514935 -0.3196403554302522 92 60 40
0.10843140759437933 0.09968774572672534 -0.32324262240455753 88 56 35
0.10833619227055388 0.09902505730033032 -0.32620487997181835 86 55 34
0.11131017084255197 0.11042971029895907 -0.3311821435500232 89 61 40
0.11313140798643911 0.11729918843442716 -0.3354327042754435 91 71 54
0.11600829022041997 0.12831573119148096 -0.3404128437574995 89 71 56
0.11837030290445191 0.13730539270112355 -0.3450815676079763 70 53 44
0.11938541876082749 0.1409997411096076 -0.3488621859720903 100 85 79
0.12166493147881202 0.1493638901564685 -0.35663598504918803 96 81 72
0.11634186819939818 0.12728005551461197 -0.3652562406759649 80 64 61
0.1152579630220043 0.12273189202690639 -0.36755031867661053 66 52 49
0.1134543006098826 0.11536018042236193 -0.369305068497147 60 46 40
0.11564623741132055 0.12366943341089243 -0.3739849867078225 70 52 49
0.11291518428894481 0.11266096082898316 -0.3750310175596303 75 56 50
0.11262611245145088 0.11123520200181393 -0.37787515791827697 82 59 50
0.1117221214799888 0.1073978632461745 -0.38025121533922673 82 59 50
0.11181347580560047 0.10746495250927013 -0.38337550980017726 84 62 53
0.11236391146759422 0.10933196911992135 -0.386854406779425 83 60 52
0.1104212628613102 0.10142420750599687 -0.3884086914543 80 58 49
0.10865372115836422 0.09420509926215848 -0.3900761065136722 73 53 44
0.10835016913772023 0.09272583186003093 -0.39287481887928105 71 51 42
0.10598750670320861 0.08317785571372105 -0.39403606490128 73 51 43
0.10405064365457314 0.0753009590014902 -0.3955089888290844 76 52 45
0.10104835930275352 0.06325252359236591 -0.39609942481736177 75 50 45
0.0999180218179869 0.05853984831902238 -0.39817366918381136 77 52 47
0.10173800841885083 0.06538285509657868 -0.4026495342042484 75 50 45
0.098002395027812 0.05046948719400973 -0.40256608559387647 75 52 45
0.09815008228566591 0.050764108353582665 -0.40566395541994676 81 56 47
0.09582907800236161 0.04139474295898275 -0.4066970683124695 90 64 52
0.09561939451822518 0.040291653876320624 -0.40948282279939935 99 72 56
0.09421780579129968 0.03452443717845165 -0.41125357561677456 105 77 60
0.09247991185157659 0.02744296317789098 -0.41271945195010046 112 82 66
0.09297753796266056 0.029109186338325876 -0.41609190846098515 108 76 61
0.09239922498609272 0.02656617668566165 -0.4185365825026292 93 60 37
0.09366493606356736 0.031235696907681326 -0.4225877760166933 83 44 21
0.09364109648068197 0.03086105329233299 -0.4255191317419223 85 44 22
0.09434961672727411 0.03334973882640792 -0.4291005786798009 85 46 23
0.09215350680613485 0.02448284895535835 -0.4300958766102115 85 50 26
0.09572880334735209 0.03817646650225 -0.43625761895202003 83 53 31
0.09401095804178483 0.03118031519958868 -0.43766850673822094 89 64 48
0.13350208672366648 0.16120736308368447 -0.7284128323081064 203 203 205
0.13317534274215342 0.15963626022140312 -0.7312031394716756 202 202 206
0.13312822160847296 0.15914464467704534 -0.7343860388246677 194 193 195
0.13257173630178465 0.156378038152851 -0.7400911031047455 149 148 144
0.13259136827417678 0.15614420165115456 -0.7433669071410991 127 122 118
0.13232237647887315 0.1547970973766185 -0.746227329612237 113 104 98
0.13210235677838728 0.15363911176719006 -0.7491558659817652 108 96 88
0.1309186921631582 0.14845704881689797 -0.75391976387446 95 79 71
0.12869476352382356 0.1395761663928752 -0.7538961381025615 91 75 67
0.12887137298593712 0.13994923417763544 -0.7573829939593392 88 69 61
0.12820545927308521 0.13707558524674074 -0.7596255288111793 85 65 56
0.1274110492235686 0.13370763781671965 -0.7616691572667899 85 65 53
0.12480145640222992 0.12334846091960056 -0.7609932032142465 85 64 51
0.12396836179592413 0.11983443890716633 -0.7629482383235031 86 65 49
0.12298259310474 0.11573345201889643 -0.7646633703560601 86 65 48
0.11994590571881514 0.10373714123699293 -0.7632653473531077 85 64 47
0.1185580742089801 0.0980918990994418 -0.7643329663204612 87 62 48
0.11713206624434258 0.0923013455827166 -0.7653252768295071 87 61 48
0.11616724298562639 0.08828728557225182 -0.7670061705981589 85 59 46
0.11836230510604182 0.09643288378888679 -0.773533930632448 83 57 44
0.11703607672951571 0.09102874991452606 -0.7746535401671416 82 56 43
0.11793383303820867 0.0941808718305707 -0.7792047344811375 79 53 40
0.11522658095886487 0.08316697542050214 -0.7813050265023948 81 55 42
0.11346424980232368 0.07309650319367125 -0.8131040264967936 85 63 53
0.11305996619123855 0.07124508566930574 -0.8155858476188943 92 67 59
0.11244464411669727 0.0685842588762074 -0.8177156921741561 94 69 60
0.11144727245272752 0.06445826878393127 -0.8192069173686128 93 69 59
0.11044291126609376 0.060306625982666145 -0.8206743719252758 93 69 57
