ply
format ascii 1.0
element vertex 678
property float x
property float y
property float z
property uchar diffuse_red
property uchar diffuse_green
property uchar diffuse_blue
end_header
0.05572857175783605 0.09491173210973096 -0.49996627377210356 84 56 32
0.05551266609267385 0.0944240624793675 -0.5030134067636677 87 60 33
0.05619901658366646 0.09536098359194403 -0.5064688876886243 86 57 32
0.05584439753338637 0.09465421566647696 -0.5094549741910114 87 58 33
0.05541905736570055 0.09383585442351841 -0.5124075598019674 87 58 31
0.05475271337972254 0.09263713866686521 -0.5152473989998412 87 59 31
0.05493673296798109 0.09278073590793148 -0.5184794600646945 87 57 33
0.055105314770621555 0.09289986998343273 -0.5217064225434941 86 56 32
0.055134184560328564 0.09279843231235431 -0.524869673127849 90 60 36
0.05585190320367842 0.09378390335358079 -0.5283603038764014 91 60 36
0.05641135065464789 0.09451940685357992 -0.5317808013620958 92 62 37
0.056383807526741964 0.09432863121304534 -0.5349242296116146 90 59 35
0.056860856424693094 0.09493382393429378 -0.5383119346469968 93 63 38
0.05713051721952879 0.09521170411025948 -0.5416028480488104 97 67 42
0.05734740694155227 0.09540622791447284 -0.5448706288941725 95 65 40
0.05748493260568627 0.09547547692825514 -0.5481017461965952 93 63 38
0.056988331437170324 0.09454463535717521 -0.551021327460543 92 61 37
0.05658633929154177 0.09376306570817958 -0.5539860458452871 91 57 35
0.05617534576653611 0.09296736611431677 -0.5569449222499285 89 56 33
0.056095828853731794 0.09269432539152124 -0.5600691691598413 89 56 33
0.05622346388277858 0.09274781750393465 -0.5632988178892768 90 58 33
0.05555632529944441 0.09154843481041056 -0.5661257055946249 90 58 32
0.05562425408923858 0.09150776309899225 -0.5693260270284924 90 57 30
0.056304278159974804 0.0924316918711598 -0.5728429985076867 88 56 28
0.05670779180855422 0.09291963880214091 -0.5762218379186594 88 54 25
0.056988670113047854 0.09321418466870368 -0.579540237748299 88 54 25
0.05764561038983399 0.09410112476824363 -0.5830583579614526 91 57 28
0.05827583386171461 0.09494574272283371 -0.5865673527358072 92 58 29
0.058573145548929506 0.09526569556925409 -0.5899047610817977 93 59 30
0.059382466595121516 0.09639202265608265 -0.5935177758910588 93 59 31
0.059356399453471737 0.09620230727239329 -0.5966890886440547 93 59 32
0.059368741350478635 0.09607304048637867 -0.599881989152058 94 62 34
0.05868515773212625 0.0948478048004812 -0.6026990254764978 96 63 35
0.05841435365009641 0.09427268178135514 -0.6057378784384103 97 64 36
0.059623631103577164 0.09602794840037106 -0.6095867568234999 98 64 37
0.058080874546511056 0.09345018111871346 -0.6119285046593327 97 63 36
0.05809994310117408 0.09333142675854025 -0.6151267729014037 97 63 37
0.05825688949942965 0.09342964678578816 -0.6184029506389441 97 63 37
0.05822376098529718 0.09322860999400341 -0.6215747542625952 97 63 35
0.05721712980783143 0.0914954468956407 -0.6241997520296442 96 62 34
0.05706266870110487 0.09110353092380176 -0.6273017434311526 98 63 36
0.05708073121610791 0.09098307627337875 -0.6305019525905449 98 64 36
0.06038543892497934 0.09603367505262626 -0.6355817178948789 96 62 34
0.06117320499785675 0.09712357464606367 -0.6392362709402275 95 61 33
0.061395902768613224 0.09732430141413877 -0.6425702640922796 95 61 34
0.06112745767015322 0.09675237279441876 -0.6456215462153242 97 62 35
0.06058876540287578 0.09575542168012297 -0.6485146006631781 97 62 35
0.05675172162080995 0.08957134588439007 -0.6494711173108485 92 57 30
0.05769712563076199 0.09090884678594371 -0.6532247940232856 88 54 27
0.05767117664137691 0.09071868573095919 -0.656409706793734 86 51 26
0.057368153581402195 0.09009285193499442 -0.6594305404594456 85 50 27
0.05751538567397395 0.09017490553720826 -0.6627200696466852 87 51 30
0.05438358045771382 0.08510230864793195 -0.6640394074212801 84 50 30
0.054703576803929156 0.08545619623715063 -0.6674274191115686 81 47 27
0.05354527657616881 0.0834865154134224 -0.6699204436183447 79 45 27
0.05239298560908777 0.08152655327926696 -0.6724112479939963 78 44 26
0.056553489701569655 0.08791546393636554 -0.6781552236907434 77 44 26
0.055707068393419726 0.08643590940104733 -0.6808388044858088 77 45 27
0.04690573087814322 0.072458305767806 -0.6785908340493917 76 46 27
0.046383002540569415 0.0714887608713442 -0.6814439651116796 75 44 26
0.04595459454995396 0.07066747680019964 -0.6843540009547187 75 44 25
0.04696960607890471 0.07211346168028772 -0.6881696233567574 75 44 25
0.04609012815656753 0.07058367895848555 -0.6907961271380874 74 43 25
0.04703753195417458 0.07192308825838703 -0.6945774732976476 74 43 25
0.04877620190465381 0.074504701369568 -0.6988699767059651 75 44 26
0.049338202413162766 0.07523822736076848 -0.7024203743818467 75 44 26
0.05100129786069827 0.07770027750968309 -0.7066837483879072 74 43 25
0.049605602953097856 0.07535990536859666 -0.7089807100890583 74 43 25
0.04963730064739648 0.0752604972726141 -0.7121974246838969 74 43 25
0.04886771484383346 0.07390334452720296 -0.7148925398172563 75 44 26
0.04787460499258579 0.07219554915542532 -0.7174375508178756 75 43 25
0.04757056494905864 0.0715693466302175 -0.7204314191129582 76 43 26
0.047332244449005814 0.07104630515434264 -0.7234679918659642 75 42 25
0.0446744022117877 0.0667269870993246 -0.724896226311689 74 41 25
0.04372072349529099 0.06508200619734394 -0.7274471733366795 73 40 24
0.04331524206665044 0.06429722631774062 -0.7303610508153507 73 40 24
0.04177646098970552 0.06173481292644449 -0.732510108486341 74 41 25
0.03961121078921324 0.05819019032136588 -0.7342270249250833 73 41 25
0.03740538404950084 0.05458249198263229 -0.7359043345729716 73 42 25
0.03806573769288833 0.05547005619218573 -0.7395261052749698 75 43 27
0.0376217403368721 0.05462571845913394 -0.7423956446501576 75 44 27
0.038249486747228556 0.05546184243140903 -0.7460017151993574 75 44 25
0.039258564325891046 0.056895574618601785 -0.7498764352380045 75 44 25
0.039367653262635506 0.05691813563058516 -0.7531330079641095 75 44 26
0.04097572316914069 0.05929023142946441 -0.7574373312354552 76 45 26
0.04499804333307089 0.06544575854834063 -0.7634444992544696 75 44 25
0.04622441009261567 0.06721830246166204 -0.7675090668353044 73 42 23
0.03881802812895917 0.05546249499803957 -0.7654794902483434 73 42 24
0.04775366975178447 0.06931520038859017 -0.7750080849930946 74 43 25
0.05479070780188034 0.08019065609141246 -0.7832382697667807 74 43 25
0.04369051039927162 0.0626498036802509 -0.7785256676116303 75 44 26
0.04449839642921348 0.06376587237534032 -0.7823092891103443 73 42 24
0.03573151960964394 0.049884302242852466 -0.7791850716817683 76 45 27
0.03406781191158517 0.047130157839171904 -0.7811593522254497 77 46 28
0.03491735922971929 0.04831234187981312 -0.784954640676359 75 44 26
0.03395169520954318 0.04665176453106987 -0.7874288679064674 74 43 24
0.03241510811926511 0.044097474337316145 -0.7894790896523092 74 43 24
0.03711545777023139 0.051308328471929315 -0.7961194035219259 75 45 26
0.0434313507013873 0.06104691804939541 -0.8039853969570157 76 45 26
0.04402637612044726 0.06182850635295804 -0.807638192474592 79 47 28
0.05050324205768265 0.07181617673308456 -0.8156859475744686 83 51 32
0.05319493697437694 0.0758779158951263 -0.8209374026390379 84 52 34
0.04387172919540844 0.061136438551432554 -0.817165106177811 80 47 31
0.04395351270416829 0.061114314595882804 -0.8204430009548634 82 49 33
0.046547703301344154 0.06502312690485286 -0.8256283706067732 78 45 28
0.0482821654570906 0.06758610861429988 -0.8301758261295767 75 42 24
0.032609498270966375 0.0429176309569511 -0.8214237889083715 77 43 25
0.03189524099142666 0.04165168716237805 -0.8240614601049974 80 46 28
0.045779879979112946 0.06321958301783669 -0.8379486434624817 82 49 31
0.036091441308157925 0.04791690359919154 -0.8336796090853866 80 46 27
0.03031336451207506 0.038731898269567286 -0.8323904566981545 78 44 24
0.02327044537066108 0.02757073051862416 -0.8300805403470487 81 48 28
0.020681494623370246 0.02337529768909591 -0.8312161728673396 81 46 27
0.11690741904958418 0.17350234722184593 -0.9134641744327537 80 44 22
0.13640444836851384 0.20381645813223254 -0.9323620199327289 80 43 19
0.023776643461979004 0.027179395506104306 -0.8558199896511642 80 43 17
0.015123017461210045 0.013511269833826584 -0.8520050088331419 83 45 19
0.011163659809514101 0.0071790187200616445 -0.8519430642969078 85 45 19
0.011412614440002564 0.007421530521250261 -0.8552819228079235 87 50 23
0.012591263049159411 0.00911603610126431 -0.8593826426605703 89 54 28
0.012839536234506899 0.009357109822219475 -0.8627289521003281 89 57 33
0.013088035205053729 0.009598415862863002 -0.8660780244468677 87 59 36
0.012866061769491649 0.009104960163918166 -0.8690411081554852 86 58 36
0.013457997319364673 0.009882318805843268 -0.8726785993331374 83 55 37
0.014365364366732553 0.011151913396858129 -0.8765832393841198 80 54 34
0.015378923779508613 0.012586971781292006 -0.8805831975534197 74 48 30
0.015082409896302981 0.011976765746496074 -0.883492337621791 77 51 36
0.01814864868126309 0.016615112348373387 -0.8892297271392852 76 51 37
0.020326175030128124 0.019865572000988443 -0.8942366540742998 72 48 34
0.021219876258514903 0.021111956734935405 -0.8981700908951751 71 46 33
0.017689015754230618 0.015454174303792867 -0.8983469509375451 69 43 30
0.017012620668129988 0.014250909143084509 -0.9009396794218882 64 41 27
0.0191317121964127 0.01740891988997087 -0.9059241229161316 57 39 24
0.018035026326628747 0.01554992339651172 -0.9081579107067135 58 36 22
0.020424160070079925 0.019128282782068587 -0.9133937010568237 66 43 30
0.02444998245648778 0.025258533161163776 -0.9200625381783865 70 46 34
0.024718374500369206 0.025527914808573332 -0.9234920502410401 74 50 36
0.02186744003927013 0.020933072646880754 -0.924203949625121 78 52 37
0.022267591097069717 0.021408087159937084 -0.9277446069721954 77 52 36
0.02470705264501142 0.025062330772626568 -0.9330798695022183 80 53 35
0.023501468949147584 0.02303352528819573 -0.9352186893829665 81 50 30
0.01881494036333701 0.01557904132651941 -0.9342724213910376 74 42 21
0.020132531680153463 0.01748400676404109 -0.9386271438445564 66 34 14
0.021715142387306603 0.019801568447169376 -0.9432271206120245 60 30 10
0.024950243340559744 0.024693752050014603 -0.9493148321280481 58 28 9
0.025179179208470216 0.024900781016919463 -0.9527276549919749 58 28 12
0.027408109699093054 0.02822377196965939 -0.9579427975278831 63 30 12
0.027419494511002625 0.02809135627664569 -0.9611703565211093 68 39 20
0.028494073244761546 0.029615081729407466 -0.9653624372879372 78 50 35
0.020201356489403202 0.016547854983261417 -0.9610454554882035 81 56 43
0.018256555574509545 0.01336963418039011 -0.9624693928499897 84 65 54
0.017784725229327537 0.012485813072278251 -0.9652307140002787 88 70 61
0.016510227237180555 0.010352183866207981 -0.9672529269104762 88 70 61
0.012396939366868025 0.0037987901972293403 -0.9666520470005574 89 70 60
0.010831788711035545 0.0012136971198230262 -0.9683830084459856 90 71 64
0.009808492526275164 -0.0005274652402904312 -0.970608065053624 91 72 65
0.008857971352056432 -0.0021550995778460147 -0.972895583272386 92 75 67
0.012321708516630864 0.003088069212454997 -0.979301323315277 98 81 73
0.010301368359946182 -0.00020471959460616196 -0.9805903141993808 97 80 72
0.007451673887236991 -0.004787581022125856 -0.981088016313624 97 80 72
0.005587608763287254 -0.007836010334029184 -0.9824988670027087 99 82 74
0.0017883559459660608 -0.013894849959725286 -0.9820675912080543 102 85 77
0.002336254510399899 -0.013189661944230172 -0.9857417127957068 101 84 76
-0.0007567218427136924 -0.018148355408199007 -0.9859516656673347 100 83 75
-0.00767419329590175 -0.029054952159934894 -0.9824879308495844 103 86 79
-0.004355859987019817 -0.024039948617314497 -0.9887975254350132 98 81 74
-0.0028555532576150858 -0.021853252599390804 -0.9933798415919435 94 77 70
-0.006812043626512471 -0.028152353621138215 -0.9927058980465516 93 75 68
-0.00766856077841592 -0.029630350187973623 -0.9950099727040518 88 68 61
-0.007205651479622786 -0.02905682478754265 -0.9985914478997749 82 62 53
-0.007468611296749632 -0.02961189191316499 -1.0014694984547252 74 53 42
-0.010326163093698201 -0.03420000713222282 -1.0018103935919072 66 42 29
-0.013530768762145026 -0.03932675441043368 -1.0017941249113151 61 34 19
-0.016419679935170163 -0.04396198810364321 -1.0020694996216275 56 29 13
-0.016571581694314906 -0.0443431741960979 -1.0050293282102054 54 26 12
-0.014711028085427971 -0.041597345949456244 -1.0099818615875418 54 26 12
-0.01660899464924266 -0.04469167312383386 -1.0112138864494202 54 27 13
-0.01804134687789031 -0.047062144475810475 -1.012899025723112 55 27 13
-0.019406858649943723 -0.04932841700900621 -1.0146430625357294 57 28 12
-0.016217644706962665 -0.04451971770217618 -1.0209463943071646 57 28 12
-0.016677413206877517 -0.04537924367959986 -1.0236006744384618 58 29 13
-0.017200741861096637 -0.04633739062003717 -1.0261890026563179 58 29 12
-0.018088732486316712 -0.04786168457050409 -1.0284060518589435 63 35 15
-0.01945469528401833 -0.05012789811428861 -1.0301333618454356 71 43 21
-0.020075829289389002 -0.05123740130661325 -1.032611631187609 75 47 25
-0.02088360911168631 -0.05263651542318028 -1.0348964081827094 77 50 30
-0.020749058738664998 -0.052572733849144654 -1.0381426709391581 81 56 37
-0.021871757189478702 -0.05446038947928861 -1.0400987222306541 83 61 42
-0.02105203226152201 -0.053333256686971045 -1.0440511579236176 85 64 45
-0.021694147003530707 -0.05447487453480493 -1.0464982422061966 83 62 45
-0.022358495525943142 -0.0556508520887766 -1.048919286578838 81 60 43
-0.022551987709342892 -0.056096154161043216 -1.051827037692676 81 60 42
-0.023364279615343986 -0.057501420626683675 -1.054088948470513 81 60 41
-0.013025028065838266 -0.04160824131914588 -1.0680177973266933 81 60 42
-0.01724417288279012 -0.04829897117171861 -1.0667304140915594 80 59 42
-0.027511361693943477 -0.06436845135842563 -1.0590497130099918 80 58 44
-0.01425825856913062 -0.04396068808875363 -1.0761433763621577 79 59 45
-0.014682314782502967 -0.04476482085511277 -1.0788351100973985 72 54 41
-0.013259945661015626 -0.04270606305043172 -1.083486735457687 61 44 34
-0.015374549287156612 -0.046131201386516746 -1.084379843393733 49 35 27
-0.012123338930017241 -0.0412378456541056 -1.090994731462149 43 27 20
-0.010863590085368365 -0.039432306683595056 -1.0954967852294477 42 25 18
-0.011149598552854044 -0.04002291953062323 -1.0983462715486336 46 29 21
-0.012340697879706548 -0.04201614276791907 -1.1002192569503362 45 28 20
-0.012925583313609323 -0.04306968782316746 -1.1027412612241254 46 28 20
-0.015864083210003828 -0.04776987897341495 -1.102708376557671 49 31 21
-0.017121551094222157 -0.049864854701751754 -1.1044862259456816 50 29 20
-0.015701938587400828 -0.047812341591597696 -1.1091771479007384 54 30 19
-0.01890836148039015 -0.052925983516537725 -1.1088177720948482 59 33 18
-0.01709969423702415 -0.05027114060366378 -1.1139409682751633 67 37 18
-0.016450402254657305 -0.04941240090142719 -1.1178011201517142 79 48 27
-0.01590652688202355 -0.04871714558313288 -1.1215501373516659 80 54 32
-0.015680420184655194 -0.04851413403726165 -1.12495204597844 81 60 39
-0.02167215071945082 -0.05793802101166785 -1.1214565010659066 85 63 44
-0.020343970842374715 -0.05602819955975727 -1.1260701907294013 81 58 40
-0.02102981892963804 -0.0572364488850855 -1.1284456291308331 81 58 40
-0.021723724207716094 -0.058457016198712825 -1.1308087714926167 82 61 42
-0.02667180572737826 -0.06626144998999102 -1.128393780327859 84 63 44
-0.023756215927678077 -0.06189533670706146 -1.1347994391250182 82 60 42
-0.022467420033938867 -0.06004738006382511 -1.139388461095873 82 61 44
-0.01984966796365442 -0.056143672012414936 -1.1454909754145615 81 60 44
-0.017007334449795776 -0.05189334681622443 -1.1518660985962368 67 50 36
-0.017393460154285 -0.05263808309536752 -1.1545855576278445 78 66 51
-0.01977390215608723 -0.0564675075574967 -1.1550272740633913 106 99 85
-0.0207762518798257 -0.058164886080164235 -1.157032307419031 144 141 132
-0.02215004553470816 -0.06043644614011255 -1.1586057046116256 168 167 164
-0.022429672371543648 -0.061015709068441754 -1.161430785038018 180 179 177
-0.010764274916771621 -0.04312580179768524 -1.1780414629498068 188 187 185
0.020615402742489936 0.0052394538790577205 -1.2175433683012828 193 192 190
-0.009342378763602735 -0.04122508969839764 -1.1860632866881453 196 196 194
0.003335890389692106 -0.02177684913061606 -1.2040089585661178 198 198 196
-0.056883244544697814 -0.1150014806498968 -1.1369737667331983 199 199 198
-0.049551516304119816 -0.10381277369286199 -1.1485950786581454 200 200 200
-0.041383069601470986 -0.09133332732999208 -1.1612458631668754 202 202 202
0.11795495232432313 0.15455323820221034 -1.355396338924366 203 203 203
0.09702616760402781 0.19625383549803674 0.12951532336743463 184 184 184
0.08381863456045575 0.17482597016670187 0.12467176755008297 184 184 186
0.07609945343629317 0.1622459908025673 0.12062447336521284 184 184 183
0.0691822732487048 0.1509602777155219 0.1167225212073699 185 182 180
0.054297580712879545 0.12683859668104527 0.11185062809977014 147 134 129
0.05441953872988899 0.12689831401016594 0.10891578681997575 132 108 99
0.053446815728258004 0.1251944266160313 0.10584700036297495 123 93 79
0.051316683141867867 0.12162630852725076 0.10264595308157079 117 85 65
0.05110092242811261 0.12114225321234214 0.09967658114823477 120 88 67
0.047057200650036865 0.11449284397141479 0.09627653654658405 127 97 79
0.04463305323248411 0.11045273081239829 0.09307580387653758 128 100 83
0.045910920533767184 0.11237476082771616 0.09028380396826735 125 97 78
0.045706658522748356 0.11190985298580114 0.08732926061381951 111 85 65
0.046094993508273584 0.11239909427396576 0.08443505278066489 105 78 62
0.04670906337252385 0.11325161873136196 0.08156003494902059 101 75 60
0.04371443967179658 0.10829451594369684 0.07833449025563843 93 68 52
0.03907135133106082 0.10068458587679949 0.0749710829372212 81 55 40
0.03405655576679602 0.09247751447209707 0.07159894535144261 77 50 36
0.028515488598343814 0.0834246814876222 0.06820764918490159 68 39 27
0.0254296461091691 0.07832449196330125 0.06505447323080898 66 34 20
0.026139022666878144 0.07933231258139607 0.062228875712595604 62 31 16
0.03879747879413685 0.09956679615578742 0.060345412029443504 61 32 15
0.038777484006945105 0.09939910932179974 0.057421053323201444 71 43 28
0.03804570544775458 0.09808625913363317 0.05444342295935423 84 62 52
0.04014670182413463 0.10133058701538741 0.05166978517925512 87 68 61
0.03992112193200964 0.10083190936893623 0.048725029306914414 94 70 58
0.02044562699486348 0.06937123815177787 0.04452296805595643 98 72 58
0.013749803616114855 0.05846902453347154 0.04122782460451407 110 87 78
0.012799301382860557 0.056807921609351095 0.03831241700675931 145 126 118
0.015384230415428787 0.06083212053870199 0.035602802927015696 145 127 117
0.017965593421871547 0.06484987459453596 0.03287765990390585 131 111 102
0.01653692879525663 0.06241968952305385 0.02993112758346856 129 110 98
0.02527311201788479 0.07633132077314976 0.027485625812290956 129 108 95
0.02393060064279698 0.07403896712420605 0.024528773296525294 109 82 68
0.011658603533575587 0.054178991614798944 0.02110840927193694 80 48 30
0.009996139028726602 0.05137441611596683 0.01818237748688476 72 37 17
0.010545659143885243 0.05212517387267383 0.0153474996206577 64 28 10
0.009437051115834599 0.050211135757997 0.012451220968476066 61 26 8
0.00575603195746608 0.044163813028455706 0.009478351417436305 61 27 9
0.005640996888810895 0.043847012358483456 0.006628688706602944 61 28 10
0.004319305167829603 0.04159157225728061 0.0037471044711825767 61 28 9
0.005701475734230136 0.043680135035479115 0.0009353681030439343 62 31 12
0.006275299086445191 0.04446980755313651 -0.0019016991594650165 62 32 15
0.0066561335904284005 0.04494930598350544 -0.004746335544078524 59 30 14
0.006778575824541208 0.04501366161752531 -0.0075979036249624494 54 27 11
0.007827936830409214 0.04656653831969191 -0.010439740230674205 52 25 10
0.00849267375951826 0.047501458514365685 -0.013292000856541409 51 25 12
0.007619493007626158 0.045966727592406165 -0.01615908393452621 52 28 16
0.006179653791019613 0.0435223710456454 -0.01902434459090316 55 33 22
0.018580651513770037 0.06329898861303078 -0.021868533096905937 57 36 26
0.006406788498352349 0.04362205433135752 -0.024738968388728556 58 38 29
0.016518467095440147 0.059720558431332456 -0.027644716330026343 56 38 28
0.016984428300203632 0.060334527246322586 -0.030536619457240788 47 30 22
0.01630170669248769 0.05910478799218593 -0.03342031657641426 34 20 14
0.025448022121551866 0.07364871756755158 -0.036429294754812075 28 16 11
0.025870873823087157 0.07419203485716229 -0.03935233757719477 23 13 11
0.02742534414877983 0.07655091279957449 -0.04229982005985569 18 11 9
0.03210448389747404 0.08392255526492526 -0.04532410951917696 14 9 10
0.03082886340387338 0.0817399041528584 -0.04823100356952821 12 9 8
0.03515992103711693 0.08855142224625338 -0.05128366409509372 13 9 8
0.03451746361438523 0.08738421531922436 -0.054212817146069056 17 11 11
0.029727552086536137 0.07956513108787286 -0.057003486054475944 25 18 17
0.028876204727476165 0.07806370781355391 -0.05990817418741903 28 20 17
0.02785006185576954 0.07628215876219956 -0.06280229618312365 25 17 15
0.029194795104254156 0.07830249539381731 -0.06578926243840018 26 17 18
0.028635359809448247 0.07726938249628486 -0.06870092808118503 26 17 16
0.02652711627973339 0.07375328878508967 -0.07153782379523177 36 24 23
0.02628275301379454 0.0732256730357447 -0.07445633964691847 56 43 38
0.024773847886797387 0.0706710673096549 -0.07730803782932272 87 72 63
0.022647180605292878 0.06712664587183419 -0.08011798088703503 86 68 58
0.02356679927479138 0.06846501497818619 -0.08309397145838518 73 47 36
0.022745220411712536 0.067012713474978 -0.08596993942037254 67 38 24
0.022683273514667472 0.0667778453470327 -0.08889066664157735 56 31 15
0.0207489699698737 0.06354286356061377 -0.09168723629479333 54 27 13
0.0178568943202043 0.05877382827812071 -0.09440727955782044 47 26 14
0.021686535409573268 0.0647739842792579 -0.09759778088672796 78 62 54
0.005496546729069098 0.038703421511347855 -0.09930708299943593 67 47 36
0.002922991251669633 0.034447596165899416 -0.1019870193023632 69 48 35
0.0009683997841840805 0.03118376667856551 -0.10470330372184919 75 54 42
0.001015918958459601 0.031126822473171403 -0.10757684549188012 77 58 49
0.0006922091137148423 0.030475342024358303 -0.11041948859716506 106 84 73
-0.004788221148402921 0.021566683183128786 -0.11280079420982425 93 68 57
-0.004506086916641512 0.021885996114173675 -0.11568280098149458 106 83 76
-0.00593639699576436 0.019463583843470092 -0.11840471464185442 143 125 115
-0.006822854556858916 0.01791213681824391 -0.12117261889114743 141 118 107
-0.008409010700437073 0.015240853420037961 -0.12386599333376405 112 82 65
-0.011463903107769765 0.010219091341328066 -0.12639929460932725 96 62 38
-0.009684201150724865 0.012935688216467095 -0.12943017193148498 82 42 16
-0.012308818497592855 0.008603397129970693 -0.13199129656776418 80 39 14
-0.011187184408873977 0.010266510374251364 -0.13495801742993385 77 41 15
-0.011190516276774599 0.010129262059674547 -0.1378028337310793 72 37 14
-0.012169257273256687 0.008431378706023004 -0.14053374982579442 65 33 13
-0.01262336213258513 0.007573026639630009 -0.1433232543176605 62 34 17
-0.013413744884883148 0.006176817099467083 -0.1460695999777974 63 38 23
-0.006461578877726554 0.017165299417715635 -0.14978973947371027 63 42 30
-0.014543100881404656 0.004106884904076902 -0.15160981113911662 63 45 37
-0.016184073914615862 0.001350784798335794 -0.15423446966098095 63 46 38
-0.015508446648089723 0.0022996552986404364 -0.15716292983339222 64 47 38
-0.012153080043572077 0.0075332417432541 -0.1604649840089858 63 46 38
0.0005157926601099851 0.027657080622143365 -0.1650955185482562 62 45 37
0.0033364094366687205 0.03203264421185223 -0.1683876227003699 61 44 36
0.00018900661418369546 0.026866847586809368 -0.1708242747478312 62 45 37
0.01189419718762387 0.04517236354462305 -0.18130479340762498 60 43 35
0.014328941320485223 0.048927677581960066 -0.18461354619268458 60 43 35
0.017917102885875696 0.05452540973012093 -0.18812226442617927 58 41 33
0.021428724437735976 0.05999984913174869 -0.19163995207334128 57 40 32
0.018226300219816544 0.05474636051759281 -0.19406282144458825 57 40 32
0.012752395447883542 0.04586486074549115 -0.19608430486008935 58 41 33
0.006994405483315706 0.036530965458967814 -0.19802656524865836 58 41 33
0.001438415400517666 0.027521207386587837 -0.19997210812258065 58 41 33
0.0024104550424028787 0.028939171807432648 -0.2030464707681382 57 40 32
0.0029534708128404648 0.029671672730894928 -0.20604989883031277 57 40 32
0.007754978050047628 0.037204334982112744 -0.2098383077656718 57 40 32
0.00956781702407284 0.03996349498698581 -0.21309855820224202 59 42 34
0.015649343885629833 0.04953762576573596 -0.21717743199091485 59 42 34
0.016387055330125057 0.05057873234619348 -0.22026621827700227 60 43 35
0.013288306438745207 0.04549522786618243 -0.2226126420991214 59 41 34
0.008794601078944052 0.03818583739046201 -0.22466641285469535 58 39 32
0.008477992304786741 0.037544635519811576 -0.22753324323346658 57 38 31
0.009684371486748639 0.03933410205287145 -0.2307090877756236 57 38 31
0.017996873034745606 0.05246334470604927 -0.23535911864620487 57 38 31
0.01859601231605139 0.053282163997321774 -0.23844411681159336 58 39 32
0.017346083440974464 0.05115047911263007 -0.24114134630896772 59 40 33
0.031836643362577625 0.07413188392983203 -0.2472160767359973 59 40 32
0.031204630791766618 0.07298443481251583 -0.2500807475424471 60 40 31
0.029710977343608194 0.0704626539672151 -0.25275256949188274 60 40 31
0.03518313489605956 0.07905188093962749 -0.25697435233243676 60 40 31
0.03319580281194353 0.07574251255938205 -0.25953917061712783 60 40 30
0.024097114176150583 0.06109272594851399 -0.26046241655975616 60 40 29
0.014512549408393846 0.045670534877393705 -0.26122135284263776 59 39 28
0.02225325370639447 0.05787586842672091 -0.2659996967200647 59 39 28
0.0169254149188131 0.0491055725602197 -0.2706802995748531 60 40 29
0.020217902057584947 0.05421648046606816 -0.27445107607584585 60 40 29
0.02448690602652496 0.060882988260949705 -0.2784827057906559 59 39 28
0.026523812930380256 0.06399073977319301 -0.2819829186579127 61 41 30
0.028088945121179355 0.06634603821594637 -0.285376774078762 60 40 29
0.025713671927367204 0.06242161786056602 -0.28777451801561893 55 35 24
0.023422712875507682 0.05863213675851534 -0.2901812810242973 52 32 21
0.024805990307381613 0.060697338976439155 -0.2935351854309554 51 31 20
0.025010943624564824 0.060884874175819205 -0.2965869751120781 49 28 17
0.02521615220380748 0.06107271575976699 -0.2996409951836922 47 24 14
0.02731292441945944 0.06427350006574378 -0.3032075217324735 47 26 16
0.02964974562341864 0.06785601431165994 -0.30685262673703195 84 67 57
0.031421556697794215 0.07053801118086285 -0.31035653591673035 94 75 67
0.03345020666455654 0.07362849782674022 -0.3139432201659378 79 52 38
0.028308027561726526 0.06529994066014178 -0.31552488303517473 68 34 15
0.024606793464830773 0.05926701176849339 -0.31748735732068406 71 38 15
0.022642742631772426 0.056000765248062405 -0.3199282393970124 73 39 18
0.028572181855140696 0.0653009982614779 -0.32464848712300326 70 36 14
0.02074055295986432 0.05269458760178165 -0.3253723189305377 66 33 13
0.022368404814691878 0.05514666018715833 -0.3288506270321436 71 42 27
0.025093865754775832 0.059345138524470153 -0.33266732391548987 66 42 29
0.027390700486943975 0.06286071907985558 -0.33637151785808816 45 25 18
0.029358921692817775 0.06585272199709821 -0.3399899450673518 26 11 7
0.033344876513310785 0.07205463820336255 -0.34424127101715635 36 21 14
0.032059485140192946 0.0698687136288751 -0.34688044800831797 46 30 19
0.033758131757553794 0.07243029661415556 -0.3504481146177849 47 29 18
0.03477084390031726 0.07390023753287261 -0.35380974025293704 48 29 18
0.03345517670278931 0.07166634601545607 -0.3564351635988201 48 30 20
0.03716549758495035 0.0774264064475326 -0.3606725715095056 52 31 19
0.03753934124616439 0.07787932919679556 -0.363848334569317 52 31 20
0.0379184537341242 0.0783404831247993 -0.36702900144150813 41 23 17
0.03415837567708339 0.07221994035096696 -0.36884365108737593 48 30 26
0.03356749933933407 0.0711391499182772 -0.37169497510402205 62 44 37
0.0324288898464576 0.06918769431706007 -0.37435946832802225 74 55 44
0.023094155544209925 0.05420752110887129 -0.37423537441574833 71 48 36
0.03179325432523996 0.06789489153802676 -0.3802336934299423 73 46 34
0.030166706173308307 0.06516847925966336 -0.38271750785819464 66 39 24
0.035109779858002794 0.07288320095005194 -0.38748102046175686 70 43 26
0.035421567152302894 0.0732369153422962 -0.3906477990243054 73 47 32
0.03246551493805692 0.06839798592723123 -0.3926601187752653 78 50 39
0.030313018729500263 0.06483653217036359 -0.3949430826655059 67 38 25
0.030258354958229393 0.0646084488001816 -0.3979696558815515 69 40 26
0.0313845749139707 0.06625624765995428 -0.40142546556820335 68 39 25
0.0145053723363621 0.03930330579289269 -0.3983017746101098 71 41 27
0.011347248114282081 0.03414803603204848 -0.40014015098155964 72 40 27
0.009375503808347611 0.030877739764762074 -0.4024019897384311 73 38 21
0.005655702882588438 0.02483197620126716 -0.40399840178259094 77 46 27
0.005913537259791789 0.02510322085191992 -0.4070757601513969 103 75 65
0.0059081130390814945 0.024956360500532543 -0.41005544137978783 100 75 63
0.005572963501377315 0.024285978723191035 -0.4129096474291701 105 73 54
0.005147196021649571 0.02347178845139316 -0.41572785614337276 88 48 22
0.004665358998910039 0.022568666915995718 -0.418522718561212 83 42 18
-0.0021109454023653385 0.011674994664449032 -0.4188469637236357 76 37 16
0.0005455266900730449 0.01575362725113312 -0.4228597461046191 71 34 13
0.000601027773804233 0.015703914450949055 -0.42585369611571033 68 31 11
0.0009868020568308475 0.016178219094013 -0.428981393737556 69 32 12
-0.00016036259344498482 0.014220113505028754 -0.4314930897938771 71 37 17
0.00805419812131164 0.02711491751870014 -0.43780828477617917 71 43 27
0.029637495733400285 0.061215493924414874 -0.44965177048954774 72 50 36
0.04410434970398654 0.08402163983166874 -0.45868567473036104 78 57 45
0.04780507165332589 0.08974742346530251 -0.463330001829505 82 62 51
0.06596351319876731 0.11840184430063344 -0.47405005046796933 96 74 60
0.06609059586958407 0.1184562970619135 -0.47727588092468376 71 43 27
0.057482562723846664 0.10465930839725049 -0.47679498967157563 73 46 27
0.05475771416240958 0.10019284243773005 -0.47877947603301263 72 45 26
0.05377622316722859 0.09849105586246065 -0.4814993576826073 74 47 28
0.052378484376722774 0.09612961209276799 -0.4840340873700904 75 47 28
0.05275694782487112 0.09658407299936544 -0.4873366367075381 75 47 27
0.05207425481824346 0.09535642155054651 -0.4901762941873542 75 47 27
0.05297496603471099 0.09663842990604221 -0.493713202427879 75 46 27
0.05282825735018569 0.09626024229776128 -0.49679015616617184 73 43 22
0.05245467293298273 0.09552253604064634 -0.49976560403538706 76 46 24
0.05195779064075552 0.09458952126777082 -0.5026842597380076 82 53 28
0.051259463020720535 0.09333743638983914 -0.5055095467046775 82 53 28
0.050669712173955946 0.09225750279436828 -0.5083813608170664 81 51 25
0.0504772257349799 0.09180697669549931 -0.5114334499303527 81 51 25
0.04961551773070148 0.0902964548525378 -0.5141756365842682 82 51 24
0.04956306506438159 0.09006781481538251 -0.5172907761527346 85 53 28
0.04982451469953707 0.09033625459077246 -0.5205538095995194 86 54 29
0.050313258005880386 0.09096449848923696 -0.5239266630180783 89 57 32
0.05099974852889908 0.0919056695108895 -0.5273973294121789 90 58 33
0.05157034931767845 0.09266312213292631 -0.5308177359416097 89 57 31
0.05107869581725004 0.09173870762601663 -0.5337319487314792 86 54 28
0.05167405502510142 0.09253508817127495 -0.5371700215737791 84 52 26
0.050916209627107696 0.09118936115687828 -0.5399541706679735 85 53 28
0.05274289759498497 0.09393432133927293 -0.5440002092571337 88 56 31
0.05276194662037858 0.09381803904197013 -0.5471677732829712 89 57 32
0.05205808548420804 0.09255775614244297 -0.5499782763587955 88 56 31
0.05165790170570626 0.09177812184153161 -0.5529370216396482 88 54 29
0.05093982987342507 0.09049560475741483 -0.5557350242374886 86 52 27
0.04893120372133597 0.08717157217052945 -0.5578788084416999 82 48 23
0.050062953049972644 0.08881570577194865 -0.5616051267732969 85 50 25
0.049634127007157636 0.08799106926950699 -0.5645427370825314 88 53 27
0.04968585500747738 0.08792654348284445 -0.5677255307827209 89 54 27
0.04973750808110876 0.08786183660363256 -0.5709096359451327 90 56 26
0.04993837061254686 0.0880330145374766 -0.5741725759252915 89 55 26
0.05035377041033307 0.08854331041227523 -0.5775498031846721 89 55 26
0.050800555921372795 0.08910306525077208 -0.580947034264693 89 55 26
0.05263745500590604 0.09186028234888145 -0.5850822773715719 91 57 28
0.05368851383762264 0.09337471504568154 -0.5888120651863814 92 57 28
0.05668445082061351 0.09796293396973035 -0.5935881112967778 92 57 27
0.05728065569369561 0.09875752811548434 -0.5970939947425882 92 57 27
0.05644612173451351 0.09729084089661122 -0.599831661284916 93 60 30
0.055699278018638665 0.0959629048082828 -0.6026130304432882 95 61 32
0.05794735635683586 0.09936732174725484 -0.6070266071178932 96 62 32
0.057435020888585764 0.09840979445682588 -0.6099388804124444 97 63 33
0.054547365558698664 0.0936998393000062 -0.6115377333589913 95 60 30
0.056417730476788365 0.09650667733387579 -0.6157615115928696 93 58 29
0.056415294469433504 0.09635482369159418 -0.6189523562404129 93 58 29
0.05514539603001975 0.09420111659127868 -0.621433111110939 93 58 30
0.05056600170375991 0.0868212191398597 -0.6220405783637769 92 57 29
0.05036691118336932 0.08635949345032497 -0.6251055530641216 94 59 31
0.05613812785927197 0.09532467496969127 -0.6315737205585437 97 62 34
0.056963643556147435 0.09647980767589291 -0.6352434280290274 95 60 31
0.057661129516888655 0.09743254321290312 -0.6388453900207474 91 56 27
0.05859095872674049 0.0987518006839515 -0.6425871246891631 89 54 25
0.05312975236905016 0.08998308501363832 -0.6426157572167495 88 52 24
0.05243510150169766 0.08873874784728439 -0.6454012494569723 90 54 25
0.05296874361915564 0.08943296149101984 -0.6489058954796584 90 54 26
0.053468709892152445 0.09007383743617613 -0.6523948981420159 89 53 25
0.053823485104296166 0.09048543509258279 -0.6558017140089244 84 48 22
0.05346854334438886 0.08977715501220139 -0.6587880027335069 83 47 23
0.05305236321064031 0.08897231649950324 -0.6617364763964991 82 46 24
0.049264225918135965 0.08284850247285835 -0.662650122008915 81 45 25
0.049404204132436874 0.08292149317722362 -0.6659226362710424 80 44 24
0.049450019679758726 0.08284588658764672 -0.6691397013568615 80 44 23
0.048015367652115115 0.08043549616133097 -0.6714519857183521 78 43 22
0.047753939238986805 0.07987548627720958 -0.6744782956002431 76 42 23
0.04716479462294381 0.07879877777242161 -0.6773015415910678 77 44 25
0.04633728793972861 0.07734638341523917 -0.6799742598448643 79 47 28
0.0449567120914638 0.07502228039392071 -0.6822978927063801 75 43 23
0.04419290666207682 0.07367074072561626 -0.685001041892547 72 41 21
0.0439264973253385 0.0731033507873965 -0.6880140595592005 73 42 22
0.043150073691956135 0.0717321836125357 -0.6907036276916081 73 42 22
0.042210263899705044 0.07010370425749526 -0.6932856361094859 73 42 24
0.04269055569489186 0.07071317779799216 -0.6967706942988071 73 42 24
0.04486303959949988 0.07398871972078437 -0.7013463802096642 72 41 23
0.04848991922651496 0.07955497616299388 -0.7068745925572499 70 39 21
0.04872704231183504 0.07978014867015928 -0.7102285046376196 70 39 21
0.04773919843625301 0.07807563730947818 -0.7127871844688616 70 39 21
0.046094982223825506 0.0753375273996194 -0.714911532974383 70 39 21
0.04430654677014764 0.0723726950647613 -0.7169322191202043 70 38 21
0.042425961938431504 0.06926319971632273 -0.7188823118807556 70 37 20
0.042284317878939964 0.06889238741866131 -0.7219755583266837 69 36 19
0.039223040535928 0.06392460488194418 -0.7231235441813945 70 37 20
0.03846471207915475 0.0625833005349646 -0.7257955787724366 70 37 20
0.03833947002803875 0.062238776406217736 -0.7288897638084875 72 39 22
0.03674720749839257 0.059585033157178655 -0.7309933955611129 74 41 24
0.03579387022824342 0.05793731669370002 -0.7335219189288358 74 41 23
0.03437470975031623 0.05555670763016511 -0.7357282755031318 72 39 22
0.0332677798839857 0.05366779223635294 -0.7381408120165639 74 41 24
0.03289699716469876 0.05293747861839307 -0.7410538243808898 74 41 23
0.032819215510946964 0.05266822106839625 -0.7441679827616102 74 41 22
0.039112515044500674 0.06242214480677484 -0.7517017535284714 76 43 24
0.03742232393703687 0.059615464332298945 -0.7537131444196694 75 42 23
0.03989558981271851 0.06335813502306648 -0.7586284158231676 76 43 23
0.03993272243063893 0.06326847837453531 -0.7618478649556231 75 43 22
0.03713360899132023 0.05871827724119352 -0.7630669168843528 73 41 20
0.0387432754079116 0.06110175866832414 -0.7673949290648016 71 39 19
0.04384643140103531 0.06897786544721005 -0.7742205682022097 71 38 19
0.0412923924714789 0.06481346587262526 -0.775604391623572 73 40 21
0.042639747091007436 0.06678314932744346 -0.7797746155238595 75 42 23
0.03758399825207591 0.05868693577232234 -0.7793377434154902 74 41 22
0.02898582106353001 0.04502401916710681 -0.7763064399704587 74 41 22
0.031922644753538613 0.04949286489719887 -0.7816103232128412 75 42 23
0.03681636555296984 0.05703618081231007 -0.7883618727993569 73 40 21
0.03683144919239582 0.05691176376295039 -0.7915675852667979 73 40 20
0.03599923991582178 0.05545597475952986 -0.7941506909559672 73 40 20
0.039163041722253863 0.06027858231829239 -0.7996837887117241 74 41 21
0.041572029599428933 0.0639144494018978 -0.8046769660084072 76 42 22
0.040452963444575815 0.06200758886728863 -0.80705632251737 77 42 23
0.04206063600497246 0.06438387027847194 -0.8114705874293756 82 46 27
0.04359958415583944 0.06665171135270258 -0.8158441011641675 79 44 25
0.03394339182859641 0.05133808478668553 -0.8117813853127925 78 43 24
0.03378141879599435 0.05093563400080173 -0.814853117077276 77 42 23
0.036867640097378744 0.05563326219382109 -0.8203955340881559 73 37 16
0.035576563794603486 0.053457666402141266 -0.8226150967858413 79 43 22
0.025259331254120873 0.03711272073577508 -0.8179072597711693 80 44 24
0.019712707367059767 0.02825909168693888 -0.8168097058812565 78 42 23
0.017639430569676505 0.024858618467909946 -0.8183636217952516 80 43 24
0.01814790623052094 0.025510536984908683 -0.821909097221059 81 45 25
0.01640680314582082 0.022632049210317237 -0.8237063928611164 77 42 20
0.009261264385406899 0.011273716212996221 -0.821267639397657 75 40 17
0.0071870505890788 0.007874239275434902 -0.8227676235853084 76 41 19
0.004562954943087935 0.0036126205869553146 -0.8238225440610137 77 41 19
0.07312683288601654 0.11040748253774169 -0.894505013829394 77 41 15
0.014814904238107232 0.018820049266607367 -0.8508039924617649 78 41 15
0.012876744813451517 0.015635066180197374 -0.8523886750753334 81 43 16
0.010857381326803694 0.01232328181737996 -0.8538965054173208 84 44 18
0.00847963363308047 0.008450231942932707 -0.8551006062866441 85 48 21
0.009272740991452429 0.009547895646337456 -0.8588876624517743 84 48 22
0.008804770666644451 0.008668816686401959 -0.8616441107910361 86 52 28
0.008595160328759698 0.008194709104727707 -0.8646118876248572 87 56 33
0.009622933871907616 0.00965959182094181 -0.868604114094958 84 56 35
0.00952353495699014 0.009358014847262841 -0.8716668369416226 82 55 36
0.009728388922795407 0.009533094328395122 -0.8749838325279007 82 56 37
0.011306394228815062 0.011859204637646767 -0.8794529551840203 73 46 28
0.014102093215746854 0.01609224370856145 -0.884956254818872 75 47 33
0.01633150649130219 0.019437469512099362 -0.8900001879675292 76 48 35
0.015259847562079355 0.017612061884306335 -0.8922642494938207 73 47 34
0.013761838936736062 0.015119248514383565 -0.8941604993106981 72 45 33
0.011833195319899556 0.011952502457088246 -0.8956813315973385 69 43 30
0.012519893624284545 0.012881131902996779 -0.8994296902333757 64 40 27
0.011189757040252095 0.010652021331526762 -0.9014509912791357 58 39 24
0.01131794241369228 0.010706137110440536 -0.9047222711790979 59 36 22
0.014182107047825493 0.01504274670697811 -0.9103623947732823 64 41 27
0.019140990221358276 0.02265701113854729 -0.917839985810478 69 46 32
0.02160018171998703 0.02635779737733389 -0.923171295432449 72 48 35
0.020184421257793364 0.023994101759119632 -0.9251305878753324 75 49 35
0.020092042650014193 0.02370146942229824 -0.928243472096732 77 51 35
0.023128985490274354 0.028304840305664894 -0.9341125584826047 80 53 35
0.02183214617882248 0.026127427797278807 -0.9361717585295801 80 51 34
0.017347413260961904 0.01896358712621392 -0.9353969721671135 73 42 23
0.014724939891207725 0.01471380879660257 -0.9362526905492516 66 35 14
0.01852198703258206 0.020504801585745677 -0.9428258671946147 63 31 11
0.021804019641840137 0.025489248897565278 -0.9489621654342206 57 28 9
0.023801580776652898 0.02846417068678296 -0.9539649028915873 55 26 10
0.025799015969374638 0.03143827047293192 -0.9589810086006624 63 30 12
0.027606386400463825 0.03411459486562769 -0.9638385146621595 69 40 22
0.025024987335237087 0.029929513909174255 -0.9647210436920077 73 45 29
0.022037491766234055 0.025110345937550405 -0.9652184122344473 79 53 40
0.018330005033413158 0.019166655013359027 -0.9650396953425868 83 62 49
0.010255891187331764 0.0063996505523392505 -0.9608311200805999 88 69 58
0.012399873907678285 0.009602683843170964 -0.9659838169490135 90 72 62
0.010379198050750535 0.006297562160990006 -0.9673025048581401 90 72 62
0.00842819931178325 0.0031018376595393637 -0.968674294447293 91 72 65
0.009440283298059626 0.00453573578975161 -0.9727915438719325 94 75 68
0.0071620337395702505 0.0008294065213996227 -0.9738449508489571 95 78 70
0.005370528319166762 -0.002116033516384397 -0.9753410838723491 99 82 74
0.0023187502515013836 -0.007029334529910891 -0.9756429226767779 97 80 72
-5.3363829776387206e-05 -0.010880383078404054 -0.9765675624752292 96 79 71
-0.004143381143749569 -0.017413367667993382 -0.97585355488297 99 82 74
-0.005869136262926067 -0.02025367350591817 -0.9773587668132429 101 84 76
-0.0070241164589637875 -0.022202407221797837 -0.9793977141203962 101 84 76
-0.009830312602983171 -0.026728576770833817 -0.9798532102435253 100 83 75
-0.011716041002621025 -0.02981716968645161 -0.9811743801399667 97 80 72
-0.009836384084810093 -0.027028195350023168 -0.9861051821224933 95 78 71
-0.007505132831111892 -0.02353502489010416 -0.9914844003333646 96 79 72
-0.00945659091954553 -0.026725855332494886 -0.9927347293463977 95 79 72
-0.008912487191933313 -0.026022143811989182 -0.9963967604754547 90 72 65
-0.008926296314606744 -0.026189114600220387 -0.9995198557694818 81 62 55
-0.008805868630932544 -0.026146709118997802 -1.0027750922242775 73 54 43
-0.012126286412631915 -0.03147191758853177 -1.002659262082031 65 43 29
-0.014828645325524463 -0.03583216313627774 -1.0031314879318205 59 34 19
-0.018312470128446612 -0.04141048980790164 -1.0028169196398569 56 29 13
-0.01900489012650404 -0.042634631477386956 -1.0052440781715646 54 26 12
-0.01892817115653525 -0.04265925319450166 -1.0084315367061651 53 25 11
-0.01914536866271347 -0.043142226169040926 -1.0113278153019407 52 25 10
-0.019361282486349475 -0.04362318355365946 -1.0142250693440575 53 25 11
-0.021483765438300204 -0.047076330532848334 -1.0152112807912177 55 26 10
-0.020435559507669433 -0.04558649535538992 -1.019372807483134 56 27 11
-0.019531296479411438 -0.044321368925587676 -1.0233968089629386 57 28 12
-0.018778500687155177 -0.04329261514559096 -1.027274321142481 58 29 12
-0.019219025417158017 -0.044123735178711807 -1.0299466985465422 60 32 13
-0.020388196942563046 -0.04609015306525019 -1.0318756808731786 65 37 16
-0.021783508236377792 -0.048408617118045894 -1.0335674731647502 69 40 21
-0.022682438025393492 -0.04995340658139984 -1.035759932265718 72 45 28
-0.022416574134464705 -0.04968351131517637 -1.0391444183755931 79 54 37
-0.025392960654979604 -0.05446392446894094 -1.039190573599182 83 61 43
-0.024089946277265767 -0.052578478150663244 -1.0436423381337638 82 61 42
-0.02442099901129461 -0.05323823358711305 -1.0464092073190057 81 60 41
-0.023109856195516386 -0.05134075026937372 -1.0508828062286706 80 59 40
-0.023810008147938475 -0.052575349533189306 -1.053267793999564 81 60 41
-0.02600055923607348 -0.0561301745839934 -1.0540901288084394 81 60 41
-0.01338915088208023 -0.036641610872451255 -1.070432612535618 81 60 42
-0.021717355559283107 -0.04975124866970346 -1.0648160173558499 80 59 42
-0.03362877202710026 -0.0684355785055095 -1.0553651602329583 79 57 43
-0.020170921614452282 -0.04763426281826556 -1.0727023868223304 78 58 45
-0.018847547541862755 -0.04572005413567459 -1.0772387622690724 73 55 43
-0.013669310735913417 -0.03780808595595157 -1.0858906333522356 63 46 37
-0.012340935529426236 -0.03588753535314233 -1.090463391359362 46 31 23
-0.014112604671605626 -0.03879020859676846 -1.0917239631353706 43 28 21
-0.012399591844514064 -0.03627175201490672 -1.096719217557362 42 25 18
-0.013941191059777647 -0.038816141117067576 -1.0982185210082018 45 28 20
-0.013926288985237928 -0.03893934064443502 -1.1013916871256522 45 27 19
-0.014028809732278782 -0.03924520192516273 -1.1044387199758365 46 28 20
-0.021251074657936006 -0.0506221510200061 -1.099744815644628 49 31 21
-0.020080522128401522 -0.04894758825235754 -1.1041584065961227 51 31 22
-0.022850658596707228 -0.053399958429599756 -1.104270767806888 56 33 22
-0.02093519370158374 -0.05056760738727996 -1.1095058783558278 59 33 19
-0.018913681069231594 -0.04757102919973431 -1.114870855942282 66 37 19
-0.01825521460717594 -0.04669360477141009 -1.1187460734357784 82 51 30
-0.02188701679015812 -0.05248392697185528 -1.1178800852724367 82 57 35
-0.022608751716796036 -0.05375112511710972 -1.1202208520725623 80 59 37
-0.02256419045416913 -0.05382748574137146 -1.1234107502916029 81 58 40
-0.0241050792055335 -0.05636715556488302 -1.1248328679519826 79 56 38
-0.024552093183267766 -0.05720707544324578 -1.1274703491805624 79 56 38
-0.024842332626888446 -0.057803385491196776 -1.130281994238303 79 58 39
-0.02375855299215727 -0.056265511970076204 -1.1346391751290767 80 59 40
-0.02657503225071009 -0.060785374971343745 -1.1346025954541166 81 58 41
-0.024593721947212877 -0.05785387118030583 -1.1399790864597306 81 60 43
-0.02353083795335073 -0.05634910926559955 -1.1443269039796922 81 60 44
-0.02205389364695929 -0.05420183041495276 -1.1491538138024342 67 50 35
-0.02129040963848848 -0.05316266874032623 -1.1531769300436843 75 61 46
-0.02220250192601185 -0.05472482972378338 -1.1552883044401634 101 92 77
-0.023311328874430548 -0.05659213917248036 -1.15716915513569 139 135 125
-0.025252419340418004 -0.059750872304520725 -1.1580861884299667 165 164 160
-0.026080248170262596 -0.061181425716177726 -1.1602766849275465 180 179 177
-0.01289198249525543 -0.04086247076060916 -1.1786830630165746 188 187 185
0.012846817851316736 -0.0010741781144231466 -1.2117388253891255 193 192 190
-0.009309884279006975 -0.03560067374839822 -1.1892273132614621 196 196 194
0.005519703590122174 -0.012744034330687992 -1.2097319295035107 197 197 195
-0.05765804595235552 -0.11089263124153476 -1.1390622578875953 199 199 198
-0.059048046726935 -0.11318987486199897 -1.1404802442967035 200 200 200
-0.056119151706608014 -0.10878879573710795 -1.1469711910000742 202 202 202
0.06882875461918932 0.08482644398635181 -1.2974168611581374 202 202 202
0.09304534357718133 0.12221529361773106 -1.3295170264288334 202 202 202
-0.04188360174203988 -0.0872870535984622 -1.176129620550794 204 204 204
-0.027838132239202763 -0.0656590470326343 -1.1959831804891963 204 204 204
0.0971994844002411 0.20260547785012709 0.13293119790869612 184 184 184
0.08686749784107989 0.18575599038681911 0.12843648258064022 184 184 185
0.07950447589324193 0.17370987939956523 0.12439885234968716 184 184 186
