ply
format ascii 1.0
element vertex 858
property float x
property float y
property float z
property float nx
property float ny
property float nz
property uchar diffuse_red
property uchar diffuse_green
property uchar diffuse_blue
property uchar class
property uchar detection
end_header
-0.0318 0.1330 -0.4945 -0.968 0.224 0.115 49 28 15 0 0
-0.0319 0.1328 -0.5010 -0.944 -0.164 0.287 52 30 17 0 0
-0.0320 0.1323 -0.5171 -0.989 -0.139 0.052 52 29 17 0 0
-0.0306 0.1313 -0.5499 -0.997 -0.022 0.068 58 32 19 0 0
-0.0323 0.1314 -0.5526 -0.978 0.028 0.207 61 34 20 0 0
-0.0342 0.1315 -0.5554 -0.837 0.429 0.339 62 34 20 0 0
-0.0351 0.1315 -0.5584 -0.803 0.539 0.256 61 33 19 0 0
-0.0277 0.1302 -0.5767 -0.931 -0.357 0.073 61 33 19 0 0
-0.0291 0.1289 -0.6286 -0.903 -0.109 0.416 72 41 20 0 0
-0.0295 0.1289 -0.6318 -0.995 -0.095 -0.011 73 42 21 0 0
-0.0301 0.1288 -0.6349 -0.967 -0.071 0.247 75 45 21 0 0
-0.0288 0.1286 -0.6386 -0.927 -0.005 0.374 74 44 20 0 0
-0.0299 0.1286 -0.6415 -0.927 -0.005 0.374 72 42 18 0 0
-0.0311 0.1287 -0.6444 -0.927 -0.005 0.374 73 43 19 0 0
-0.0332 0.1281 -0.6734 -0.995 -0.072 -0.071 64 32 11 0 0
-0.0332 0.1280 -0.6767 -0.994 -0.086 -0.069 61 28 9 0 0
-0.0347 0.1280 -0.6795 -0.958 -0.283 -0.052 60 28 10 0 0
-0.1088 0.1287 -0.9199 -0.931 -0.332 0.151 68 45 32 0 0
-0.1084 0.1285 -0.9234 -0.959 -0.213 0.186 69 43 30 0 0
-0.1319 0.1297 -0.9645 -0.932 0.086 0.351 105 91 82 0 0
-0.1324 0.1297 -0.9676 -0.813 -0.583 0.015 105 91 82 0 0
-0.1348 0.1298 -0.9696 -0.963 0.211 0.166 105 91 82 0 0
-0.1350 0.1298 -0.9728 -0.950 0.311 0.036 105 91 82 0 0
-0.1347 0.1297 -0.9762 -0.873 0.078 0.482 105 91 81 0 0
-0.1364 0.1298 -0.9786 -0.865 0.144 0.481 104 90 81 0 0
-0.1894 0.1333 -1.0415 -0.940 -0.196 0.279 65 39 25 0 0
-0.1900 0.1333 -1.0444 -0.964 -0.141 0.226 66 41 29 0 0
-0.1901 0.1332 -1.0476 -0.992 0.046 0.118 70 47 34 0 0
-0.1738 0.1307 -1.0794 -0.970 0.180 -0.164 59 42 33 0 0
0.0379 0.1467 0.1266 -0.692 0.218 0.688 183 183 185 0 0
-0.0343 0.1528 0.0918 -0.904 0.421 0.077 66 34 12 0 0
-0.0414 0.1507 -0.0073 -0.985 -0.020 0.174 46 21 8 0 0
-0.0419 0.1507 -0.0103 -0.985 -0.020 0.174 49 23 11 0 0
-0.0382 0.1497 -0.0315 -0.979 0.198 0.042 42 20 7 0 0
-0.0380 0.1496 -0.0345 -0.993 -0.000 0.122 44 21 8 0 0
-0.0362 0.1492 -0.0436 -0.994 0.105 0.028 43 21 9 0 0
-0.0729 0.1519 -0.0760 -0.980 -0.198 -0.012 156 145 141 0 0
-0.0700 0.1459 -0.2796 -0.879 -0.207 0.429 42 28 24 0 0
-0.0714 0.1460 -0.2825 -0.879 -0.207 0.429 41 27 23 0 0
-0.0736 0.1458 -0.2945 -0.987 -0.040 -0.153 33 19 15 0 0
-0.0701 0.1453 -0.3012 -0.962 0.261 0.076 40 25 19 0 0
-0.0782 0.1457 -0.3154 -0.847 -0.162 0.506 44 22 12 0 0
-0.0837 0.1461 -0.3207 -0.941 0.133 0.312 44 24 14 0 0
-0.1233 0.1470 -0.4269 -0.966 0.256 0.049 58 29 12 0 0
-0.0594 0.1397 -0.4626 -0.383 -0.285 -0.879 62 40 31 0 0
-0.0319 0.1360 -0.5010 -0.914 -0.215 0.345 49 29 15 0 0
-0.0362 0.1357 -0.5258 -0.820 -0.562 -0.106 50 28 15 0 0
-0.0316 0.1347 -0.5464 -0.966 0.257 -0.023 52 28 14 0 0
-0.0305 0.1345 -0.5499 -0.976 0.027 0.216 54 29 16 0 0
-0.0330 0.1346 -0.5525 -0.983 0.145 0.112 58 31 18 0 0
-0.0344 0.1347 -0.5553 -0.898 0.368 0.241 65 37 22 0 0
-0.0322 0.1340 -0.5722 -0.962 -0.053 -0.267 58 30 16 0 0
-0.0333 0.1340 -0.5751 -0.971 -0.225 0.086 58 31 16 0 0
-0.0318 0.1338 -0.5788 -0.955 -0.297 -0.006 59 32 16 0 0
-0.0304 0.1321 -0.6348 -0.909 -0.133 0.395 74 43 19 0 0
-0.0349 0.1313 -0.6761 -0.943 -0.333 0.011 64 31 12 0 0
-0.1095 0.1324 -0.8999 -0.986 0.002 -0.166 52 32 21 0 0
-0.1068 0.1319 -0.9077 -0.929 -0.293 0.228 50 30 19 0 0
-0.1075 0.1319 -0.9106 -0.935 -0.319 0.155 50 30 19 0 0
-0.0993 0.1299 -0.9540 -0.941 -0.195 0.277 65 36 15 0 0
-0.1326 0.1327 -0.9707 -0.868 -0.012 0.496 107 92 84 0 0
-0.1340 0.1328 -0.9732 -0.983 -0.095 0.159 108 93 85 0 0
-0.1884 0.1361 -1.0453 -0.995 0.097 -0.001 71 45 34 0 0
-0.1874 0.1358 -1.0522 -0.979 0.032 -0.203 70 47 34 0 0
-0.1712 0.1335 -1.0775 -0.963 -0.069 -0.259 64 45 34 0 0
-0.1874 0.1335 -1.1333 -0.997 -0.044 -0.061 81 57 39 0 0
-0.0704 0.1547 -0.0761 -0.945 -0.035 0.326 146 135 133 0 0
-0.1338 0.1587 -0.1529 -0.968 -0.021 0.248 46 37 32 0 0
-0.0672 0.1480 -0.3047 -0.902 0.144 0.408 40 27 21 0 0
-0.0765 0.1487 -0.3126 -0.432 0.024 0.902 45 24 13 0 0
-0.0795 0.1489 -0.3152 -0.771 -0.210 0.601 44 21 12 0 0
-0.0512 0.1447 -0.3665 -0.875 -0.150 0.460 26 15 12 0 0
-0.1100 0.1494 -0.4052 -0.695 0.205 0.689 68 42 25 0 0
-0.1101 0.1483 -0.4421 -0.435 -0.273 -0.858 68 51 38 0 0
-0.0506 0.1419 -0.4678 -0.404 -0.223 -0.887 47 27 16 0 0
-0.0308 0.1378 -0.5466 -0.968 -0.158 0.194 50 27 13 0 0
-0.0336 0.1378 -0.5556 -0.921 -0.367 -0.129 62 35 18 0 0
-0.0315 0.1375 -0.5594 -0.994 -0.041 0.106 63 36 17 0 0
-0.0317 0.1374 -0.5626 -0.989 -0.098 0.107 58 30 17 0 0
-0.0337 0.1369 -0.5881 -0.998 -0.064 -0.013 62 34 17 0 0
-0.0318 0.1364 -0.5984 -0.895 0.401 -0.196 62 34 17 0 0
-0.0297 0.1358 -0.6121 -0.952 0.208 0.224 61 33 15 0 0
-0.0308 0.1359 -0.6150 -0.945 -0.069 0.319 61 32 14 0 0
-0.0309 0.1358 -0.6183 -0.980 -0.024 0.200 61 33 15 0 0
-0.0327 0.1359 -0.6210 -0.995 0.058 0.077 63 35 16 0 0
-0.0369 0.1347 -0.6788 -0.992 -0.080 0.093 60 28 10 0 0
-0.0398 0.1348 -0.6844 -0.802 -0.145 0.580 61 30 12 0 0
-0.0442 0.1349 -0.6961 -0.897 0.049 0.439 58 28 10 0 0
-0.0463 0.1350 -0.6987 -0.881 -0.234 0.411 60 29 10 0 0
-0.0596 0.1359 -0.7137 -0.947 0.048 0.317 59 31 11 0 0
-0.1134 0.1372 -0.8557 -0.962 -0.270 0.044 75 38 14 0 0
-0.1138 0.1371 -0.8588 -0.951 -0.307 0.036 75 39 15 0 0
-0.1139 0.1370 -0.8620 -0.951 -0.307 0.036 74 42 21 0 0
-0.1161 0.1372 -0.8643 -0.932 -0.045 0.360 77 50 33 0 0
-0.1329 0.1359 -0.9705 -0.662 -0.684 0.306 109 94 87 0 0
-0.1337 0.1359 -0.9734 -0.812 -0.518 0.268 109 94 87 0 0
-0.1353 0.1359 -0.9758 -0.736 -0.538 0.411 107 92 85 0 0
-0.1623 0.1379 -1.0011 -0.921 -0.219 0.322 72 45 34 0 0
-0.1810 0.1391 -1.0203 -0.928 0.154 0.339 60 29 11 0 0
-0.1887 0.1372 -1.1162 -0.992 -0.104 -0.078 78 50 27 0 0
-0.1877 0.1367 -1.1297 -0.997 -0.044 -0.061 79 55 37 0 0
-0.0340 0.1567 0.0137 -0.988 0.151 -0.037 56 27 9 0 0
-0.0471 0.1558 -0.0648 -0.456 -0.469 0.756 64 49 40 0 0
-0.0765 0.1528 -0.2727 -0.988 -0.120 -0.094 43 30 24 0 0
-0.0743 0.1522 -0.2883 -0.970 0.205 -0.133 42 29 23 0 0
-0.0827 0.1521 -0.3209 -0.976 -0.164 0.142 42 22 15 0 0
-0.0842 0.1522 -0.3238 -0.996 0.036 -0.080 42 22 14 0 0
-0.1084 0.1522 -0.4055 -0.832 0.087 0.547 65 40 23 0 0
-0.1180 0.1523 -0.4373 -0.852 -0.118 -0.510 67 46 33 0 0
-0.0352 0.1432 -0.4777 -0.954 0.125 -0.272 45 25 14 0 0
-0.0396 0.1423 -0.5281 -0.977 -0.182 -0.113 49 25 13 0 0
-0.0287 0.1407 -0.5471 -0.967 -0.110 0.231 50 27 13 0 0
-0.0289 0.1406 -0.5503 -0.953 -0.140 0.270 51 28 14 0 0
-0.0308 0.1407 -0.5564 -0.977 -0.214 -0.014 57 31 13 0 0
-0.0306 0.1406 -0.5596 -0.981 -0.098 0.167 62 36 17 0 0
-0.0347 0.1403 -0.5813 -0.874 -0.465 0.140 56 30 14 0 0
-0.0349 0.1403 -0.5845 -0.934 -0.310 0.180 57 30 15 0 0
-0.0355 0.1402 -0.5876 -0.934 -0.310 0.180 60 33 18 0 0
-0.0385 0.1403 -0.5965 -0.800 0.575 0.168 58 31 15 0 0
-0.0373 0.1388 -0.6458 -0.939 0.277 0.202 66 31 10 0 0
-0.0402 0.1388 -0.6547 -0.893 0.308 0.327 63 30 9 0 0
-0.0380 0.1379 -0.6817 -0.870 0.200 0.451 60 29 11 0 0
-0.0394 0.1379 -0.6845 -0.870 0.200 0.451 62 31 13 0 0
-0.0643 0.1387 -0.7448 -0.967 0.152 0.202 51 22 8 0 0
-0.0617 0.1383 -0.7490 -0.974 0.117 -0.194 52 23 8 0 0
-0.0617 0.1379 -0.7621 -0.881 0.450 -0.147 51 22 7 0 0
-0.0657 0.1380 -0.7738 -0.986 0.005 0.165 53 24 10 0 0
-0.0650 0.1378 -0.7774 -0.966 0.207 0.154 52 24 10 0 0
-0.0708 0.1383 -0.7817 -0.795 -0.583 -0.169 49 21 7 0 0
-0.1170 0.1404 -0.8639 -0.994 0.049 0.099 79 52 33 0 0
-0.1077 0.1385 -0.9007 -0.929 -0.112 0.352 53 33 22 0 0
-0.1054 0.1369 -0.9510 -0.845 -0.082 0.528 64 36 15 0 0
-0.1306 0.1387 -0.9716 -0.716 0.295 0.633 105 90 82 0 0
-0.1325 0.1388 -0.9739 -0.746 0.063 0.663 113 98 91 0 0
-0.1617 0.1409 -0.9981 -0.869 -0.297 0.395 80 58 51 0 0
-0.1630 0.1410 -1.0007 -0.921 -0.219 0.322 71 44 33 0 0
-0.1638 0.1410 -1.0035 -0.955 -0.040 0.294 61 32 18 0 0
-0.1833 0.1427 -1.0093 -0.839 0.540 -0.069 59 28 10 0 0
-0.1811 0.1422 -1.0202 -0.936 -0.172 0.306 60 29 11 0 0
-0.1845 0.1417 -1.0506 -0.989 -0.141 0.053 70 46 34 0 0
-0.1750 0.1378 -1.1569 -0.996 0.017 -0.085 65 48 33 0 0
-0.1748 0.1377 -1.1604 -0.964 -0.148 -0.222 63 47 34 0 0
-0.0522 0.1592 -0.0677 -0.393 -0.153 0.907 93 76 69 0 0
-0.0831 0.1617 -0.0848 -0.903 0.428 0.014 48 28 19 0 0
-0.1230 0.1633 -0.1597 -0.967 -0.064 -0.248 48 38 36 0 0
-0.0925 0.1589 -0.2191 -0.982 -0.136 -0.133 48 37 33 0 0
-0.0776 0.1559 -0.2757 -0.993 -0.103 -0.052 41 27 24 0 0
-0.0683 0.1533 -0.3387 -0.897 0.104 -0.430 25 12 10 0 0
-0.1216 0.1559 -0.4273 -0.922 0.357 0.149 54 25 10 0 0
-0.1140 0.1549 -0.4382 -0.811 -0.347 -0.471 66 45 31 0 0
-0.0372 0.1466 -0.4773 -0.927 0.154 -0.341 44 24 13 0 0
-0.0405 0.1456 -0.5247 -0.973 -0.225 -0.057 47 25 12 0 0
-0.0403 0.1455 -0.5280 -0.973 -0.225 -0.057 48 24 13 0 0
-0.0291 0.1437 -0.5568 -0.922 0.109 0.372 54 29 11 0 0
-0.0298 0.1436 -0.5599 -0.997 0.073 0.014 56 30 12 0 0
-0.0317 0.1438 -0.5626 -0.926 -0.150 0.345 58 32 18 0 0
-0.0336 0.1432 -0.5881 -0.917 0.398 -0.035 53 27 14 0 0
-0.0367 0.1435 -0.5905 -0.968 0.211 -0.138 53 27 14 0 0
-0.0347 0.1432 -0.5943 -0.973 0.204 -0.105 52 26 13 0 0
-0.0337 0.1430 -0.5979 -0.993 -0.094 0.065 53 26 12 0 0
-0.0279 0.1420 -0.6126 -0.989 -0.120 0.083 56 28 14 0 0
-0.0573 0.1418 -0.7211 -1.000 0.016 0.006 53 24 9 0 0
-0.0638 0.1418 -0.7449 -0.967 0.152 0.202 52 23 9 0 0
-0.0621 0.1414 -0.7522 -0.986 0.058 -0.155 52 23 9 0 0
-0.0607 0.1412 -0.7559 -0.966 -0.254 0.044 52 23 9 0 0
-0.0590 0.1409 -0.7599 -0.963 -0.268 -0.026 50 21 7 0 0
-0.0807 0.1422 -0.7877 -0.718 -0.617 0.322 49 21 7 0 0
-0.1013 0.1433 -0.8185 -0.917 0.396 0.055 57 26 8 0 0
-0.1227 0.1440 -0.8646 -0.966 0.158 0.205 81 54 37 0 0
-0.1233 0.1440 -0.8676 -0.966 0.158 0.205 78 52 35 0 0
-0.1246 0.1440 -0.8735 -0.866 0.181 0.466 75 52 38 0 0
-0.1268 0.1440 -0.8790 -0.976 -0.177 0.130 74 51 38 0 0
-0.1278 0.1440 -0.8817 -0.923 -0.097 0.372 67 45 32 0 0
-0.1081 0.1417 -0.9004 -0.943 0.266 -0.200 53 33 22 0 0
-0.1086 0.1415 -0.9068 -0.947 0.253 -0.197 48 28 17 0 0
-0.1076 0.1413 -0.9105 -0.989 0.146 0.030 47 27 16 0 0
-0.1059 0.1401 -0.9508 -0.814 0.105 0.571 66 38 17 0 0
-0.1321 0.1420 -0.9708 -0.786 -0.168 0.595 104 89 82 0 0
-0.1636 0.1441 -1.0004 -0.944 -0.208 0.255 73 46 36 0 0
-0.1832 0.1454 -1.0222 -0.920 0.210 0.331 60 29 11 0 0
-0.1871 0.1455 -1.0297 -0.899 -0.294 0.325 67 36 18 0 0
-0.1883 0.1455 -1.0355 -0.978 0.038 0.203 65 38 19 0 0
-0.1885 0.1452 -1.0451 -0.891 0.332 0.309 71 46 33 0 0
-0.1876 0.1430 -1.1232 -0.994 0.100 0.047 79 54 32 0 0
-0.0331 0.1622 -0.0046 -0.989 0.147 0.026 44 16 5 0 0
-0.0332 0.1622 -0.0076 -0.989 0.147 0.026 50 25 11 0 0
-0.0331 0.1620 -0.0136 -0.988 0.151 -0.024 46 22 7 0 0
-0.0332 0.1617 -0.0257 -0.982 0.170 0.085 48 25 11 0 0
-0.0331 0.1610 -0.0500 -0.932 0.362 0.026 41 19 7 0 0
-0.0388 0.1612 -0.0621 -0.740 0.235 0.630 37 15 4 0 0
-0.0825 0.1646 -0.0849 -0.985 0.120 0.121 46 27 16 0 0
-0.0834 0.1645 -0.0908 -0.982 0.070 0.174 33 15 8 0 0
-0.1004 0.1657 -0.1050 -0.544 -0.209 0.812 84 65 59 0 0
-0.1485 0.1691 -0.1433 -0.972 -0.172 0.158 43 20 8 0 0
-0.0673 0.1563 -0.3389 -0.834 0.262 -0.486 23 12 9 0 0
-0.1056 0.1581 -0.4031 -0.738 0.285 0.612 51 27 13 0 0
-0.1076 0.1582 -0.4057 -0.839 0.257 0.479 68 42 26 0 0
-0.1088 0.1582 -0.4086 -0.879 0.247 0.407 78 59 47 0 0
-0.1241 0.1590 -0.4329 -0.885 0.341 -0.317 60 33 18 0 0
-0.0340 0.1493 -0.4845 -0.830 -0.527 -0.182 40 21 10 0 0
-0.0333 0.1489 -0.4975 -0.971 -0.104 0.216 46 24 13 0 0
-0.0377 0.1492 -0.4997 -1.000 0.008 -0.002 46 24 13 0 0
-0.0377 0.1491 -0.5029 -0.996 -0.010 0.093 46 24 13 0 0
-0.0380 0.1491 -0.5060 -0.996 -0.010 0.093 47 25 14 0 0
-0.0299 0.1468 -0.5599 -0.904 0.360 0.231 54 28 15 0 0
-0.0823 0.1454 -0.7903 -0.474 -0.627 0.619 48 20 7 0 0
-0.1002 0.1463 -0.8190 -0.910 0.390 0.140 56 24 10 0 0
-0.1005 0.1461 -0.8254 -0.917 0.396 0.055 57 25 10 0 0
-0.1282 0.1472 -0.8816 -0.908 -0.145 0.394 70 45 33 0 0
-0.1072 0.1447 -0.9008 -0.943 0.266 -0.200 54 33 20 0 0
-0.1085 0.1448 -0.9035 -0.886 0.404 -0.227 51 31 18 0 0
-0.1069 0.1444 -0.9108 -0.911 0.374 -0.175 48 28 15 0 0
-0.1066 0.1443 -0.9142 -0.886 0.453 -0.096 57 36 22 0 0
-0.1062 0.1439 -0.9276 -0.997 0.052 0.050 68 42 27 0 0
-0.1078 0.1433 -0.9531 -0.735 0.285 0.615 68 39 21 0 0
-0.1642 0.1473 -1.0000 -0.944 -0.208 0.255 75 47 36 0 0
-0.1654 0.1473 -1.0026 -0.888 -0.393 0.241 62 34 17 0 0
-0.1828 0.1485 -1.0192 -0.965 -0.060 0.256 61 30 12 0 0
-0.1835 0.1485 -1.0220 -0.965 -0.060 0.256 61 30 12 0 0
-0.1837 0.1484 -1.0251 -0.966 0.246 0.074 66 33 14 0 0
-0.1869 0.1484 -1.0363 -0.965 -0.259 0.039 66 37 19 0 0
-0.1913 0.1484 -1.0499 -1.000 0.007 -0.029 71 48 34 0 0
-0.1885 0.1462 -1.1226 -0.985 0.166 0.043 76 50 29 0 0
-0.1692 0.1434 -1.1604 -0.702 -0.008 0.712 67 48 34 0 0
-0.0321 0.1680 0.0975 -0.948 0.301 0.103 78 46 22 0 0
-0.0821 0.1676 -0.0850 -0.982 0.070 0.174 45 26 15 0 0
-0.0832 0.1675 -0.0909 -0.982 0.070 0.174 35 16 9 0 0
-0.1312 0.1711 -0.1182 -0.875 -0.008 0.483 157 146 143 0 0
-0.0744 0.1612 -0.2946 -0.903 -0.207 0.376 33 19 16 0 0
-0.0809 0.1612 -0.3183 -0.965 -0.145 0.217 41 21 14 0 0
-0.1068 0.1612 -0.4028 -0.766 0.022 0.643 50 25 11 0 0
-0.1085 0.1613 -0.4056 -0.803 -0.008 0.596 68 41 25 0 0
-0.1105 0.1614 -0.4082 -0.859 0.001 0.512 85 65 53 0 0
-0.1200 0.1618 -0.4247 -0.996 0.080 0.037 56 27 11 0 0
-0.1201 0.1618 -0.4277 -0.996 0.080 0.037 53 24 9 0 0
-0.0340 0.1516 -0.5135 -0.982 0.122 -0.145 43 21 10 0 0
-0.0274 0.1505 -0.5346 -0.891 0.418 -0.177 47 23 12 0 0
-0.0261 0.1498 -0.5544 -0.849 0.255 0.463 48 21 10 0 0
-0.0443 0.1484 -0.6698 -0.887 0.363 0.284 61 30 12 0 0
-0.0363 0.1471 -0.6889 -0.980 -0.194 0.041 55 25 10 0 0
-0.0576 0.1482 -0.7210 -0.991 0.081 0.104 56 27 12 0 0
-0.0579 0.1481 -0.7241 -0.991 0.081 0.104 55 26 11 0 0
-0.0587 0.1481 -0.7271 -0.975 0.127 0.181 53 24 10 0 0
-0.0716 0.1481 -0.7715 -0.994 -0.004 0.109 49 21 7 0 0
-0.0708 0.1479 -0.7751 -0.954 -0.004 0.299 48 20 7 0 0
-0.0970 0.1492 -0.8170 -0.980 0.201 0.006 54 22 8 0 0
-0.0969 0.1491 -0.8203 -0.931 -0.136 0.337 54 22 9 0 0
-0.0996 0.1491 -0.8290 -0.766 0.460 0.449 57 26 8 0 0
-0.1202 0.1505 -0.8462 -0.910 -0.335 0.245 71 33 9 0 0
-0.1216 0.1500 -0.8683 -0.987 0.064 0.146 76 50 35 0 0
-0.1146 0.1490 -0.8844 -0.994 -0.021 0.107 73 47 35 0 0
-0.1077 0.1478 -0.9039 -0.950 0.297 -0.097 50 28 16 0 0
-0.1074 0.1477 -0.9073 -0.950 0.297 -0.097 49 27 16 0 0
-0.1071 0.1476 -0.9107 -0.950 0.297 -0.097 51 29 16 0 0
-0.1060 0.1473 -0.9178 -1.000 -0.024 0.018 65 42 28 0 0
-0.1121 0.1468 -0.9543 -0.829 -0.150 0.540 72 43 25 0 0
-0.1227 0.1477 -0.9590 -0.923 -0.053 0.382 94 79 68 0 0
-0.1242 0.1477 -0.9616 -0.815 -0.000 0.580 93 79 70 0 0
-0.1419 0.1491 -0.9724 -0.897 0.115 0.427 109 95 86 0 0
-0.1430 0.1491 -0.9751 -0.965 0.248 0.088 114 100 91 0 0
-0.1433 0.1490 -0.9782 -0.965 0.248 0.088 111 96 89 0 0
-0.1659 0.1507 -0.9926 -0.732 -0.003 0.681 92 77 68 0 0
-0.1680 0.1508 -0.9948 -0.732 -0.003 0.681 82 62 53 0 0
-0.1715 0.1510 -0.9994 -0.586 0.190 0.788 63 34 17 0 0
-0.1820 0.1515 -1.0163 -0.949 -0.099 0.298 63 30 11 0 0
-0.1926 0.1517 -1.0460 -0.999 -0.025 -0.028 71 48 33 0 0
-0.1724 0.1487 -1.0896 -0.878 0.276 0.391 43 26 19 0 0
-0.1849 0.1499 -1.0857 -0.977 0.042 -0.210 37 19 15 0 0
-0.1879 0.1491 -1.1261 -0.991 0.063 0.117 75 50 30 0 0
-0.0042 0.1690 0.1171 -0.498 -0.047 0.866 126 107 100 0 0
-0.0263 0.1706 0.1007 -0.904 0.345 0.255 97 75 60 0 0
-0.0273 0.1706 0.0977 -0.916 0.359 0.178 81 49 24 0 0
-0.0296 0.1693 0.0406 -0.948 0.295 0.116 59 26 7 0 0
-0.0870 0.1709 -0.0908 -0.955 -0.073 0.287 36 17 10 0 0
-0.0729 0.1645 -0.2826 -0.988 0.014 0.155 39 26 20 0 0
-0.0736 0.1645 -0.2855 -0.974 0.065 0.218 42 29 24 0 0
-0.0738 0.1641 -0.2978 -1.000 0.007 0.030 38 23 18 0 0
-0.0807 0.1646 -0.3030 -0.986 -0.011 0.168 35 24 17 0 0
-0.0582 0.1613 -0.3530 -0.881 0.361 -0.307 24 16 11 0 0
-0.0745 0.1618 -0.3875 -0.978 -0.205 -0.021 39 24 17 0 0
-0.0744 0.1617 -0.3906 -0.978 -0.205 -0.021 72 53 41 0 0
-0.1065 0.1642 -0.4029 -0.803 -0.008 0.596 51 24 11 0 0
-0.1188 0.1647 -0.4280 -0.967 0.250 0.037 58 29 14 0 0
-0.0897 0.1615 -0.4498 -0.447 -0.203 -0.871 66 46 32 0 0
-0.0389 0.1561 -0.4802 -0.955 0.262 0.143 44 24 13 0 0
-0.0396 0.1561 -0.4833 -0.974 0.217 0.071 46 24 13 0 0
-0.0373 0.1558 -0.4870 -0.811 0.578 -0.086 46 24 13 0 0
-0.0320 0.1550 -0.4979 -0.949 0.264 0.171 45 23 12 0 0
-0.0293 0.1541 -0.5244 -0.977 0.055 0.208 44 20 12 0 0
-0.0297 0.1541 -0.5275 -0.945 -0.166 0.281 46 22 14 0 0
-0.0345 0.1531 -0.5782 -0.990 0.007 0.141 47 21 8 0 0
-0.0569 0.1515 -0.7147 -0.872 -0.054 0.486 55 26 12 0 0
-0.0577 0.1515 -0.7176 -0.859 0.114 0.499 57 28 13 0 0
-0.0591 0.1515 -0.7204 -0.830 0.033 0.556 57 28 12 0 0
-0.0722 0.1516 -0.7615 -0.970 -0.194 0.144 53 24 10 0 0
-0.0719 0.1513 -0.7714 -0.989 -0.092 -0.112 49 20 6 0 0
-0.0709 0.1511 -0.7751 -0.971 -0.158 0.180 47 19 7 0 0
-0.0765 0.1511 -0.7925 -0.846 -0.209 0.490 46 18 6 0 0
-0.0781 0.1512 -0.7952 -0.700 0.130 0.703 48 18 7 0 0
-0.0720 0.1501 -0.8141 -0.791 0.381 0.479 52 23 9 0 0
-0.0937 0.1522 -0.8086 -0.972 0.060 0.229 52 23 9 0 0
-0.0964 0.1524 -0.8107 -0.899 0.336 0.280 54 22 9 0 0
-0.0965 0.1523 -0.8140 -0.924 0.159 0.347 53 21 10 0 0
-0.0950 0.1521 -0.8178 -0.948 -0.057 0.314 53 21 10 0 0
-0.0960 0.1521 -0.8207 -0.948 -0.057 0.314 54 22 11 0 0
-0.0977 0.1521 -0.8265 -0.953 0.285 -0.101 56 24 9 0 0
-0.1220 0.1532 -0.8681 -0.970 0.102 -0.222 76 50 35 0 0
-0.1208 0.1530 -0.8719 -0.993 -0.066 0.097 76 50 35 0 0
-0.1161 0.1523 -0.8804 -0.998 -0.053 -0.021 71 45 33 0 0
-0.1149 0.1521 -0.8843 -0.995 -0.080 0.051 73 47 35 0 0
-0.1077 0.1508 -0.9071 -0.954 -0.062 -0.292 49 25 15 0 0
-0.1076 0.1507 -0.9104 -0.997 -0.076 0.018 52 30 17 0 0
-0.1073 0.1506 -0.9138 -0.998 0.011 0.057 60 38 24 0 0
-0.1061 0.1504 -0.9177 -0.987 -0.074 0.140 66 43 29 0 0
-0.1046 0.1501 -0.9250 -0.978 0.200 -0.067 69 43 28 0 0
-0.1063 0.1502 -0.9275 -0.915 0.348 0.204 67 41 26 0 0
-0.1027 0.1496 -0.9358 -0.994 -0.026 0.109 66 40 24 0 0
-0.1125 0.1500 -0.9541 -0.829 -0.150 0.540 72 44 25 0 0
-0.1431 0.1522 -0.9751 -0.997 -0.017 0.081 106 92 83 0 0
-0.1687 0.1539 -0.9944 -0.785 0.002 0.620 82 62 52 0 0
-0.1819 0.1545 -1.0196 -0.948 -0.045 0.315 65 30 10 0 0
-0.1831 0.1542 -1.0318 -0.939 0.236 0.252 70 38 18 0 0
-0.1327 0.1771 -0.1212 -0.945 0.323 -0.045 118 104 100 0 0
-0.0938 0.1708 -0.2283 -0.790 -0.189 -0.584 44 33 29 0 0
-0.0909 0.1705 -0.2316 -0.769 -0.252 -0.588 43 32 28 0 0
-0.0733 0.1672 -0.2948 -0.724 0.205 0.658 36 22 19 0 0
-0.0740 0.1672 -0.2978 -0.924 0.299 -0.236 38 23 18 0 0
-0.1083 0.1674 -0.4026 -0.959 0.113 0.261 55 27 14 0 0
-0.1088 0.1674 -0.4056 -0.883 0.027 0.469 66 37 22 0 0
-0.1206 0.1678 -0.4277 -0.969 -0.157 0.192 57 28 11 0 0
-0.1233 0.1679 -0.4332 -0.855 -0.459 0.243 61 34 19 0 0
-0.1167 0.1672 -0.4377 -0.761 0.487 -0.430 65 41 28 0 0
-0.0381 0.1592 -0.4804 -0.955 0.262 0.143 47 25 15 0 0
-0.0389 0.1592 -0.4834 -0.974 0.217 0.071 47 23 14 0 0
-0.0355 0.1584 -0.5035 -0.986 -0.090 -0.142 45 22 13 0 0
-0.0325 0.1575 -0.5268 -0.774 -0.059 0.630 46 21 13 0 0
-0.0424 0.1546 -0.6672 -0.991 0.034 0.129 58 27 9 0 0
-0.0570 0.1546 -0.7146 -0.872 -0.054 0.486 56 27 13 0 0
-0.0733 0.1543 -0.7807 -0.921 0.192 0.339 48 19 8 0 0
-0.0745 0.1544 -0.7835 -0.896 0.255 0.363 48 20 8 0 0
-0.0952 0.1551 -0.8243 -0.996 -0.082 -0.032 55 23 10 0 0
-0.1158 0.1564 -0.8416 -0.985 0.076 -0.156 67 30 11 0 0
-0.1135 0.1553 -0.8783 -0.997 0.079 0.023 75 48 35 0 0
-0.1125 0.1548 -0.8918 -0.987 0.134 -0.085 65 42 29 0 0
-0.1079 0.1539 -0.9103 -0.989 -0.139 0.056 53 30 18 0 0
-0.1113 0.1531 -0.9514 -0.922 -0.094 0.376 67 39 19 0 0
-0.1402 0.1551 -0.9732 -0.884 -0.055 0.464 98 84 74 0 0
-0.1687 0.1570 -0.9943 -0.814 -0.019 0.581 85 65 56 0 0
-0.1934 0.1556 -1.1293 -0.988 -0.001 0.152 76 51 35 0 0
-0.1925 0.1554 -1.1331 -0.988 -0.145 -0.053 75 51 35 0 0
-0.1923 0.1553 -1.1364 -0.988 -0.145 -0.053 74 52 36 0 0
-0.0649 0.1754 -0.0738 -0.929 -0.191 0.316 124 106 100 0 0
-0.0661 0.1754 -0.0767 -0.906 -0.111 0.409 124 110 107 0 0
-0.0835 0.1765 -0.0941 -0.904 0.111 0.413 35 20 13 0 0
-0.1378 0.1803 -0.1268 -0.976 -0.068 0.205 77 52 39 0 0
-0.1041 0.1751 -0.2152 -0.920 -0.314 -0.233 46 35 32 0 0
-0.1034 0.1749 -0.2183 -0.919 -0.368 -0.145 46 35 32 0 0
-0.1030 0.1748 -0.2213 -0.861 -0.506 0.050 45 34 31 0 0
-0.0735 0.1703 -0.2949 -0.888 0.327 0.324 35 20 17 0 0
-0.0757 0.1703 -0.3007 -0.905 0.158 0.394 32 17 12 0 0
-0.0780 0.1705 -0.3034 -0.921 0.317 0.227 38 23 18 0 0
-0.0784 0.1704 -0.3065 -0.874 0.236 0.426 47 32 27 0 0
-0.0802 0.1705 -0.3093 -0.916 0.332 0.223 56 40 33 0 0
-0.0819 0.1703 -0.3213 -0.896 0.298 0.328 42 22 13 0 0
-0.0730 0.1678 -0.3878 -0.938 0.231 0.257 44 26 18 0 0
-0.1105 0.1705 -0.4083 -0.735 0.124 0.666 79 56 45 0 0
-0.1128 0.1706 -0.4109 -0.735 0.124 0.666 119 101 91 0 0
-0.1208 0.1708 -0.4307 -0.966 0.000 0.257 55 26 8 0 0
-0.0380 0.1624 -0.4805 -0.974 0.217 0.071 48 23 15 0 0
-0.0363 0.1617 -0.5001 -0.981 0.108 -0.158 46 23 13 0 0
-0.0380 0.1588 -0.6163 -0.963 0.218 0.156 50 22 9 0 0
-0.0417 0.1582 -0.6510 -0.995 -0.036 0.094 71 39 16 0 0
-0.0434 0.1577 -0.6734 -0.984 -0.169 0.048 55 26 10 0 0
-0.0577 0.1578 -0.7176 -0.942 -0.051 0.332 55 26 11 0 0
-0.0611 0.1575 -0.7394 -0.988 0.151 0.008 52 23 9 0 0
-0.0611 0.1574 -0.7427 -0.988 0.151 0.008 53 24 10 0 0
-0.0731 0.1583 -0.7481 -0.975 0.212 -0.071 54 25 11 0 0
-0.0728 0.1582 -0.7515 -0.976 0.183 -0.116 53 24 10 0 0
-0.0724 0.1581 -0.7549 -0.976 0.183 -0.116 53 24 10 0 0
-0.0720 0.1580 -0.7583 -0.976 0.183 -0.116 53 24 10 0 0
-0.0716 0.1578 -0.7617 -0.976 0.183 -0.116 53 24 10 0 0
-0.0770 0.1574 -0.7956 -0.427 0.429 0.796 47 19 7 0 0
-0.1051 0.1562 -0.9345 -0.997 0.070 0.033 70 43 25 0 0
-0.1088 0.1561 -0.9493 -0.942 0.157 0.296 65 34 14 0 0
-0.1149 0.1565 -0.9529 -0.747 0.365 0.556 73 43 22 0 0
-0.1430 0.1583 -0.9783 -0.947 -0.274 0.168 111 96 89 0 0
-0.1832 0.1596 -1.0607 -0.851 0.494 0.177 70 47 31 0 0
-0.2481 0.1627 -1.1534 -0.864 -0.432 0.260 200 200 200 0 0
-0.2449 0.1620 -1.1681 -0.772 -0.573 -0.273 204 204 204 0 0
-0.0174 0.1791 0.1070 -0.763 0.226 0.605 114 90 75 0 0
-0.0194 0.1792 0.1039 -0.951 0.308 0.024 90 69 62 0 0
-0.0241 0.1778 0.0345 -0.961 0.267 0.077 62 29 10 0 0
-0.1380 0.1832 -0.1268 -0.969 0.010 0.248 75 51 35 0 0
-0.0880 0.1766 -0.2199 -0.795 0.607 0.020 46 34 28 0 0
-0.0913 0.1768 -0.2226 -0.716 0.697 0.040 45 34 28 0 0
-0.0740 0.1734 -0.2948 -0.950 0.176 0.259 34 19 16 0 0
-0.0773 0.1735 -0.3005 -0.918 0.115 0.379 32 17 12 0 0
-0.0770 0.1734 -0.3036 -0.845 0.171 0.507 40 25 20 0 0
-0.0791 0.1735 -0.3064 -0.813 0.132 0.566 41 26 20 0 0
-0.0374 0.1654 -0.4838 -0.938 0.327 -0.111 44 20 8 0 0
-0.0378 0.1653 -0.4869 -0.974 0.217 0.071 47 23 11 0 0
-0.0356 0.1648 -0.5003 -0.972 -0.007 -0.234 46 23 11 0 0
-0.0403 0.1624 -0.6058 -0.991 0.009 -0.134 54 26 12 0 0
-0.0399 0.1623 -0.6092 -0.991 0.009 -0.134 52 24 12 0 0
-0.0394 0.1622 -0.6126 -0.991 0.009 -0.134 50 22 10 0 0
-0.0410 0.1615 -0.6447 -0.999 0.043 0.030 72 40 17 0 0
-0.0556 0.1609 -0.7118 -0.995 0.077 -0.068 51 22 8 0 0
-0.0562 0.1609 -0.7149 -0.993 -0.075 -0.086 51 22 8 0 0
-0.0563 0.1607 -0.7214 -0.939 0.011 0.344 53 24 9 0 0
-0.0603 0.1605 -0.7429 -0.941 0.280 0.187 53 24 10 0 0
-0.0728 0.1616 -0.7416 -0.908 0.396 0.137 55 26 12 0 0
-0.0733 0.1616 -0.7447 -0.908 0.396 0.137 55 26 12 0 0
-0.0951 0.1618 -0.8080 -0.730 -0.363 0.578 52 20 9 0 0
-0.0972 0.1619 -0.8104 -0.548 0.153 0.823 52 20 9 0 0
-0.0984 0.1618 -0.8164 -0.839 -0.251 0.483 56 24 10 0 0
-0.0988 0.1618 -0.8195 -0.992 0.085 -0.092 56 24 10 0 0
-0.1001 0.1618 -0.8222 -0.960 0.130 0.246 56 24 10 0 0
-0.1175 0.1626 -0.8473 -0.833 0.477 0.278 72 35 9 0 0
-0.1175 0.1620 -0.8700 -0.967 -0.203 0.152 77 50 33 0 0
-0.1175 0.1620 -0.8733 -0.994 -0.012 -0.110 78 50 35 0 0
-0.1201 0.1612 -0.9111 -0.824 -0.439 0.358 67 44 30 0 0
-0.1170 0.1605 -0.9256 -0.957 -0.261 -0.127 71 43 27 0 0
-0.1049 0.1593 -0.9346 -0.997 0.070 0.033 70 43 25 0 0
-0.1157 0.1596 -0.9558 -0.798 -0.284 0.532 76 47 29 0 0
-0.1505 0.1617 -0.9907 -0.931 0.321 0.174 109 93 86 0 0
-0.1504 0.1616 -0.9940 -0.935 0.350 0.052 110 93 86 0 0
-0.1862 0.1637 -1.0268 -0.978 0.124 -0.170 71 38 14 0 0
-0.1853 0.1635 -1.0337 -0.970 0.229 -0.079 71 40 18 0 0
-0.1857 0.1634 -1.0367 -0.974 0.204 -0.095 70 40 20 0 0
-0.1843 0.1628 -1.0568 -0.971 0.072 0.226 75 51 35 0 0
-0.1848 0.1616 -1.1050 -0.924 -0.023 0.382 62 33 15 0 0
-0.1862 0.1616 -1.1075 -0.959 -0.027 0.282 65 37 17 0 0
-0.1870 0.1616 -1.1103 -0.959 -0.027 0.282 69 42 19 0 0
-0.1883 0.1617 -1.1127 -0.966 0.232 0.114 72 45 23 0 0
-0.1928 0.1614 -1.1360 -0.999 0.009 0.031 73 50 36 0 0
-0.0186 0.1822 0.1038 -0.950 0.122 0.288 84 63 56 0 0
-0.0698 0.1816 -0.0827 -0.969 -0.244 -0.031 78 58 49 0 0
-0.0814 0.1792 -0.2146 -0.612 -0.733 -0.297 48 35 29 0 0
-0.0841 0.1792 -0.2204 -0.996 -0.075 -0.051 47 34 28 0 0
-0.0867 0.1794 -0.2231 -0.899 0.257 0.355 46 33 27 0 0
-0.0761 0.1767 -0.2915 -0.982 0.136 -0.134 34 19 15 0 0
-0.0777 0.1766 -0.3036 -0.961 0.064 0.269 36 21 17 0 0
-0.0785 0.1765 -0.3065 -0.961 0.064 0.269 43 28 23 0 0
-0.0882 0.1736 -0.4502 -0.430 -0.074 -0.900 61 38 20 0 0
-0.0775 0.1726 -0.4557 -0.408 -0.026 -0.913 62 39 21 0 0
-0.0356 0.1679 -0.5003 -0.972 -0.007 -0.234 49 25 13 0 0
-0.0355 0.1671 -0.5326 -0.870 0.368 0.329 46 22 11 0 0
-0.0439 0.1642 -0.6700 -0.962 0.135 0.239 60 28 11 0 0
-0.0454 0.1642 -0.6760 -0.962 0.135 0.239 50 23 8 0 0
-0.0546 0.1639 -0.7155 -0.982 0.115 0.149 51 22 8 0 0
-0.0551 0.1639 -0.7186 -0.983 0.025 0.180 52 23 9 0 0
-0.0741 0.1644 -0.7607 -0.853 0.519 0.060 51 22 8 0 0
-0.0939 0.1649 -0.8052 -0.867 -0.139 0.478 51 20 9 0 0
-0.0950 0.1649 -0.8080 -0.905 0.063 0.420 53 21 10 0 0
-0.0965 0.1649 -0.8106 -0.957 0.091 0.276 54 22 10 0 0
-0.0980 0.1649 -0.8165 -0.903 -0.068 0.424 57 25 12 0 0
-0.1160 0.1656 -0.8479 -0.852 0.334 0.402 74 36 11 0 0
-0.1190 0.1652 -0.8726 -0.992 0.030 0.122 79 51 36 0 0
-0.1091 0.1624 -0.9490 -0.915 0.353 0.195 64 35 14 0 0
-0.1178 0.1629 -0.9580 -0.652 -0.164 0.741 91 68 55 0 0
-0.1415 0.1644 -0.9757 -0.986 0.115 0.118 100 86 77 0 0
-0.1418 0.1643 -0.9788 -0.986 0.115 0.118 106 91 84 0 0
-0.1508 0.1648 -0.9905 -0.883 -0.211 0.418 104 88 81 0 0
-0.1521 0.1648 -0.9931 -0.942 -0.065 0.330 106 89 82 0 0
-0.1832 0.1664 -1.0316 -0.971 -0.120 -0.205 74 42 19 0 0
-0.1866 0.1647 -1.1072 -0.947 0.134 0.291 61 33 14 0 0
-0.1930 0.1646 -1.1326 -0.995 -0.070 -0.070 74 51 36 0 0
-0.1928 0.1645 -1.1360 -0.999 0.009 0.031 76 53 39 0 0
-0.2437 0.1684 -1.1497 -0.633 -0.238 0.737 200 200 200 0 0
-0.0022 0.1842 0.1138 -0.449 0.132 0.884 135 104 89 0 0
-0.0216 0.1837 0.0314 -0.992 0.123 -0.037 65 32 13 0 0
-0.0814 0.1855 -0.0854 -0.986 0.153 0.061 54 30 17 0 0
-0.1194 0.1864 -0.1723 -0.731 0.668 0.137 55 40 35 0 0
-0.1032 0.1846 -0.1915 -0.913 -0.392 0.112 51 38 32 0 0
-0.0843 0.1823 -0.2204 -0.996 -0.075 -0.051 49 34 29 0 0
-0.0754 0.1797 -0.2917 -0.909 0.336 -0.248 37 22 15 0 0
-0.0601 0.1771 -0.3466 -0.658 0.411 -0.631 36 22 19 0 0
-0.0656 0.1767 -0.3768 -0.889 0.289 0.355 40 23 15 0 0
-0.1203 0.1800 -0.4248 -0.949 0.259 0.179 57 27 9 0 0
-0.1182 0.1797 -0.4283 -0.999 -0.050 0.003 60 29 9 0 0
-0.1172 0.1795 -0.4316 -0.990 0.061 0.125 65 31 12 0 0
-0.1127 0.1790 -0.4387 -0.922 -0.309 0.233 69 43 28 0 0
-0.0798 0.1759 -0.4552 -0.406 0.040 -0.913 64 40 22 0 0
-0.0415 0.1721 -0.4797 -0.961 0.188 -0.202 48 24 12 0 0
-0.0431 0.1718 -0.4986 -0.944 0.130 0.302 50 27 14 0 0
-0.0331 0.1700 -0.5332 -0.825 0.126 0.551 48 22 11 0 0
-0.0496 0.1670 -0.7041 -0.973 0.224 0.053 50 20 10 0 0
-0.0501 0.1669 -0.7072 -0.981 0.113 -0.159 50 20 9 0 0
-0.0515 0.1667 -0.7198 -0.955 -0.245 0.168 52 23 9 0 0
-0.0536 0.1668 -0.7224 -0.834 -0.030 0.550 52 23 9 0 0
-0.0555 0.1669 -0.7250 -0.814 0.190 0.548 52 23 9 0 0
-0.0737 0.1668 -0.7871 -0.920 0.215 -0.327 49 20 7 0 0
-0.0937 0.1680 -0.8053 -0.872 0.163 0.461 54 22 9 0 0
-0.0947 0.1680 -0.8081 -0.935 0.100 0.341 54 22 9 0 0
-0.0954 0.1680 -0.8111 -0.937 0.336 0.091 55 23 9 0 0
-0.0994 0.1681 -0.8192 -0.988 -0.072 -0.135 58 27 9 0 0
-0.1167 0.1693 -0.8282 -0.976 0.198 0.090 66 31 12 0 0
-0.1188 0.1690 -0.8467 -0.911 -0.044 0.410 76 36 13 0 0
-0.1188 0.1685 -0.8662 -0.815 0.012 0.579 78 49 31 0 0
-0.1203 0.1684 -0.8720 -0.993 -0.121 0.005 81 54 34 0 0
-0.0997 0.1656 -0.9172 -0.796 0.087 -0.599 59 37 23 0 0
-0.0975 0.1652 -0.9248 -0.907 0.000 -0.421 68 42 28 0 0
-0.1079 0.1655 -0.9463 -0.883 0.449 0.135 78 49 29 0 0
-0.1084 0.1655 -0.9494 -0.905 0.423 -0.047 65 37 16 0 0
-0.1849 0.1695 -1.0339 -0.990 -0.094 -0.109 75 44 20 0 0
-0.1857 0.1695 -1.0366 -0.998 -0.059 -0.015 71 40 20 0 0
-0.1843 0.1691 -1.0471 -0.974 -0.052 0.221 73 46 28 0 0
-0.1855 0.1678 -1.1046 -0.946 0.095 0.309 59 32 14 0 0
0.0115 0.1863 0.1176 -0.326 0.125 0.937 138 120 112 0 0
-0.0014 0.1872 0.1138 -0.442 0.343 0.829 131 100 85 0 0
-0.0083 0.1877 0.1103 -0.443 0.308 0.842 148 117 99 0 0
-0.0173 0.1882 0.1037 -0.825 0.413 0.385 106 86 79 0 0
-0.1166 0.1891 -0.1725 -0.876 0.482 0.016 56 41 36 0 0
-0.0866 0.1853 -0.2263 -0.927 0.238 -0.291 48 33 28 0 0
-0.0857 0.1852 -0.2294 -0.948 0.314 -0.046 47 32 27 0 0
-0.0739 0.1826 -0.2919 -0.868 0.365 -0.337 33 18 13 0 0
-0.0750 0.1827 -0.2948 -0.939 0.184 0.292 35 22 15 0 0
-0.0766 0.1827 -0.2977 -0.988 0.136 0.073 36 22 16 0 0
-0.1195 0.1829 -0.4250 -0.949 0.259 0.179 65 30 11 0 0
-0.1170 0.1825 -0.4316 -0.990 0.061 0.125 70 35 16 0 0
-0.1121 0.1819 -0.4388 -0.911 0.197 -0.363 74 48 33 0 0
-0.0792 0.1789 -0.4554 -0.388 0.279 -0.878 66 40 22 0 0
-0.0410 0.1749 -0.4927 -0.959 0.035 0.280 55 32 18 0 0
-0.0414 0.1748 -0.4958 -0.912 0.108 0.396 54 31 17 0 0
-0.0427 0.1749 -0.4987 -0.944 0.130 0.302 53 30 16 0 0
-0.0433 0.1747 -0.5082 -0.935 0.344 -0.083 46 22 11 0 0
-0.0421 0.1744 -0.5149 -0.962 0.271 -0.025 48 24 12 0 0
-0.0421 0.1719 -0.6118 -0.962 0.195 0.190 64 35 17 0 0
-0.0377 0.1710 -0.6327 -0.979 0.091 0.181 72 42 18 0 0
-0.0439 0.1700 -0.6929 -0.975 0.214 0.063 50 21 7 0 0
-0.0523 0.1701 -0.7130 -0.937 0.072 0.341 50 21 7 0 0
-0.0522 0.1701 -0.7163 -0.991 -0.126 -0.040 51 22 8 0 0
-0.0523 0.1700 -0.7196 -0.955 -0.245 0.168 52 23 9 0 0
-0.0540 0.1700 -0.7222 -0.809 -0.060 0.585 52 23 9 0 0
-0.0732 0.1699 -0.7872 -0.913 0.129 -0.387 51 22 8 0 0
-0.0794 0.1704 -0.7881 -0.998 0.028 0.060 50 21 7 0 0
-0.0897 0.1711 -0.7938 -0.922 0.346 -0.171 52 23 9 0 0
-0.0961 0.1711 -0.8108 -0.983 0.073 0.171 57 25 10 0 0
-0.1201 0.1722 -0.8462 -0.985 -0.135 0.110 76 36 13 0 0
-0.1209 0.1716 -0.8717 -0.993 0.115 -0.034 80 53 32 0 0
-0.1673 0.1721 -0.9981 -0.977 -0.184 0.109 80 50 35 0 0
-0.1689 0.1721 -1.0037 -0.924 0.212 0.318 68 33 8 0 0
-0.1842 0.1724 -1.0374 -0.904 0.428 0.002 75 44 24 0 0
-0.1846 0.1721 -1.0500 -0.990 -0.067 0.127 74 47 31 0 0
-0.1910 0.1708 -1.1207 -0.960 0.161 0.228 87 62 41 0 0
-0.2504 0.1748 -1.1517 -0.699 -0.269 0.663 202 202 202 0 0
-0.2519 0.1749 -1.1539 -0.764 -0.230 0.604 202 202 202 0 0
-0.0222 0.1878 -0.0509 -0.979 0.167 0.116 51 22 9 0 0
-0.0787 0.1914 -0.0826 -0.960 0.270 -0.081 72 46 29 0 0
-0.0785 0.1913 -0.0856 -0.960 0.270 -0.081 59 30 13 0 0
-0.1175 0.1917 -0.1903 -0.919 -0.240 0.314 55 40 33 0 0
-0.0887 0.1886 -0.2231 -0.936 -0.041 -0.349 50 35 30 0 0
-0.0900 0.1885 -0.2320 -0.935 -0.058 -0.349 47 34 28 0 0
-0.0739 0.1859 -0.2827 -0.952 0.305 -0.042 45 28 21 0 0
-0.0729 0.1858 -0.2859 -0.875 0.408 0.262 46 29 21 0 0
-0.0797 0.1854 -0.3218 -0.983 0.134 0.124 48 25 15 0 0
-0.0998 0.1847 -0.4107 -0.892 -0.329 0.309 81 57 44 0 0
-0.1062 0.1851 -0.4155 -0.540 -0.140 0.830 75 42 16 0 0
-0.1146 0.1857 -0.4199 -0.966 0.022 0.259 74 38 17 0 0
-0.1188 0.1859 -0.4252 -0.949 0.259 0.179 72 36 15 0 0
-0.0340 0.1764 -0.5330 -0.936 0.157 -0.314 49 22 11 0 0
-0.0374 0.1742 -0.6328 -0.979 0.091 0.181 73 43 21 0 0
-0.0380 0.1742 -0.6359 -0.979 0.091 0.181 78 48 26 0 0
-0.0372 0.1740 -0.6394 -0.983 -0.097 0.156 80 48 26 0 0
-0.0379 0.1740 -0.6424 -0.985 -0.092 0.145 81 49 26 0 0
-0.0444 0.1732 -0.6927 -0.934 0.356 -0.008 50 21 7 0 0
-0.0525 0.1733 -0.7162 -0.971 0.053 0.232 52 23 9 0 0
-0.0744 0.1735 -0.7737 -0.954 0.296 0.052 51 21 9 0 0
-0.0891 0.1742 -0.7908 -0.922 0.346 -0.171 52 23 9 0 0
-0.0885 0.1741 -0.7943 -0.922 0.346 -0.171 53 24 10 0 0
-0.0917 0.1741 -0.8028 -0.689 0.175 0.703 57 26 9 0 0
-0.0973 0.1744 -0.8103 -0.971 0.175 0.164 58 27 9 0 0
-0.0977 0.1743 -0.8134 -0.944 0.295 0.144 58 27 9 0 0
-0.1147 0.1754 -0.8226 -0.902 0.331 0.277 62 28 11 0 0
-0.1148 0.1754 -0.8258 -0.991 0.090 0.095 65 30 11 0 0
-0.1151 0.1753 -0.8289 -0.991 0.090 0.095 67 32 12 0 0
-0.1163 0.1753 -0.8316 -0.958 0.079 -0.275 68 33 11 0 0
-0.1145 0.1749 -0.8421 -0.926 0.132 0.354 70 33 10 0 0
-0.1156 0.1749 -0.8448 -0.737 0.073 0.672 71 33 10 0 0
-0.1194 0.1750 -0.8561 -0.979 -0.145 -0.147 82 48 26 0 0
-0.1196 0.1746 -0.8722 -0.994 -0.022 0.106 80 52 33 0 0
-0.1208 0.1745 -0.8782 -0.904 -0.027 -0.427 71 44 32 0 0
-0.1216 0.1745 -0.8811 -0.969 0.222 0.107 69 45 33 0 0
-0.1219 0.1744 -0.8842 -0.992 -0.112 0.061 66 44 31 0 0
-0.1224 0.1744 -0.8872 -0.836 -0.080 0.542 63 41 28 0 0
-0.1091 0.1724 -0.9260 -0.926 0.370 -0.076 69 43 28 0 0
-0.1097 0.1724 -0.9290 -0.771 0.568 0.288 71 43 29 0 0
-0.1134 0.1720 -0.9535 -0.889 -0.260 0.376 72 39 20 0 0
-0.1811 0.1753 -1.0326 -0.993 0.109 -0.046 78 46 22 0 0
-0.1851 0.1751 -1.0530 -0.995 0.093 -0.026 76 48 34 0 0
0.0068 0.1928 0.1141 -0.381 0.399 0.834 128 96 81 0 0
-0.0219 0.1909 -0.0479 -0.995 0.091 0.047 50 20 8 0 0
-0.0216 0.1908 -0.0509 -0.979 0.167 0.116 52 23 9 0 0
-0.0206 0.1906 -0.0571 -0.975 0.120 -0.188 54 25 11 0 0
-0.0778 0.1943 -0.0827 -0.996 0.033 -0.081 73 45 28 0 0
-0.0803 0.1944 -0.0856 -0.924 0.383 0.001 55 24 7 0 0
-0.1354 0.1972 -0.1448 -0.971 -0.215 0.103 52 29 17 0 0
-0.1361 0.1972 -0.1477 -0.959 -0.164 0.231 52 33 22 0 0
-0.1155 0.1946 -0.1876 -0.947 -0.191 -0.258 57 42 35 0 0
-0.1180 0.1947 -0.1903 -0.911 -0.182 0.370 57 42 35 0 0
-0.0983 0.1922 -0.2281 -0.882 0.352 -0.313 48 33 28 0 0
-0.0791 0.1889 -0.3035 -0.856 -0.419 0.302 50 34 27 0 0
-0.0801 0.1889 -0.3065 -0.856 -0.419 0.302 60 44 37 0 0
-0.0810 0.1889 -0.3094 -0.838 -0.461 0.294 56 37 30 0 0
-0.0822 0.1889 -0.3123 -0.899 -0.322 0.297 43 19 12 0 0
-0.0830 0.1889 -0.3152 -0.832 -0.148 0.535 47 22 14 0 0
-0.0789 0.1885 -0.3189 -0.999 -0.025 0.029 47 24 14 0 0
-0.0982 0.1877 -0.4079 -0.756 -0.407 0.513 73 40 23 0 0
-0.1075 0.1882 -0.4153 -0.397 -0.316 0.862 75 40 15 0 0
-0.1145 0.1887 -0.4200 -0.966 0.022 0.259 78 43 20 0 0
-0.0394 0.1816 -0.4707 -0.981 0.194 0.021 63 35 19 0 0
-0.0325 0.1801 -0.5076 -0.966 0.259 0.001 47 24 10 0 0
-0.0344 0.1796 -0.5329 -0.992 0.063 -0.111 49 22 11 0 0
-0.0391 0.1779 -0.6160 -0.984 0.174 0.043 59 30 12 0 0
-0.0375 0.1774 -0.6295 -0.997 0.071 -0.017 55 23 7 0 0
-0.0378 0.1774 -0.6327 -0.981 0.122 0.152 53 22 5 0 0
-0.0383 0.1774 -0.6358 -0.976 0.122 0.179 64 33 14 0 0
-0.0489 0.1769 -0.6880 -0.938 0.078 0.337 50 22 8 0 0
-0.0500 0.1769 -0.6909 -0.938 0.078 0.337 50 22 8 0 0
-0.0448 0.1763 -0.6959 -0.806 0.215 0.552 50 21 7 0 0
-0.0534 0.1765 -0.7159 -0.975 -0.168 0.146 53 24 10 0 0
-0.0567 0.1765 -0.7278 -0.963 0.267 -0.046 51 22 8 0 0
-0.0569 0.1764 -0.7310 -0.965 0.247 -0.090 49 20 7 0 0
-0.0570 0.1763 -0.7343 -0.938 0.327 0.116 48 19 7 0 0
-0.0903 0.1776 -0.7838 -0.724 0.665 -0.184 52 23 9 0 0
-0.0927 0.1774 -0.8024 -0.810 0.285 0.513 56 26 8 0 0
-0.0940 0.1774 -0.8051 -0.808 0.315 0.498 57 26 8 0 0
-0.0958 0.1775 -0.8076 -0.778 0.356 0.517 58 26 8 0 0
-0.0975 0.1774 -0.8134 -0.879 0.457 0.135 58 27 8 0 0
-0.0947 0.1771 -0.8178 -0.976 0.066 0.208 58 27 7 0 0
-0.1129 0.1781 -0.8363 -0.976 0.193 -0.096 69 33 9 0 0
-0.1125 0.1779 -0.8396 -0.993 0.081 -0.084 69 33 10 0 0
-0.1168 0.1781 -0.8475 -0.935 0.114 -0.335 74 35 13 0 0
-0.1160 0.1775 -0.8673 -0.961 0.276 -0.001 83 51 29 0 0
-0.1174 0.1774 -0.8764 -0.840 0.472 0.267 78 50 36 0 0
-0.1171 0.1773 -0.8798 -0.777 0.570 0.268 69 42 30 0 0
-0.1680 0.1783 -0.9945 -0.952 -0.305 -0.009 92 64 52 0 0
-0.1697 0.1783 -1.0000 -0.953 -0.236 0.188 77 40 19 0 0
-0.1975 0.1770 -1.1362 -0.998 -0.023 0.051 79 55 38 0 0
-0.1980 0.1770 -1.1391 -0.964 0.119 -0.237 77 56 38 0 0
-0.1981 0.1768 -1.1488 -0.996 0.037 -0.084 71 56 44 0 0
-0.0186 0.1956 0.0251 -0.975 0.176 0.135 63 30 10 0 0
-0.0182 0.1954 0.0220 -0.988 0.150 0.030 65 33 12 0 0
-0.0184 0.1952 0.0129 -0.977 0.210 -0.035 67 35 14 0 0
-0.0211 0.1938 -0.0510 -0.979 0.167 0.116 53 24 10 0 0
-0.0193 0.1936 -0.0572 -0.947 -0.183 0.264 54 25 11 0 0
-0.0772 0.1973 -0.0828 -0.853 0.504 -0.138 67 37 23 0 0
-0.1381 0.2007 -0.1301 -0.975 0.212 0.060 74 37 12 0 0
-0.1355 0.2001 -0.1448 -0.983 -0.161 0.086 55 32 17 0 0
-0.1178 0.1977 -0.1904 -0.919 0.090 0.383 57 42 36 0 0
-0.0789 0.1934 -0.2425 -0.806 -0.014 -0.592 49 34 29 0 0
-0.0793 0.1931 -0.2576 -0.973 -0.196 -0.124 45 31 22 0 0
-0.0731 0.1916 -0.2983 -0.992 0.123 -0.031 44 27 20 0 0
-0.0794 0.1918 -0.3097 -0.622 0.497 0.605 56 39 31 0 0
-0.0631 0.1896 -0.3494 -0.956 -0.147 -0.254 34 20 10 0 0
-0.0976 0.1908 -0.4050 -0.731 -0.413 0.543 67 31 15 0 0
-0.1086 0.1914 -0.4151 -0.504 -0.302 0.809 79 41 16 0 0
-0.0731 0.1877 -0.4537 -0.386 0.361 -0.849 64 34 16 0 0
-0.0373 0.1827 -0.5451 -0.982 -0.008 0.186 49 22 10 0 0
-0.0384 0.1827 -0.5481 -0.998 0.059 0.001 48 22 10 0 0
-0.0375 0.1809 -0.6197 -0.991 0.005 0.136 66 32 13 0 0
-0.0375 0.1808 -0.6230 -0.986 0.093 0.139 66 33 13 0 0
-0.0395 0.1801 -0.6551 -0.994 0.104 -0.016 55 24 7 0 0
-0.0464 0.1800 -0.6823 -0.814 0.252 0.523 56 29 11 0 0
-0.0493 0.1800 -0.6911 -0.907 0.310 0.284 51 23 9 0 0
-0.0556 0.1794 -0.7315 -0.899 0.398 -0.182 51 22 8 0 0
-0.0681 0.1799 -0.7531 -0.946 -0.023 0.324 52 23 9 0 0
-0.0691 0.1799 -0.7560 -0.946 -0.023 0.324 52 23 9 0 0
-0.0741 0.1798 -0.7738 -0.980 0.056 0.192 55 26 12 0 0
-0.0847 0.1800 -0.7990 -0.777 0.582 -0.239 53 24 8 0 0
-0.0847 0.1799 -0.8023 -0.842 0.391 -0.373 55 26 10 0 0
-0.0906 0.1803 -0.8032 -0.945 0.322 0.059 55 26 10 0 0
-0.0951 0.1803 -0.8177 -0.874 -0.420 0.246 58 27 8 0 0
-0.0957 0.1802 -0.8239 -0.729 -0.619 0.293 60 27 10 0 0
-0.1143 0.1805 -0.8681 -0.989 0.090 0.118 83 51 28 0 0
-0.1125 0.1802 -0.8753 -0.868 0.496 0.020 80 51 33 0 0
-0.1345 0.1794 -0.9726 -0.727 -0.189 0.661 112 94 84 0 0
-0.1356 0.1794 -0.9752 -0.837 -0.371 0.402 107 89 79 0 0
-0.1862 0.1797 -1.1169 -0.996 0.050 -0.072 85 57 35 0 0
-0.1870 0.1797 -1.1197 -0.996 -0.031 0.082 86 60 39 0 0
-0.1873 0.1796 -1.1228 -0.996 -0.031 0.082 87 62 42 0 0
-0.0179 0.1966 -0.0542 -0.979 -0.010 0.202 54 25 11 0 0
-0.1377 0.2032 -0.1477 -0.944 -0.091 0.318 59 37 24 0 0
-0.1366 0.2029 -0.1565 -0.979 0.203 -0.017 60 43 36 0 0
-0.1200 0.2007 -0.1932 -0.981 0.048 0.186 59 42 35 0 0
-0.0891 0.1977 -0.2232 -0.915 -0.034 -0.402 53 38 31 0 0
-0.0810 0.1966 -0.2423 -0.850 0.227 -0.476 50 35 28 0 0
-0.0698 0.1949 -0.2803 -0.981 0.184 -0.059 46 29 21 0 0
-0.0715 0.1946 -0.2955 -0.864 0.494 -0.096 46 29 21 0 0
-0.0534 0.1915 -0.3667 -0.937 0.222 0.268 24 11 8 0 0
-0.0795 0.1927 -0.3962 -0.712 0.439 0.548 67 34 17 0 0
-0.0991 0.1939 -0.4047 -0.704 -0.461 0.539 66 29 12 0 0
-0.0804 0.1915 -0.4490 -0.416 0.168 -0.894 80 53 36 0 0
-0.0700 0.1906 -0.4544 -0.407 0.083 -0.910 64 33 15 0 0
-0.0394 0.1878 -0.4739 -0.958 0.286 -0.030 61 32 14 0 0
-0.0360 0.1860 -0.5358 -0.889 0.442 -0.120 52 26 13 0 0
-0.0348 0.1858 -0.5393 -0.858 0.490 -0.152 52 26 13 0 0
-0.0387 0.1849 -0.5901 -0.951 0.279 0.129 59 29 13 0 0
-0.0396 0.1848 -0.5964 -0.989 -0.138 -0.042 60 31 14 0 0
-0.0388 0.1846 -0.5998 -0.986 -0.139 -0.089 62 32 14 0 0
-0.0366 0.1840 -0.6200 -0.962 0.192 0.192 80 42 20 0 0
-0.0374 0.1839 -0.6263 -0.979 0.117 0.165 81 44 21 0 0
-0.0483 0.1831 -0.6914 -0.907 0.310 0.284 53 25 11 0 0
-0.0672 0.1829 -0.7535 -0.901 0.064 0.429 53 24 10 0 0
-0.0686 0.1830 -0.7562 -0.901 0.064 0.429 53 24 10 0 0
-0.1017 0.1838 -0.8214 -0.557 0.539 0.632 60 27 10 0 0
-0.1042 0.1839 -0.8269 -0.688 0.459 0.563 62 29 10 0 0
-0.1197 0.1835 -0.8884 -0.981 0.149 -0.122 57 35 22 0 0
-0.1031 0.1814 -0.9221 -0.782 0.598 0.173 71 44 28 0 0
-0.1626 0.1839 -1.0004 -0.912 0.390 0.130 87 53 40 0 0
-0.1829 0.1831 -1.0929 -0.918 0.120 0.377 48 25 16 0 0
-0.0143 0.2031 0.0945 -0.887 0.243 0.393 65 29 10 0 0
-0.0188 0.2004 -0.0298 -0.957 0.154 0.245 55 24 6 0 0
-0.0341 0.2007 -0.0631 -0.320 -0.088 0.943 62 41 31 0 0
-0.0426 0.2012 -0.0659 -0.303 -0.112 0.946 77 56 47 0 0
-0.1317 0.2058 -0.1423 -0.975 0.185 0.120 61 32 13 0 0
-0.1192 0.2038 -0.1844 -0.926 0.052 -0.374 60 41 34 0 0
-0.0885 0.2006 -0.2263 -0.869 0.292 -0.399 54 37 29 0 0
-0.0704 0.1976 -0.2957 -0.898 0.438 0.045 45 28 19 0 0
-0.0769 0.1975 -0.3194 -0.898 0.222 0.381 48 23 11 0 0
-0.1086 0.1975 -0.4121 -0.467 -0.492 0.735 113 87 70 0 0
-0.0348 0.1893 -0.5265 -0.958 0.280 -0.060 54 26 12 0 0
-0.0335 0.1889 -0.5397 -0.947 0.299 -0.116 55 29 14 0 0
-0.0312 0.1886 -0.5436 -0.968 0.225 -0.113 54 28 13 0 0
-0.0366 0.1871 -0.6233 -0.958 0.067 0.279 82 45 21 0 0
-0.0371 0.1870 -0.6264 -0.978 0.043 0.206 82 45 19 0 0
-0.0419 0.1861 -0.6772 -0.944 0.275 0.179 57 27 10 0 0
-0.0425 0.1861 -0.6803 -0.944 0.275 0.179 55 25 10 0 0
-0.0474 0.1862 -0.6918 -0.907 0.310 0.284 52 24 10 0 0
-0.0481 0.1861 -0.6948 -0.947 0.320 0.010 53 25 11 0 0
-0.0494 0.1862 -0.6976 -0.935 0.351 -0.044 52 24 10 0 0
-0.0677 0.1860 -0.7565 -0.886 0.255 0.388 53 24 10 0 0
-0.0952 0.1861 -0.8372 -0.797 0.215 0.565 68 33 12 0 0
-0.1228 0.1868 -0.8870 -0.869 0.405 -0.285 59 37 24 0 0
-0.1099 0.1847 -0.9353 -0.818 0.290 0.497 74 45 27 0 0
-0.1159 0.1848 -0.9489 -0.991 0.056 0.124 77 44 25 0 0
-0.1140 0.1843 -0.9629 -0.716 0.222 0.662 113 94 83 0 0
-0.1648 0.1868 -1.0121 -0.904 0.427 -0.018 73 36 10 0 0
-0.1690 0.1871 -1.0132 -0.972 0.228 0.052 74 37 11 0 0
-0.1779 0.1875 -1.0245 -0.916 0.198 0.349 82 46 20 0 0
-0.1839 0.1862 -1.0922 -0.997 -0.001 -0.075 49 24 15 0 0
-0.0139 0.2025 -0.0544 -0.971 0.021 0.237 52 22 11 0 0
-0.0364 0.2039 -0.0631 -0.349 0.030 0.937 64 45 36 0 0
-0.0591 0.2051 -0.0776 -0.700 0.068 0.711 115 89 74 0 0
-0.1343 0.2088 -0.1480 -0.983 -0.057 -0.175 61 35 20 0 0
-0.1200 0.2071 -0.1756 -0.898 -0.173 -0.405 62 45 37 0 0
-0.1132 0.2064 -0.1820 -0.828 -0.111 -0.550 60 43 35 0 0
-0.0728 0.2013 -0.2739 -0.930 0.069 -0.361 53 34 25 0 0
-0.0606 0.1979 -0.3780 -0.924 0.123 0.363 52 29 17 0 0
-0.0414 0.1891 -0.6839 -0.987 0.138 0.077 56 24 10 0 0
-0.0445 0.1892 -0.6894 -0.941 0.218 0.257 54 23 10 0 0
-0.0452 0.1890 -0.6991 -0.707 0.667 0.235 52 22 8 0 0
-0.0676 0.1891 -0.7599 -0.938 0.346 -0.023 53 24 10 0 0
-0.0902 0.1894 -0.8131 -0.997 -0.065 -0.036 55 22 7 0 0
-0.0917 0.1895 -0.8158 -0.970 0.015 0.242 54 22 8 0 0
-0.0977 0.1897 -0.8231 -0.724 0.151 0.673 59 27 10 0 0
-0.0907 0.1891 -0.8292 -0.782 0.228 0.580 61 27 9 0 0
-0.0910 0.1890 -0.8324 -0.797 0.215 0.565 62 28 9 0 0
-0.1118 0.1900 -0.8529 -0.963 -0.010 0.271 77 38 12 0 0
-0.1118 0.1899 -0.8561 -0.986 -0.154 0.060 77 40 13 0 0
-0.1091 0.1878 -0.9324 -0.989 0.080 0.126 71 43 25 0 0
-0.1142 0.1878 -0.9497 -0.975 -0.159 0.158 72 42 19 0 0
-0.1133 0.1874 -0.9632 -0.716 0.222 0.662 102 82 73 0 0
-0.1544 0.1897 -0.9884 -0.991 -0.005 0.135 103 82 69 0 0
-0.1554 0.1897 -0.9911 -0.983 -0.127 0.131 105 82 70 0 0
-0.1687 0.1901 -1.0133 -0.956 0.188 0.226 77 38 12 0 0
-0.1735 0.1885 -1.0917 -0.982 -0.146 -0.121 44 21 15 0 0
-0.1923 0.1888 -1.1359 -0.946 0.122 0.301 81 56 36 0 0
-0.1916 0.1887 -1.1395 -0.973 0.153 0.172 82 55 36 0 0
-0.0144 0.2078 0.0370 -0.983 0.180 -0.048 58 25 7 0 0
-0.0147 0.2056 -0.0575 -0.962 0.125 0.244 44 16 4 0 0
-0.0577 0.2080 -0.0807 -0.868 0.298 0.398 101 74 56 0 0
-0.1312 0.2116 -0.1424 -0.919 0.359 0.163 64 34 17 0 0
-0.1314 0.2116 -0.1453 -0.923 0.382 0.049 62 34 16 0 0
-0.1300 0.2114 -0.1484 -0.916 0.328 -0.232 62 36 21 0 0
-0.0806 0.2059 -0.2333 -0.657 0.617 -0.434 53 36 28 0 0
-0.0736 0.2048 -0.2585 -0.968 0.239 0.074 56 38 26 0 0
-0.0575 0.2015 -0.3504 -0.967 0.249 -0.053 47 28 17 0 0
-0.0573 0.2014 -0.3536 -0.967 0.249 -0.053 47 27 18 0 0
-0.0605 0.2014 -0.3624 -0.952 0.301 0.060 38 24 14 0 0
-0.0427 0.1919 -0.7032 -0.825 0.563 0.050 51 22 8 0 0
-0.0674 0.1926 -0.7469 -0.913 0.368 0.173 53 24 10 0 0
-0.0667 0.1924 -0.7536 -0.922 0.372 -0.107 53 24 10 0 0
-0.0916 0.1926 -0.8158 -0.970 0.015 0.242 55 23 9 0 0
-0.1118 0.1931 -0.8528 -0.963 -0.010 0.271 81 42 15 0 0
-0.1123 0.1930 -0.8559 -0.970 -0.147 0.193 80 43 16 0 0
-0.1053 0.1913 -0.9079 -0.848 0.488 0.207 57 34 20 0 0
-0.1141 0.1909 -0.9497 -0.987 -0.033 0.158 71 41 17 0 0
-0.1540 0.1928 -0.9853 -0.935 0.318 0.160 106 86 73 0 0
-0.1760 0.1936 -1.0158 -0.963 0.158 0.220 79 39 13 0 0
-0.1767 0.1936 -1.0187 -0.972 0.198 0.129 78 40 14 0 0
-0.1768 0.1935 -1.0218 -0.966 0.234 0.111 79 42 16 0 0
-0.1697 0.1915 -1.0840 -0.940 -0.291 -0.176 66 42 31 0 0
-0.0143 0.2087 -0.0545 -0.936 -0.111 0.334 54 25 11 0 0
-0.0150 0.2087 -0.0576 -0.977 -0.087 0.196 48 19 8 0 0
-0.1369 0.2149 -0.1450 -0.762 0.502 0.409 62 35 16 0 0
-0.0965 0.2106 -0.2076 -0.853 0.403 -0.331 58 39 32 0 0
-0.0729 0.2078 -0.2587 -0.968 0.239 0.074 59 39 28 0 0
-0.0257 0.1994 -0.4739 -0.869 0.478 0.132 77 47 26 0 0
-0.0307 0.1965 -0.6088 -0.983 0.160 0.087 71 36 16 0 0
-0.0911 0.1959 -0.8062 -0.958 0.280 -0.061 61 30 12 0 0
-0.0894 0.1956 -0.8134 -0.950 0.200 -0.239 57 25 10 0 0
-0.0905 0.1956 -0.8162 -0.943 0.221 0.248 57 25 11 0 0
-0.1038 0.1943 -0.9086 -0.848 0.488 0.207 55 32 18 0 0
-0.1045 0.1943 -0.9115 -0.848 0.488 0.207 57 34 20 0 0
-0.1038 0.1941 -0.9184 -0.916 0.234 -0.327 72 45 28 0 0
-0.1034 0.1931 -0.9581 -0.889 0.205 0.408 77 47 24 0 0
-0.1045 0.1931 -0.9609 -0.785 0.105 0.610 85 58 39 0 0
-0.1105 0.1934 -0.9645 -0.790 0.347 0.506 103 83 74 0 0
-0.1538 0.1960 -0.9821 -0.890 0.040 0.455 112 92 81 0 0
-0.1540 0.1959 -0.9853 -0.991 0.102 0.086 107 87 74 0 0
-0.1529 0.1957 -0.9891 -0.945 0.320 -0.066 101 79 65 0 0
-0.1690 0.1964 -1.0066 -0.997 0.077 -0.014 78 38 12 0 0
-0.1735 0.1965 -1.0139 -0.832 -0.346 0.434 80 40 14 0 0
-0.1766 0.1967 -1.0155 -0.984 0.111 0.137 80 40 14 0 0
-0.1812 0.1950 -1.1001 -0.971 0.239 0.022 66 31 13 0 0
-0.1906 0.1947 -1.1368 -0.931 0.259 0.256 82 57 37 0 0
-0.0095 0.2122 -0.0240 -0.965 0.260 0.030 60 29 8 0 0
-0.0104 0.2115 -0.0547 -0.926 0.005 0.378 53 24 9 0 0
-0.0951 0.2137 -0.2017 -0.527 0.761 0.379 60 41 34 0 0
-0.0726 0.2108 -0.2588 -0.983 0.049 0.175 62 41 30 0 0
-0.0667 0.2103 -0.2625 -0.967 0.081 -0.242 62 40 29 0 0
-0.0693 0.2102 -0.2745 -0.839 0.428 -0.336 57 38 24 0 0
-0.0685 0.2101 -0.2777 -0.949 0.286 -0.131 53 34 22 0 0
-0.0680 0.2099 -0.2839 -0.941 0.336 -0.045 54 35 24 0 0
-0.0574 0.2071 -0.3724 -0.921 0.354 0.160 57 32 19 0 0
-0.1124 0.2096 -0.4206 -0.963 -0.112 0.244 71 34 8 0 0
-0.0274 0.2008 -0.5544 -0.971 0.227 -0.070 74 39 19 0 0
-0.0450 0.1980 -0.7188 -0.925 -0.344 0.163 51 22 8 0 0
-0.0636 0.1986 -0.7483 -0.941 0.334 0.050 53 24 10 0 0
-0.0828 0.1987 -0.7965 -0.770 0.638 0.021 57 25 12 0 0
-0.0901 0.1990 -0.8066 -0.952 0.267 0.148 61 30 13 0 0
-0.0904 0.1989 -0.8097 -0.995 0.091 -0.041 59 27 11 0 0
-0.0892 0.1987 -0.8167 -0.894 0.378 0.239 58 26 11 0 0
-0.1137 0.1993 -0.8585 -0.984 -0.159 0.080 87 51 25 0 0
-0.1123 0.1991 -0.8623 -0.988 -0.011 -0.152 87 54 28 0 0
-0.1051 0.1968 -0.9408 -0.925 -0.056 0.376 72 43 23 0 0
-0.1025 0.1962 -0.9585 -0.624 0.523 0.580 81 52 29 0 0
-0.1526 0.1989 -0.9827 -0.951 0.266 0.158 110 90 79 0 0
-0.1532 0.1989 -0.9857 -0.955 0.289 0.069 110 89 76 0 0
-0.1523 0.1987 -0.9894 -0.888 0.444 -0.119 106 84 70 0 0
-0.1526 0.1987 -0.9924 -0.822 0.533 0.199 105 82 68 0 0
-0.1728 0.1995 -1.0142 -0.843 -0.052 0.535 81 42 15 0 0
-0.1799 0.1989 -1.0587 -0.976 0.191 0.102 79 51 32 0 0
-0.1773 0.1986 -1.0667 -0.989 -0.132 -0.066 80 54 36 0 0
-0.1744 0.1980 -1.0812 -0.998 -0.057 -0.033 62 39 26 0 0
-0.1743 0.1979 -1.0846 -0.998 -0.057 -0.033 54 32 19 0 0
-0.1718 0.1977 -1.0892 -0.963 -0.251 -0.100 47 25 15 0 0
-0.1742 0.1977 -1.0944 -0.994 -0.051 0.102 46 23 12 0 0
-0.1805 0.1980 -1.1005 -0.971 0.239 0.022 71 34 15 0 0
-0.0100 0.2174 0.0641 -0.983 0.167 -0.079 63 30 12 0 0
-0.0090 0.2145 -0.0548 -0.864 0.095 0.494 54 22 7 0 0
-0.1215 0.2202 -0.1256 -0.737 0.518 0.435 109 73 46 0 0
-0.0878 0.2158 -0.2176 -0.946 0.288 0.145 60 41 34 0 0
-0.0883 0.2158 -0.2206 -0.961 0.218 0.169 60 41 35 0 0
-0.0850 0.2155 -0.2239 -0.832 0.141 -0.536 59 40 34 0 0
-0.0829 0.2153 -0.2272 -0.808 0.223 -0.546 58 39 32 0 0
-0.0808 0.2151 -0.2304 -0.847 0.270 -0.458 58 39 31 0 0
