ply
format ascii 1.0
element vertex 878
property float x
property float y
property float z
property float nx
property float ny
property float nz
property uchar diffuse_red
property uchar diffuse_green
property uchar diffuse_blue
property uchar class
property uchar detection
end_header
0.0732 0.0994 -0.5078 0.438 -0.898 0.033 66 35 15 0 0
0.0731 0.0999 -0.5202 0.560 -0.824 0.084 55 24 9 0 0
0.0733 0.0999 -0.5295 0.606 -0.796 -0.001 58 25 6 0 0
0.0734 0.0999 -0.5326 0.606 -0.796 -0.001 61 28 9 0 0
0.0740 0.1001 -0.5635 0.571 -0.815 0.099 76 41 19 0 0
0.0741 0.1001 -0.5666 0.630 -0.754 0.184 78 43 21 0 0
0.0744 0.0997 -0.5696 0.592 -0.803 0.064 78 43 21 0 0
0.0740 0.1005 -0.5729 0.542 -0.834 -0.103 78 43 20 0 0
0.0725 0.1036 -0.5958 0.516 -0.827 0.223 77 41 17 0 0
0.0729 0.1031 -0.5987 0.533 -0.797 0.282 77 39 16 0 0
0.0739 0.1017 -0.6044 0.601 -0.755 0.263 77 40 14 0 0
0.0760 0.0997 -0.6349 0.570 -0.813 0.114 77 41 15 0 0
0.0762 0.0994 -0.6379 0.495 -0.853 0.166 75 39 14 0 0
0.0766 0.0991 -0.6409 0.541 -0.828 0.145 71 35 11 0 0
0.0794 0.0961 -0.6773 0.586 -0.808 0.056 57 29 12 0 0
0.0807 0.0943 -0.6828 0.470 -0.831 0.299 54 25 11 0 0
0.0826 0.0916 -0.6879 0.280 -0.903 0.325 53 26 9 0 0
0.0823 0.0922 -0.6913 0.470 -0.831 0.299 52 24 9 0 0
0.0830 0.0914 -0.7004 0.790 -0.606 0.089 49 21 9 0 0
0.0859 0.0882 -0.7335 0.597 -0.628 0.499 48 20 8 0 0
0.1077 0.0580 -0.8131 0.461 -0.872 0.165 48 20 8 0 0
0.1084 0.0572 -0.8158 0.376 -0.864 0.335 47 19 7 0 0
0.1186 0.0426 -0.8394 0.765 -0.561 0.317 64 29 9 0 0
0.1246 0.0340 -0.8534 0.312 -0.899 0.308 73 36 13 0 0
0.1230 0.0368 -0.8642 0.340 -0.932 0.125 75 47 28 0 0
0.1230 0.0368 -0.8674 0.265 -0.928 0.262 76 50 33 0 0
0.1198 0.0423 -0.8828 0.550 -0.760 0.346 75 49 34 0 0
0.1223 0.0387 -0.8902 0.816 -0.537 0.213 69 43 28 0 0
0.1166 0.0487 -0.9242 0.619 -0.784 0.042 85 58 34 0 0
0.1167 0.0486 -0.9272 0.573 -0.815 0.086 85 59 36 0 0
0.1215 0.0420 -0.9455 0.030 -0.990 0.139 44 20 8 0 0
0.1253 0.0365 -0.9547 0.542 -0.653 0.530 64 40 27 0 0
0.1262 0.0353 -0.9571 0.542 -0.653 0.530 71 52 39 0 0
0.1451 0.0080 -0.9932 0.471 -0.866 0.167 80 61 54 0 0
0.1454 0.0076 -0.9961 0.471 -0.866 0.167 75 52 42 0 0
0.1545 -0.0059 -1.0059 0.606 -0.788 -0.112 60 28 10 0 0
0.1564 -0.0086 -1.0135 0.458 -0.888 -0.030 61 25 8 0 0
0.1566 -0.0087 -1.0164 0.519 -0.829 -0.207 61 26 7 0 0
0.1565 -0.0084 -1.0198 0.674 -0.739 -0.007 64 29 9 0 0
0.1607 -0.0146 -1.0280 0.786 -0.594 0.170 75 41 16 0 0
0.1604 -0.0134 -1.0442 0.526 -0.783 0.331 92 62 39 0 0
0.1607 -0.0114 -1.1141 0.465 -0.808 0.361 80 48 18 0 0
0.1629 -0.0145 -1.1180 0.613 -0.702 0.363 85 57 32 0 0
0.1635 -0.0153 -1.1206 0.613 -0.702 0.363 85 59 34 0 0
0.1640 -0.0161 -1.1231 0.613 -0.702 0.363 85 59 35 0 0
0.1652 -0.0177 -1.1282 0.688 -0.681 0.249 86 60 37 0 0
0.1643 -0.0161 -1.1325 0.590 -0.807 -0.033 87 61 38 0 0
0.1645 -0.0162 -1.1386 0.682 -0.688 0.247 83 58 37 0 0
0.1654 -0.0176 -1.1408 0.819 -0.571 0.058 81 59 38 0 0
0.0407 0.1208 0.1125 0.200 -0.465 0.862 124 104 91 0 0
0.0559 0.0987 0.0881 0.510 -0.722 0.467 90 55 26 0 0
0.0554 0.1003 0.0655 0.747 -0.601 0.284 74 38 16 0 0
0.0595 0.0954 0.0282 0.639 -0.732 0.237 73 37 15 0 0
0.0600 0.0948 0.0254 0.639 -0.732 0.237 72 36 14 0 0
0.0595 0.0961 0.0083 0.809 -0.541 0.229 66 31 10 0 0
0.0840 0.0625 -0.0853 0.607 -0.784 0.128 53 22 8 0 0
0.0824 0.0649 -0.0883 0.574 -0.819 -0.015 53 25 11 0 0
0.0828 0.0644 -0.0911 0.549 -0.787 0.279 55 25 14 0 0
0.1141 0.0186 -0.1333 0.417 -0.906 0.071 76 39 13 0 0
0.0861 0.0675 -0.3141 0.419 -0.885 0.205 57 25 11 0 0
0.0865 0.0672 -0.3229 0.531 -0.822 0.205 57 28 13 0 0
0.0760 0.0838 -0.3439 0.652 -0.751 -0.100 37 23 15 0 0
0.0877 0.0673 -0.3760 0.269 -0.952 0.148 49 25 13 0 0
0.1087 0.0372 -0.4217 0.712 -0.672 0.203 66 32 9 0 0
0.0896 0.0671 -0.4534 0.254 -0.349 -0.902 71 44 27 0 0
0.0696 0.0980 -0.4711 0.431 -0.872 0.233 58 29 11 0 0
0.0698 0.0978 -0.4741 0.508 -0.851 0.134 63 34 16 0 0
0.0701 0.0975 -0.4771 0.508 -0.851 0.134 57 28 10 0 0
0.0694 0.0992 -0.4929 0.572 -0.792 0.214 67 36 16 0 0
0.0699 0.0984 -0.4958 0.583 -0.805 0.109 68 37 17 0 0
0.0704 0.0983 -0.5142 0.451 -0.891 -0.044 64 33 13 0 0
0.0709 0.0978 -0.5201 0.671 -0.733 0.117 61 30 10 0 0
0.0708 0.0980 -0.5233 0.653 -0.753 -0.082 64 32 13 0 0
0.0710 0.0981 -0.5326 0.606 -0.796 -0.001 65 32 13 0 0
0.0696 0.1012 -0.5583 0.551 -0.822 0.142 70 35 13 0 0
0.0715 0.0985 -0.5636 0.569 -0.782 0.256 71 36 14 0 0
0.0720 0.0979 -0.5665 0.569 -0.782 0.256 75 40 18 0 0
0.0720 0.0979 -0.5696 0.571 -0.815 0.099 76 41 19 0 0
0.0713 0.0994 -0.5794 0.688 -0.726 0.017 72 38 13 0 0
0.0713 0.0994 -0.5825 0.688 -0.726 0.017 72 38 13 0 0
0.0705 0.1012 -0.5987 0.687 -0.703 0.185 77 39 16 0 0
0.0726 0.0988 -0.6196 0.537 -0.842 0.046 83 47 21 0 0
0.0731 0.0990 -0.6478 0.674 -0.738 -0.034 70 34 12 0 0
0.0768 0.0944 -0.6742 0.611 -0.778 0.148 58 29 11 0 0
0.0769 0.0943 -0.6773 0.586 -0.808 0.056 60 32 15 0 0
0.0837 0.0861 -0.7334 0.689 -0.678 0.255 48 20 8 0 0
0.0925 0.0732 -0.7464 0.545 -0.613 0.572 50 20 9 0 0
0.0922 0.0739 -0.7498 0.433 -0.877 0.209 50 20 9 0 0
0.0927 0.0732 -0.7526 0.593 -0.789 -0.163 50 20 9 0 0
0.1046 0.0574 -0.8137 0.593 -0.759 0.268 48 20 8 0 0
0.1117 0.0469 -0.8208 0.405 -0.885 0.231 56 24 11 0 0
0.1113 0.0476 -0.8243 0.552 -0.829 0.087 54 25 11 0 0
0.1193 0.0368 -0.8590 0.700 -0.714 -0.000 74 38 16 0 0
0.1195 0.0367 -0.8620 0.519 -0.785 0.339 70 39 18 0 0
0.1158 0.0436 -0.9034 0.698 -0.632 -0.336 63 37 22 0 0
0.1229 0.0348 -0.9548 0.477 -0.783 0.400 70 46 33 0 0
0.1235 0.0339 -0.9574 0.477 -0.783 0.400 78 59 47 0 0
0.1247 0.0323 -0.9595 0.201 -0.826 0.526 85 68 61 0 0
0.1255 0.0310 -0.9619 0.329 -0.850 0.412 81 65 60 0 0
0.1431 0.0056 -0.9929 0.681 -0.724 0.113 86 66 60 0 0
0.1506 -0.0056 -0.9980 0.534 -0.704 0.469 66 35 16 0 0
0.1510 -0.0060 -1.0008 0.611 -0.784 0.108 65 32 14 0 0
0.1522 -0.0074 -1.0123 0.571 -0.803 0.172 59 24 8 0 0
0.1542 -0.0103 -1.0166 0.519 -0.829 -0.207 61 26 7 0 0
0.1539 -0.0098 -1.0200 0.495 -0.860 -0.129 64 29 9 0 0
0.1593 -0.0178 -1.0239 0.737 -0.674 0.057 72 38 13 0 0
0.1594 -0.0179 -1.0269 0.737 -0.674 0.057 73 39 14 0 0
0.1563 -0.0117 -1.0683 0.553 -0.797 -0.243 87 59 38 0 0
0.1597 -0.0157 -1.0997 0.501 -0.859 -0.104 60 29 10 0 0
0.1582 -0.0129 -1.1142 0.465 -0.808 0.361 82 49 20 0 0
0.1614 -0.0175 -1.1202 0.589 -0.690 0.421 89 63 39 0 0
0.1624 -0.0184 -1.1383 0.651 -0.706 0.280 84 59 38 0 0
0.0549 0.0952 0.0851 0.491 -0.699 0.521 96 60 31 0 0
0.0575 0.0923 0.0538 0.552 -0.731 0.401 77 41 16 0 0
0.0575 0.0939 0.0082 0.796 -0.580 0.172 70 35 12 0 0
0.0617 0.0899 -0.0578 0.584 -0.812 -0.000 61 32 18 0 0
0.0700 0.0778 -0.0689 0.644 -0.322 0.694 74 54 46 0 0
0.0804 0.0628 -0.0883 0.682 -0.723 -0.112 53 24 11 0 0
0.0808 0.0624 -0.0911 0.634 -0.736 0.240 48 19 8 0 0
0.1096 0.0202 -0.1252 0.720 -0.531 0.448 84 40 15 0 0
0.1105 0.0189 -0.1279 0.692 -0.659 0.294 80 37 12 0 0
0.1005 0.0362 -0.1913 0.718 -0.545 -0.432 58 39 32 0 0
0.0906 0.0519 -0.2131 -0.005 -0.999 -0.034 52 35 28 0 0
0.0908 0.0517 -0.2160 0.523 -0.739 -0.425 56 39 32 0 0
0.0779 0.0739 -0.2980 0.766 -0.637 -0.082 40 20 13 0 0
0.0785 0.0732 -0.3008 0.646 -0.743 0.172 40 20 13 0 0
0.0785 0.0733 -0.3037 0.689 -0.725 0.008 49 32 25 0 0
0.0786 0.0733 -0.3067 0.689 -0.725 0.008 61 45 37 0 0
0.0788 0.0731 -0.3096 0.661 -0.693 0.290 63 41 30 0 0
0.0793 0.0724 -0.3124 0.661 -0.693 0.290 46 17 6 0 0
0.0838 0.0658 -0.3171 0.580 -0.766 0.277 61 32 18 0 0
0.0831 0.0671 -0.3232 0.461 -0.876 0.140 56 27 13 0 0
0.1045 0.0379 -0.4106 0.556 -0.789 0.261 96 67 50 0 0
0.1050 0.0373 -0.4134 0.628 -0.731 0.266 78 39 15 0 0
0.1054 0.0367 -0.4162 0.628 -0.731 0.266 75 35 9 0 0
0.1067 0.0350 -0.4216 0.712 -0.672 0.203 66 32 10 0 0
0.1070 0.0346 -0.4244 0.712 -0.672 0.203 69 32 10 0 0
0.0667 0.0977 -0.4930 0.481 -0.871 0.099 66 35 15 0 0
0.0673 0.0971 -0.4990 0.423 -0.876 0.233 62 31 11 0 0
0.0675 0.0969 -0.5020 0.571 -0.821 0.015 64 33 13 0 0
0.0684 0.0959 -0.5109 0.548 -0.835 0.045 62 31 11 0 0
0.0685 0.0958 -0.5140 0.548 -0.835 0.045 61 30 11 0 0
0.0686 0.0957 -0.5170 0.548 -0.835 0.045 64 33 13 0 0
0.0687 0.0956 -0.5201 0.548 -0.835 0.045 72 41 20 0 0
0.0662 0.1000 -0.5369 0.576 -0.813 0.082 64 33 12 0 0
0.0695 0.0956 -0.5509 0.664 -0.725 0.185 66 31 11 0 0
0.0671 0.0995 -0.5584 0.551 -0.822 0.142 70 35 13 0 0
0.0698 0.0956 -0.5632 0.574 -0.819 -0.017 73 38 16 0 0
0.0698 0.0958 -0.5695 0.574 -0.819 -0.017 75 40 18 0 0
0.0698 0.0959 -0.5726 0.574 -0.819 -0.017 75 40 17 0 0
0.0685 0.0980 -0.5765 0.616 -0.787 0.042 73 39 14 0 0
0.0690 0.0973 -0.5793 0.589 -0.785 0.191 75 41 16 0 0
0.0698 0.0963 -0.5852 0.612 -0.761 0.216 75 41 16 0 0
0.0693 0.0980 -0.6107 0.366 -0.931 -0.006 74 37 11 0 0
0.0692 0.0982 -0.6139 0.469 -0.883 -0.019 76 39 13 0 0
0.0725 0.0942 -0.6373 0.509 -0.803 0.310 74 38 13 0 0
0.0743 0.0916 -0.6457 0.572 -0.802 0.173 69 33 11 0 0
0.0697 0.0989 -0.6548 0.563 -0.801 -0.203 66 31 11 0 0
0.0695 0.0994 -0.6581 0.632 -0.755 0.176 66 33 12 0 0
0.0745 0.0926 -0.6773 0.586 -0.808 0.056 55 27 10 0 0
0.0747 0.0924 -0.6804 0.447 -0.894 -0.015 55 26 12 0 0
0.0741 0.0939 -0.6999 0.511 -0.847 0.142 50 22 10 0 0
0.0922 0.0686 -0.7576 -0.149 -0.974 0.172 51 21 10 0 0
0.0907 0.0713 -0.7651 0.513 -0.838 0.186 50 20 9 0 0
0.0951 0.0648 -0.7745 0.518 -0.667 0.535 48 20 8 0 0
0.0993 0.0598 -0.8096 0.256 -0.929 0.269 50 20 9 0 0
0.1098 0.0444 -0.8236 0.286 -0.911 0.297 56 27 13 0 0
0.1134 0.0395 -0.8334 0.227 -0.964 0.141 58 26 8 0 0
0.1137 0.0391 -0.8363 0.227 -0.964 0.141 60 27 8 0 0
0.1170 0.0349 -0.8589 0.604 -0.781 0.157 73 37 15 0 0
0.1174 0.0344 -0.8618 0.516 -0.823 0.238 71 40 19 0 0
0.1176 0.0341 -0.8647 0.583 -0.736 0.346 74 46 27 0 0
0.1182 0.0334 -0.8675 0.519 -0.785 0.339 76 50 33 0 0
0.1174 0.0348 -0.8745 0.580 -0.813 -0.059 76 52 36 0 0
0.1158 0.0376 -0.8853 0.713 -0.688 -0.134 73 50 34 0 0
0.1135 0.0418 -0.9034 0.700 -0.631 -0.335 64 38 23 0 0
0.1121 0.0444 -0.9206 0.626 -0.778 -0.050 82 56 33 0 0
0.1121 0.0446 -0.9239 0.626 -0.778 -0.050 83 57 32 0 0
0.1140 0.0424 -0.9415 0.492 -0.786 0.375 44 19 10 0 0
0.1193 0.0347 -0.9527 0.232 -0.846 0.480 52 27 16 0 0
0.1204 0.0332 -0.9549 0.477 -0.783 0.400 54 30 18 0 0
0.1210 0.0324 -0.9575 0.232 -0.846 0.480 78 59 49 0 0
0.1403 0.0044 -0.9901 0.761 -0.445 0.471 86 68 64 0 0
0.1475 -0.0062 -0.9988 0.085 -0.848 0.523 69 38 20 0 0
0.1481 -0.0069 -1.0045 0.415 -0.908 -0.063 61 29 11 0 0
0.1575 -0.0203 -1.0233 0.679 -0.734 -0.026 71 37 12 0 0
0.1562 -0.0167 -1.0691 0.518 -0.849 -0.104 86 58 37 0 0
0.1566 -0.0172 -1.0719 0.536 -0.838 0.100 87 60 39 0 0
0.1492 -0.0056 -1.0863 0.636 -0.771 0.040 65 40 28 0 0
0.1589 -0.0191 -1.1203 0.605 -0.783 0.142 86 60 37 0 0
0.1584 -0.0182 -1.1241 0.436 -0.828 0.352 87 61 38 0 0
0.1602 -0.0205 -1.1317 0.338 -0.940 0.047 84 58 35 0 0
0.0288 0.1278 0.1219 -0.316 -0.850 -0.422 183 183 183 0 0
0.0571 0.0870 0.0762 0.472 -0.868 0.156 84 47 26 0 0
0.0574 0.0866 0.0733 0.472 -0.868 0.156 76 39 18 0 0
0.0554 0.0918 0.0110 0.764 -0.640 -0.082 80 46 21 0 0
0.0557 0.0914 0.0081 0.796 -0.580 0.172 77 43 18 0 0
0.0609 0.0860 -0.0607 0.512 -0.769 0.382 79 54 41 0 0
0.0618 0.0848 -0.0635 0.431 -0.733 0.527 99 82 70 0 0
0.0783 0.0608 -0.0883 0.682 -0.723 -0.112 52 23 10 0 0
0.0800 0.0585 -0.0939 0.352 -0.669 0.654 51 26 17 0 0
0.1074 0.0183 -0.1252 0.712 -0.610 0.346 90 47 21 0 0
0.1023 0.0272 -0.1567 0.458 -0.884 -0.100 63 45 37 0 0
0.0815 0.0624 -0.2699 0.454 -0.879 -0.147 50 32 22 0 0
0.0802 0.0660 -0.3175 0.384 -0.923 -0.021 56 28 14 0 0
0.0806 0.0656 -0.3233 0.538 -0.816 0.212 54 27 12 0 0
0.0822 0.0633 -0.3287 0.403 -0.703 0.586 59 31 16 0 0
0.0708 0.0816 -0.3622 0.731 -0.620 0.283 34 18 12 0 0
0.1051 0.0323 -0.4272 0.542 -0.840 -0.037 70 33 11 0 0
0.1051 0.0324 -0.4302 0.542 -0.840 -0.037 70 35 13 0 0
0.1012 0.0385 -0.4348 0.019 -0.973 -0.229 70 39 19 0 0
0.0645 0.0948 -0.4683 0.245 -0.957 -0.156 63 36 20 0 0
0.0622 0.0984 -0.4723 0.599 -0.800 0.049 58 30 12 0 0
0.0623 0.0983 -0.4754 0.599 -0.800 0.049 61 32 14 0 0
0.0659 0.0942 -0.5110 0.474 -0.867 0.155 60 29 9 0 0
0.0660 0.0941 -0.5140 0.471 -0.882 -0.004 59 28 11 0 0
0.0670 0.0938 -0.5509 0.664 -0.735 0.135 67 32 12 0 0
0.0673 0.0936 -0.5570 0.644 -0.763 0.055 70 35 14 0 0
0.0673 0.0938 -0.5602 0.574 -0.819 -0.017 71 36 15 0 0
0.0673 0.0939 -0.5633 0.574 -0.819 -0.017 78 43 22 0 0
0.0673 0.0940 -0.5664 0.574 -0.819 -0.017 75 40 18 0 0
0.0673 0.0941 -0.5695 0.574 -0.819 -0.017 72 37 15 0 0
0.0673 0.0941 -0.5727 0.574 -0.819 -0.017 71 36 14 0 0
0.0673 0.0946 -0.5852 0.609 -0.740 0.284 77 42 18 0 0
0.0685 0.0930 -0.5909 0.714 -0.623 0.320 79 43 19 0 0
0.0691 0.0923 -0.5937 0.714 -0.623 0.320 78 42 18 0 0
0.0722 0.0895 -0.6487 0.572 -0.802 0.173 68 33 12 0 0
0.0715 0.0906 -0.6522 0.671 -0.736 0.087 66 32 12 0 0
0.0748 0.0872 -0.6946 0.490 -0.864 0.117 51 23 10 0 0
0.0861 0.0720 -0.7443 0.184 -0.825 0.534 52 22 11 0 0
0.0963 0.0589 -0.8100 0.256 -0.929 0.269 51 21 10 0 0
0.1080 0.0419 -0.8263 0.341 -0.812 0.474 56 24 11 0 0
0.1167 0.0298 -0.8541 0.425 -0.830 0.362 76 39 16 0 0
0.1149 0.0327 -0.8587 0.593 -0.802 0.076 75 41 19 0 0
0.1151 0.0325 -0.8617 0.613 -0.755 0.233 78 47 27 0 0
0.1150 0.0331 -0.8745 0.580 -0.813 -0.059 76 52 36 0 0
0.1138 0.0353 -0.8851 0.723 -0.686 0.080 72 48 32 0 0
0.1123 0.0379 -0.8959 0.684 -0.688 -0.242 71 45 31 0 0
0.1097 0.0423 -0.9110 0.548 -0.829 -0.110 59 34 19 0 0
0.1101 0.0418 -0.9139 0.444 -0.893 -0.074 67 42 24 0 0
0.1100 0.0422 -0.9204 0.660 -0.750 -0.040 84 58 35 0 0
0.1092 0.0438 -0.9307 0.702 -0.706 0.089 86 57 33 0 0
0.1094 0.0436 -0.9338 0.702 -0.706 0.089 83 52 27 0 0
0.1103 0.0423 -0.9362 0.616 -0.726 0.307 69 39 19 0 0
0.1108 0.0416 -0.9389 0.616 -0.726 0.307 53 25 13 0 0
0.1114 0.0409 -0.9416 0.435 -0.847 0.306 46 20 12 0 0
0.1184 0.0309 -0.9577 0.655 -0.643 0.396 74 55 46 0 0
0.1246 0.0219 -0.9679 0.274 -0.566 0.778 93 81 76 0 0
0.1260 0.0198 -0.9697 0.364 -0.647 0.670 94 81 76 0 0
0.1283 0.0166 -0.9740 0.503 -0.599 0.623 99 85 81 0 0
0.1323 0.0107 -0.9765 0.694 -0.544 0.471 92 76 70 0 0
0.1457 -0.0086 -0.9983 0.297 -0.877 0.379 68 37 18 0 0
0.1462 -0.0093 -1.0040 0.388 -0.597 0.702 60 27 9 0 0
0.1457 -0.0083 -1.0078 0.478 -0.859 -0.183 59 26 9 0 0
0.1547 -0.0213 -1.0238 0.725 -0.685 0.072 70 36 12 0 0
0.1529 -0.0180 -1.0446 0.437 -0.860 0.263 88 59 35 0 0
0.1561 -0.0210 -1.0921 0.161 -0.967 -0.199 48 24 12 0 0
0.1559 -0.0200 -1.1147 0.423 -0.904 -0.054 91 62 36 0 0
0.1566 -0.0202 -1.1396 0.134 -0.988 -0.078 83 58 37 0 0
0.0246 0.1291 0.1134 -0.151 -0.831 0.535 133 117 107 0 0
0.0204 0.1354 0.1110 -0.003 -0.693 -0.721 119 95 80 0 0
0.0596 0.0783 0.0673 -0.158 -0.896 0.416 75 39 14 0 0
0.0582 0.0805 0.0646 0.191 -0.973 -0.129 73 37 12 0 0
0.0572 0.0823 0.0562 0.292 -0.887 -0.359 80 43 18 0 0
0.0528 0.0905 0.0110 0.563 -0.824 0.054 79 45 20 0 0
0.0539 0.0890 0.0052 0.814 -0.530 0.239 72 37 15 0 0
0.0545 0.0881 0.0024 0.740 -0.603 0.297 68 33 13 0 0
0.0566 0.0870 -0.0550 0.604 -0.709 0.365 57 32 19 0 0
0.0570 0.0865 -0.0579 0.714 -0.671 0.202 45 17 6 0 0
0.0758 0.0595 -0.0912 0.553 -0.803 0.222 51 22 10 0 0
0.1057 0.0159 -0.1252 0.617 -0.619 0.485 85 44 16 0 0
0.1061 0.0154 -0.1280 0.606 -0.760 0.233 76 35 8 0 0
0.1064 0.0151 -0.1307 0.305 -0.878 0.368 78 38 12 0 0
0.1046 0.0184 -0.1505 0.341 -0.934 -0.107 64 41 31 0 0
0.0780 0.0625 -0.2732 0.223 -0.929 -0.294 49 31 21 0 0
0.0753 0.0671 -0.2916 0.403 -0.912 -0.076 41 21 14 0 0
0.0771 0.0648 -0.3000 0.727 -0.677 0.113 44 22 14 0 0
0.0765 0.0659 -0.3060 0.562 -0.825 0.061 66 47 40 0 0
0.0766 0.0657 -0.3090 0.562 -0.825 0.061 68 41 32 0 0
0.0780 0.0639 -0.3145 0.639 -0.769 0.020 56 26 12 0 0
0.0774 0.0650 -0.3176 0.399 -0.914 0.070 54 26 12 0 0
0.0781 0.0640 -0.3234 0.513 -0.840 0.176 54 27 12 0 0
0.0680 0.0806 -0.3624 0.290 -0.875 0.387 34 18 11 0 0
0.1030 0.0300 -0.4183 0.603 -0.765 0.227 69 33 9 0 0
0.1014 0.0328 -0.4308 0.422 -0.905 -0.053 72 36 14 0 0
0.0607 0.0951 -0.4689 0.721 -0.672 0.172 61 35 19 0 0
0.0599 0.0964 -0.4723 0.687 -0.715 0.127 54 27 9 0 0
0.0602 0.0961 -0.4753 0.687 -0.715 0.127 52 25 6 0 0
0.0604 0.0958 -0.4783 0.687 -0.715 0.127 56 29 10 0 0
0.0611 0.0953 -0.4904 0.509 -0.861 0.019 60 29 11 0 0
0.0622 0.0937 -0.4930 0.601 -0.799 -0.005 60 29 11 0 0
0.0622 0.0938 -0.4961 0.601 -0.799 -0.005 61 30 11 0 0
0.0622 0.0938 -0.4991 0.601 -0.799 -0.005 63 30 11 0 0
0.0623 0.0939 -0.5022 0.601 -0.799 -0.005 65 33 13 0 0
0.0623 0.0939 -0.5053 0.601 -0.799 -0.005 67 36 16 0 0
0.0629 0.0931 -0.5082 0.634 -0.764 0.123 68 37 17 0 0
0.0631 0.0929 -0.5111 0.634 -0.764 0.123 68 37 17 0 0
0.0634 0.0926 -0.5141 0.634 -0.764 0.123 64 33 15 0 0
0.0636 0.0923 -0.5171 0.634 -0.764 0.123 63 32 13 0 0
0.0648 0.0918 -0.5508 0.664 -0.735 0.135 66 31 11 0 0
0.0650 0.0915 -0.5538 0.664 -0.735 0.135 66 31 11 0 0
0.0648 0.0919 -0.5571 0.664 -0.723 0.193 67 32 12 0 0
0.0646 0.0928 -0.5728 0.599 -0.795 -0.097 67 32 10 0 0
0.0660 0.0914 -0.5910 0.639 -0.717 0.279 76 42 17 0 0
0.0641 0.0949 -0.6109 0.674 -0.726 0.135 77 40 14 0 0
0.0694 0.0880 -0.6426 0.741 -0.648 0.176 73 37 13 0 0
0.0694 0.0881 -0.6457 0.418 -0.856 0.305 70 34 10 0 0
0.0689 0.0890 -0.6492 0.475 -0.810 0.343 69 34 12 0 0
0.0694 0.0884 -0.6521 0.612 -0.768 0.188 67 35 14 0 0
0.0715 0.0866 -0.6920 0.375 -0.887 0.269 53 24 10 0 0
0.0714 0.0868 -0.6953 0.420 -0.834 0.356 53 25 11 0 0
0.0720 0.0861 -0.6981 0.320 -0.915 0.245 51 23 9 0 0
0.0830 0.0713 -0.7480 0.308 -0.910 0.278 50 20 9 0 0
0.0941 0.0564 -0.8003 0.270 -0.740 0.616 51 21 9 0 0
0.1125 0.0309 -0.8587 0.593 -0.802 0.076 76 45 22 0 0
0.1129 0.0304 -0.8615 0.658 -0.751 0.044 78 49 31 0 0
0.1132 0.0301 -0.8645 0.613 -0.755 0.233 81 55 35 0 0
0.1137 0.0295 -0.8704 0.706 -0.693 0.149 77 54 38 0 0
0.1076 0.0403 -0.9172 0.608 -0.793 -0.022 77 50 30 0 0
0.1069 0.0417 -0.9274 0.597 -0.795 0.106 87 61 36 0 0
0.1130 0.0332 -0.9444 0.346 -0.933 0.096 45 21 9 0 0
0.1132 0.0329 -0.9474 0.289 -0.952 0.097 45 21 9 0 0
0.1157 0.0292 -0.9483 0.876 -0.445 0.187 46 22 10 0 0
0.1137 0.0324 -0.9534 0.311 -0.745 0.590 56 32 20 0 0
0.1168 0.0281 -0.9634 0.309 -0.899 0.310 81 64 59 0 0
0.1220 0.0205 -0.9681 0.274 -0.566 0.778 98 88 83 0 0
0.1249 0.0162 -0.9717 0.503 -0.599 0.623 93 79 76 0 0
0.1337 0.0036 -0.9856 0.225 -0.902 0.369 89 74 69 0 0
0.1519 -0.0224 -1.0243 0.599 -0.798 0.064 70 35 13 0 0
0.1521 -0.0225 -1.0273 0.599 -0.798 0.064 72 37 15 0 0
0.1501 -0.0189 -1.0452 0.561 -0.801 0.208 85 57 33 0 0
0.1501 -0.0189 -1.0483 0.695 -0.685 0.216 87 59 36 0 0
0.1450 -0.0100 -1.0857 0.738 -0.646 -0.194 66 42 28 0 0
0.0148 0.1382 0.1200 -0.161 -0.593 0.789 184 184 183 0 0
0.0166 0.1358 0.1111 0.206 -0.840 -0.502 120 96 81 0 0
0.0515 0.0873 0.0080 0.785 -0.595 0.173 75 40 16 0 0
0.0522 0.0864 0.0052 0.831 -0.523 0.190 67 32 11 0 0
0.0538 0.0843 -0.0063 0.844 -0.535 0.029 73 38 18 0 0
0.0534 0.0854 -0.0206 0.679 -0.733 0.049 78 46 25 0 0
0.0531 0.0860 -0.0235 0.671 -0.712 0.207 78 46 25 0 0
0.0524 0.0877 -0.0436 0.689 -0.718 0.102 50 22 10 0 0
0.1018 0.0168 -0.1254 0.209 -0.866 0.454 89 49 20 0 0
0.1004 0.0196 -0.1480 0.514 -0.800 -0.308 64 39 27 0 0
0.0776 0.0563 -0.2260 0.324 -0.930 0.172 53 36 29 0 0
0.0780 0.0558 -0.2289 0.110 -0.987 0.114 53 36 29 0 0
0.0785 0.0554 -0.2404 0.300 -0.946 -0.125 54 35 29 0 0
0.0726 0.0659 -0.2917 0.403 -0.912 -0.076 43 23 16 0 0
0.0748 0.0634 -0.3118 0.895 -0.420 0.154 60 28 15 0 0
0.0762 0.0614 -0.3144 0.049 -0.999 -0.023 58 27 13 0 0
0.0734 0.0678 -0.3808 0.684 -0.661 0.309 48 25 14 0 0
0.0826 0.0544 -0.3925 -0.056 -0.591 0.805 56 28 18 0 0
0.0848 0.0512 -0.3947 -0.056 -0.591 0.805 58 30 20 0 0
0.1000 0.0291 -0.4098 0.737 -0.414 0.535 102 72 50 0 0
0.0573 0.0949 -0.4724 0.878 -0.471 0.082 58 31 12 0 0
0.0584 0.0940 -0.4936 0.415 -0.894 0.169 58 29 11 0 0
0.0592 0.0929 -0.4964 0.423 -0.847 0.322 59 30 11 0 0
0.0598 0.0920 -0.4992 0.601 -0.799 -0.005 63 32 12 0 0
0.0599 0.0921 -0.5022 0.601 -0.799 -0.005 64 33 13 0 0
0.0608 0.0909 -0.5111 0.741 -0.619 0.261 64 33 13 0 0
0.0616 0.0901 -0.5201 0.460 -0.849 0.262 62 31 10 0 0
0.0603 0.0924 -0.5301 0.507 -0.773 0.381 68 36 15 0 0
0.0607 0.0919 -0.5330 0.651 -0.740 0.171 71 39 18 0 0
0.0609 0.0916 -0.5360 0.551 -0.798 0.246 72 40 19 0 0
0.0614 0.0910 -0.5389 0.551 -0.798 0.246 72 40 19 0 0
0.0619 0.0904 -0.5417 0.534 -0.836 0.126 71 39 18 0 0
0.0618 0.0907 -0.5449 0.614 -0.789 0.002 69 36 15 0 0
0.0621 0.0904 -0.5510 0.383 -0.908 0.168 68 33 13 0 0
0.0626 0.0897 -0.5539 0.482 -0.876 -0.018 65 30 10 0 0
0.0626 0.0898 -0.5570 0.393 -0.912 0.120 66 31 11 0 0
0.0615 0.0925 -0.5858 0.448 -0.893 -0.040 72 36 13 0 0
0.0634 0.0900 -0.5973 0.253 -0.909 0.332 80 43 19 0 0
0.0618 0.0928 -0.6108 0.674 -0.726 0.135 77 40 14 0 0
0.0618 0.0930 -0.6140 0.682 -0.731 0.030 76 39 13 0 0
0.0633 0.0910 -0.6226 0.727 -0.665 0.171 79 42 16 0 0
0.0638 0.0904 -0.6255 0.701 -0.590 0.401 79 42 16 0 0
0.0645 0.0894 -0.6282 0.701 -0.590 0.401 78 41 15 0 0
0.0649 0.0891 -0.6344 0.727 -0.669 0.153 73 37 11 0 0
0.0628 0.0923 -0.6387 0.609 -0.784 0.117 74 38 12 0 0
0.0630 0.0920 -0.6418 0.609 -0.784 0.117 74 38 14 0 0
0.0633 0.0918 -0.6448 0.609 -0.784 0.117 73 37 13 0 0
0.0660 0.0879 -0.6495 0.180 -0.968 0.173 69 34 12 0 0
0.0858 0.0628 -0.7793 0.685 -0.285 0.670 49 20 9 0 0
0.0897 0.0573 -0.7923 0.759 -0.525 0.384 49 21 9 0 0
0.1058 0.0349 -0.8369 0.292 -0.824 0.486 62 29 10 0 0
0.1066 0.0338 -0.8395 0.433 -0.776 0.459 62 30 10 0 0
0.1104 0.0288 -0.8585 0.663 -0.723 0.195 82 52 30 0 0
0.1107 0.0284 -0.8614 0.663 -0.723 0.195 81 53 35 0 0
0.1111 0.0279 -0.8643 0.663 -0.723 0.195 81 55 36 0 0
0.1117 0.0301 -0.9562 0.196 -0.824 0.532 65 41 30 0 0
0.1401 -0.0104 -1.0087 0.844 -0.532 0.068 57 24 7 0 0
0.1497 -0.0205 -1.1325 0.386 -0.922 -0.020 82 53 32 0 0
0.0131 0.1358 0.1112 0.554 -0.651 -0.519 121 98 84 0 0
0.0446 0.0899 0.0822 0.812 -0.538 -0.226 94 62 40 0 0
0.0520 0.0799 0.0533 0.756 -0.619 0.212 81 49 24 0 0
0.0501 0.0842 0.0051 0.920 -0.391 -0.039 67 32 12 0 0
0.0506 0.0853 -0.0494 0.743 -0.512 0.431 28 12 7 0 0
0.0761 0.0493 -0.1023 -0.033 -0.812 0.583 88 67 56 0 0
0.0998 0.0155 -0.1506 0.203 -0.922 0.331 62 43 34 0 0
0.0734 0.0585 -0.2615 0.123 -0.956 -0.267 48 31 23 0 0
0.0679 0.0677 -0.2894 0.568 -0.807 0.163 44 24 15 0 0
0.0704 0.0646 -0.3095 0.444 -0.874 0.197 65 39 29 0 0
0.0707 0.0642 -0.3123 0.444 -0.874 0.197 59 27 14 0 0
0.0735 0.0601 -0.3145 0.646 -0.750 -0.143 60 27 14 0 0
0.0641 0.0757 -0.3621 0.735 -0.588 0.336 33 16 10 0 0
0.0704 0.0670 -0.3811 0.626 -0.689 0.364 42 21 9 0 0
0.0792 0.0543 -0.3930 -0.032 -0.574 0.818 52 23 13 0 0
0.0815 0.0510 -0.3951 -0.056 -0.591 0.805 58 31 20 0 0
0.0983 0.0268 -0.4214 0.306 -0.906 0.294 69 34 11 0 0
0.0546 0.0935 -0.4725 0.591 -0.760 -0.272 59 32 14 0 0
0.0533 0.0956 -0.4793 0.333 -0.939 0.083 56 29 10 0 0
0.0535 0.0955 -0.4823 0.405 -0.907 0.112 56 31 11 0 0
0.0537 0.0952 -0.4853 0.333 -0.939 0.083 56 31 11 0 0
0.0542 0.0946 -0.4882 0.512 -0.841 0.176 57 30 11 0 0
0.0546 0.0942 -0.4912 0.512 -0.841 0.176 57 28 10 0 0
0.0580 0.0895 -0.5051 0.739 -0.479 0.474 66 35 15 0 0
0.0587 0.0886 -0.5079 0.715 -0.600 0.360 65 34 14 0 0
0.0597 0.0874 -0.5137 0.718 -0.696 -0.021 64 33 14 0 0
0.0602 0.0873 -0.5383 0.828 -0.494 0.266 73 41 20 0 0
0.0602 0.0874 -0.5414 0.832 -0.537 0.141 72 40 19 0 0
0.0600 0.0883 -0.5571 0.653 -0.757 0.034 68 33 13 0 0
0.0597 0.0888 -0.5604 0.653 -0.755 0.061 69 34 14 0 0
0.0598 0.0888 -0.5635 0.495 -0.869 0.010 70 35 14 0 0
0.0557 0.0966 -0.6129 0.628 -0.774 -0.088 77 40 14 0 0
0.0557 0.0967 -0.6161 0.539 -0.831 0.138 78 39 14 0 0
0.0600 0.0908 -0.6326 0.530 -0.739 0.417 76 39 13 0 0
0.0599 0.0910 -0.6358 0.381 -0.876 0.295 75 39 13 0 0
0.0604 0.0904 -0.6387 0.609 -0.784 0.117 76 40 15 0 0
0.0643 0.0863 -0.6872 0.465 -0.843 0.270 51 22 8 0 0
0.0730 0.0748 -0.7325 0.539 -0.819 0.195 55 28 11 0 0
0.0878 0.0548 -0.7919 0.759 -0.525 0.384 52 22 11 0 0
0.0891 0.0530 -0.7942 0.434 -0.859 0.273 54 23 12 0 0
0.0949 0.0449 -0.8088 0.588 -0.744 0.319 55 26 10 0 0
0.0953 0.0443 -0.8116 0.329 -0.763 0.556 55 26 10 0 0
0.1031 0.0336 -0.8372 0.605 -0.792 0.087 63 30 10 0 0
0.1077 0.0269 -0.8398 0.515 -0.831 0.212 67 32 12 0 0
0.1085 0.0257 -0.8423 0.297 -0.852 0.430 67 30 9 0 0
0.1088 0.0253 -0.8452 0.249 -0.936 0.247 70 34 9 0 0
0.1043 0.0349 -0.9319 0.587 -0.739 0.330 73 42 17 0 0
0.1046 0.0347 -0.9349 0.576 -0.809 0.117 60 29 11 0 0
0.1321 -0.0045 -0.9889 0.279 -0.760 0.587 94 75 69 0 0
0.1379 -0.0125 -1.0053 0.675 -0.624 0.395 60 27 8 0 0
0.1403 -0.0161 -1.0061 0.690 -0.680 0.250 58 25 8 0 0
0.1453 -0.0231 -1.0199 0.448 -0.882 0.147 63 28 9 0 0
0.1454 -0.0231 -1.0230 0.661 -0.737 0.137 65 30 8 0 0
0.1462 -0.0235 -1.0444 0.539 -0.842 -0.004 89 61 37 0 0
0.1455 -0.0224 -1.0482 0.418 -0.907 -0.052 92 64 40 0 0
0.1412 -0.0147 -1.0848 0.659 -0.746 -0.097 61 37 25 0 0
0.1410 -0.0144 -1.0881 0.659 -0.746 -0.097 50 30 24 0 0
0.1413 -0.0146 -1.0974 0.574 -0.814 0.088 34 18 11 0 0
0.0508 0.0769 0.0391 0.777 -0.622 0.092 72 37 15 0 0
0.0541 0.0756 -0.0665 0.072 -0.820 0.568 63 44 38 0 0
0.0700 0.0528 -0.0913 0.490 -0.848 0.203 53 27 12 0 0
0.0974 0.0144 -0.1591 0.401 -0.724 -0.561 65 48 38 0 0
0.0810 0.0399 -0.1929 0.608 -0.712 -0.352 58 39 33 0 0
0.0804 0.0409 -0.1958 0.613 -0.749 0.252 58 39 33 0 0
0.0793 0.0426 -0.1989 0.083 -0.995 -0.053 58 39 33 0 0
0.0825 0.0378 -0.2012 0.069 -0.970 -0.233 56 37 31 0 0
0.0653 0.0657 -0.2717 0.759 -0.646 0.083 52 35 26 0 0
0.0657 0.0657 -0.2894 0.204 -0.965 0.167 45 25 16 0 0
0.0711 0.0585 -0.3146 0.591 -0.805 -0.054 57 27 13 0 0
0.0707 0.0592 -0.3176 0.586 -0.687 0.429 64 34 21 0 0
0.0599 0.0767 -0.3628 0.593 -0.332 0.734 33 19 11 0 0
0.0965 0.0241 -0.4124 0.491 -0.841 0.226 78 41 15 0 0
0.0967 0.0239 -0.4153 0.566 -0.823 0.045 73 35 10 0 0
0.0962 0.0249 -0.4213 0.459 -0.784 0.418 72 34 12 0 0
0.0571 0.0858 -0.5107 0.737 -0.672 0.066 64 33 15 0 0
0.0575 0.0870 -0.5666 0.578 -0.810 -0.093 71 36 16 0 0
0.0560 0.0896 -0.5799 0.551 -0.784 -0.285 64 30 8 0 0
0.0555 0.0904 -0.5833 0.501 -0.829 -0.248 71 35 13 0 0
0.0576 0.0892 -0.6390 0.305 -0.939 0.157 72 38 13 0 0
0.0616 0.0849 -0.6874 0.429 -0.892 0.142 51 21 10 0 0
0.0789 0.0618 -0.7680 0.743 -0.622 0.249 52 22 11 0 0
0.0798 0.0608 -0.7738 0.856 -0.516 0.036 51 21 10 0 0
0.0924 0.0432 -0.8089 0.805 -0.488 0.337 56 27 11 0 0
0.0930 0.0423 -0.8115 0.805 -0.488 0.337 57 28 12 0 0
0.0989 0.0343 -0.8323 0.485 -0.682 0.548 62 29 11 0 0
0.1053 0.0264 -0.8810 0.754 -0.650 0.091 70 46 30 0 0
0.1067 0.0269 -0.9596 0.700 -0.700 0.138 90 73 64 0 0
0.1075 0.0258 -0.9621 0.590 -0.785 -0.188 88 71 64 0 0
0.1188 0.0095 -0.9739 0.214 -0.860 0.462 96 83 75 0 0
0.1196 0.0084 -0.9763 0.214 -0.860 0.462 89 75 70 0 0
0.1294 -0.0057 -0.9892 0.279 -0.760 0.587 87 70 63 0 0
0.1367 -0.0160 -1.0042 0.713 -0.537 0.451 60 28 8 0 0
0.1422 -0.0234 -1.0271 0.638 -0.768 -0.052 67 32 11 0 0
0.1421 -0.0232 -1.0303 0.529 -0.848 -0.018 70 34 12 0 0
0.1420 -0.0229 -1.0336 0.678 -0.735 0.003 73 37 15 0 0
0.1422 -0.0231 -1.0365 0.651 -0.759 0.019 81 47 24 0 0
0.1424 -0.0233 -1.0395 0.546 -0.754 0.365 84 54 30 0 0
0.1443 -0.0258 -1.0471 0.537 -0.820 0.200 92 64 42 0 0
0.1435 -0.0243 -1.0574 0.550 -0.828 -0.109 91 64 42 0 0
0.1385 -0.0161 -1.0819 0.498 -0.803 0.327 74 48 33 0 0
0.1390 -0.0168 -1.0845 0.498 -0.803 0.327 59 34 24 0 0
0.1387 -0.0162 -1.0881 0.564 -0.795 -0.224 47 28 21 0 0
0.1470 -0.0268 -1.1398 0.464 -0.831 -0.308 81 55 33 0 0
0.0083 0.1322 0.1111 0.347 -0.853 -0.391 128 105 95 0 0
0.0493 0.0773 -0.0638 0.134 -0.759 0.637 63 44 41 0 0
0.0508 0.0752 -0.0666 0.134 -0.759 0.637 55 32 28 0 0
0.0643 0.0559 -0.0830 0.427 -0.903 0.052 58 29 13 0 0
0.0982 0.0073 -0.1308 0.701 -0.668 0.251 79 40 16 0 0
0.0788 0.0380 -0.1929 0.608 -0.712 -0.352 58 39 32 0 0
0.0781 0.0390 -0.1959 0.613 -0.749 0.252 57 38 32 0 0
0.0766 0.0414 -0.1990 0.056 -0.988 -0.141 57 38 32 0 0
0.0785 0.0387 -0.2015 0.218 -0.964 -0.150 57 38 32 0 0
0.0805 0.0359 -0.2041 0.089 -0.656 0.749 56 37 31 0 0
0.0663 0.0587 -0.2622 0.573 -0.756 -0.316 50 33 24 0 0
0.0591 0.0727 -0.3653 0.086 -0.904 0.418 23 10 4 0 0
0.0623 0.0682 -0.3733 0.148 -0.734 0.663 49 27 14 0 0
0.0956 0.0206 -0.4207 0.592 -0.796 0.127 75 37 14 0 0
0.0506 0.0893 -0.4908 0.224 -0.974 0.035 54 27 10 0 0
0.0519 0.0902 -0.5808 0.305 -0.949 -0.081 73 40 17 0 0
0.0517 0.0907 -0.5840 0.480 -0.876 0.034 74 40 18 0 0
0.0501 0.0937 -0.6007 0.500 -0.803 0.324 82 46 22 0 0
0.0510 0.0924 -0.6033 0.561 -0.792 0.241 80 44 19 0 0
0.0702 0.0686 -0.7470 0.346 -0.922 0.176 55 27 13 0 0
0.0774 0.0587 -0.7706 0.714 -0.681 0.163 51 21 10 0 0
0.0779 0.0582 -0.7734 0.672 -0.740 0.040 50 20 9 0 0
0.0788 0.0569 -0.7760 0.552 -0.728 0.407 51 21 10 0 0
0.0892 0.0426 -0.8064 0.781 -0.492 0.385 53 24 9 0 0
0.0901 0.0414 -0.8120 0.568 -0.555 0.607 54 25 9 0 0
0.1041 0.0223 -0.8641 0.707 -0.701 -0.088 83 57 37 0 0
0.1040 0.0227 -0.8674 0.772 -0.633 -0.051 77 54 35 0 0
0.1009 0.0281 -0.8923 0.598 -0.794 0.110 67 44 28 0 0
0.0963 0.0358 -0.9187 0.461 -0.871 -0.168 81 59 37 0 0
0.0963 0.0358 -0.9219 0.374 -0.922 0.100 87 62 40 0 0
0.1068 0.0216 -0.9637 0.551 -0.818 0.165 80 62 56 0 0
0.1349 -0.0185 -1.0068 0.517 -0.853 0.074 61 30 10 0 0
0.1363 -0.0204 -1.0086 0.325 -0.929 0.179 61 28 9 0 0
0.1368 -0.0211 -1.0112 0.300 -0.951 0.069 61 27 8 0 0
0.1378 -0.0225 -1.0134 0.503 -0.712 0.490 61 27 8 0 0
0.1393 -0.0246 -1.0182 0.476 -0.825 0.306 62 27 8 0 0
0.1397 -0.0250 -1.0241 0.767 -0.637 0.080 65 30 7 0 0
0.1398 -0.0249 -1.0303 0.678 -0.735 0.003 72 36 13 0 0
0.1400 -0.0251 -1.0364 0.651 -0.759 0.019 84 50 28 0 0
0.1411 -0.0266 -1.0384 0.537 -0.814 0.222 87 57 34 0 0
0.1415 -0.0271 -1.0412 0.537 -0.814 0.222 90 60 36 0 0
0.1417 -0.0273 -1.0441 0.596 -0.780 0.190 92 62 38 0 0
0.1367 -0.0186 -1.0813 0.696 -0.568 0.439 76 50 35 0 0
0.1444 -0.0281 -1.1432 0.770 -0.602 -0.209 81 55 36 0 0
0.0056 0.1310 0.1111 0.411 -0.888 -0.207 130 112 101 0 0
0.0420 0.0789 0.0618 0.679 -0.712 0.180 54 24 9 0 0
0.0413 0.0800 0.0591 0.298 -0.854 0.426 54 25 11 0 0
0.0488 0.0720 -0.0322 0.704 -0.703 0.103 58 25 9 0 0
0.0489 0.0720 -0.0379 0.755 -0.643 0.130 57 27 11 0 0
0.0490 0.0720 -0.0436 0.793 -0.608 0.039 45 24 14 0 0
0.0766 0.0362 -0.1929 0.608 -0.712 -0.352 58 39 32 0 0
0.0756 0.0380 -0.2046 0.956 -0.294 -0.024 57 38 32 0 0
0.0639 0.0568 -0.2534 0.459 -0.884 0.089 53 34 28 0 0
0.0641 0.0566 -0.2563 0.459 -0.884 0.089 54 35 28 0 0
0.0643 0.0564 -0.2592 0.459 -0.884 0.089 55 37 27 0 0
0.0645 0.0561 -0.2621 0.492 -0.858 0.149 54 37 28 0 0
0.0510 0.0791 -0.3581 0.573 -0.685 -0.450 41 24 16 0 0
0.0904 0.0236 -0.4366 0.630 -0.764 -0.136 78 53 39 0 0
0.0472 0.0889 -0.4882 0.460 -0.873 -0.162 58 31 14 0 0
0.0466 0.0900 -0.4977 0.152 -0.967 0.205 51 24 8 0 0
0.0499 0.0867 -0.5430 0.497 -0.816 0.294 69 37 16 0 0
0.0491 0.0892 -0.5842 0.480 -0.876 0.034 74 41 18 0 0
0.0495 0.0887 -0.5871 0.350 -0.912 0.216 78 43 21 0 0
0.0482 0.0910 -0.6004 0.778 -0.614 0.134 82 48 23 0 0
0.0485 0.0906 -0.6034 0.561 -0.792 0.241 82 48 22 0 0
0.0505 0.0880 -0.6118 0.446 -0.890 0.091 80 43 17 0 0
0.0506 0.0879 -0.6149 0.525 -0.850 0.053 77 40 14 0 0
0.0487 0.0911 -0.6286 0.573 -0.762 0.303 82 47 19 0 0
0.0481 0.0922 -0.6322 0.457 -0.867 0.198 83 48 20 0 0
0.0538 0.0845 -0.6542 0.672 -0.658 0.341 67 32 11 0 0
0.0545 0.0835 -0.6570 0.687 -0.668 0.288 62 29 10 0 0
0.0549 0.0832 -0.6663 0.742 -0.660 0.117 57 27 9 0 0
0.0554 0.0833 -0.6914 0.263 -0.909 0.325 54 25 11 0 0
0.0599 0.0776 -0.7204 0.640 -0.767 0.048 51 23 10 0 0
0.0632 0.0732 -0.7374 0.579 -0.813 0.062 54 26 12 0 0
0.0680 0.0666 -0.7469 0.652 -0.739 0.172 55 28 11 0 0
0.0683 0.0662 -0.7499 0.652 -0.739 0.172 55 28 11 0 0
0.0686 0.0658 -0.7528 0.652 -0.739 0.172 55 28 11 0 0
0.0704 0.0635 -0.7643 0.561 -0.821 0.109 53 24 9 0 0
0.0787 0.0518 -0.7775 0.179 -0.436 0.882 51 22 9 0 0
0.0824 0.0468 -0.7938 0.383 -0.828 0.410 54 23 10 0 0
0.0852 0.0431 -0.8044 0.811 -0.511 0.285 50 21 8 0 0
0.0853 0.0430 -0.8075 0.753 -0.604 0.262 50 21 7 0 0
0.0852 0.0432 -0.8107 0.512 -0.850 0.121 51 22 8 0 0
0.0857 0.0426 -0.8135 0.460 -0.861 0.219 52 23 9 0 0
0.0897 0.0368 -0.8168 0.679 -0.731 -0.071 55 26 10 0 0
0.0994 0.0237 -0.8534 0.579 -0.804 0.136 83 47 22 0 0
0.1001 0.0227 -0.8560 0.513 -0.839 0.182 79 46 21 0 0
0.1004 0.0224 -0.8589 0.261 -0.926 0.273 73 44 23 0 0
0.1009 0.0217 -0.8617 0.602 -0.683 0.413 76 49 30 0 0
0.1011 0.0220 -0.8773 0.468 -0.884 0.005 70 47 29 0 0
0.0976 0.0278 -0.8962 0.543 -0.839 -0.031 65 42 26 0 0
0.0976 0.0279 -0.9026 0.492 -0.870 -0.039 62 36 22 0 0
0.1007 0.0250 -0.9512 0.581 -0.766 0.275 54 31 17 0 0
0.1028 0.0220 -0.9557 0.843 -0.436 0.314 70 49 37 0 0
0.1165 0.0025 -0.9811 0.698 -0.672 0.246 96 82 74 0 0
0.1173 0.0015 -0.9836 0.731 -0.617 0.292 102 87 82 0 0
0.1178 0.0008 -0.9863 0.731 -0.617 0.292 90 77 71 0 0
0.1258 -0.0108 -0.9881 0.562 -0.757 0.332 84 69 60 0 0
0.1264 -0.0117 -0.9907 0.732 -0.656 0.183 79 61 51 0 0
0.1262 -0.0113 -0.9940 0.588 -0.771 0.245 77 53 47 0 0
0.1354 -0.0244 -1.0071 0.588 -0.808 -0.045 64 32 11 0 0
0.1354 -0.0242 -1.0134 0.598 -0.784 0.168 63 29 9 0 0
0.1372 -0.0266 -1.0210 0.371 -0.849 0.377 64 28 9 0 0
0.1379 -0.0275 -1.0235 0.371 -0.849 0.377 68 32 9 0 0
0.1391 -0.0287 -1.0413 0.537 -0.814 0.222 91 61 37 0 0
0.1347 -0.0210 -1.0840 0.525 -0.790 0.319 64 40 27 0 0
0.1422 -0.0307 -1.1238 0.362 -0.892 0.272 83 57 34 0 0
0.1424 -0.0306 -1.1364 0.471 -0.837 -0.279 80 53 32 0 0
0.0023 0.1305 0.1111 0.552 -0.829 0.092 133 118 109 0 0
0.0028 0.1299 0.1082 0.381 -0.924 0.032 128 106 91 0 0
0.0470 0.0668 0.0500 0.592 -0.746 0.305 101 81 72 0 0
0.0457 0.0692 0.0360 0.739 -0.670 0.076 74 38 16 0 0
0.0472 0.0671 0.0331 0.690 -0.674 0.263 73 38 15 0 0
0.0462 0.0707 -0.0380 0.643 -0.765 -0.037 57 26 9 0 0
0.0467 0.0702 -0.0408 0.610 -0.780 0.140 48 21 7 0 0
0.0466 0.0703 -0.0437 0.479 -0.876 0.054 40 21 12 0 0
0.0467 0.0703 -0.0465 0.322 -0.943 0.080 21 10 8 0 0
0.0457 0.0720 -0.0523 0.727 -0.674 -0.134 10 6 7 0 0
0.0865 0.0157 -0.1626 0.300 -0.874 -0.383 65 47 38 0 0
0.0604 0.0566 -0.2478 0.583 -0.807 0.093 56 39 32 0 0
0.0612 0.0555 -0.2535 0.576 -0.742 0.344 55 36 30 0 0
0.0612 0.0557 -0.2594 0.497 -0.850 0.176 54 36 27 0 0
0.0592 0.0591 -0.2746 0.340 -0.912 -0.228 55 36 25 0 0
0.0416 0.0921 -0.4989 0.176 -0.983 0.043 51 24 8 0 0
0.0433 0.0897 -0.5013 0.448 -0.894 0.019 53 26 9 0 0
0.0435 0.0895 -0.5043 0.452 -0.886 0.098 56 29 11 0 0
0.0441 0.0887 -0.5072 0.348 -0.879 0.326 58 30 12 0 0
0.0447 0.0879 -0.5100 0.348 -0.879 0.326 60 32 14 0 0
0.0446 0.0910 -0.6011 0.303 -0.950 0.079 84 49 25 0 0
0.0543 0.0795 -0.6906 0.560 -0.742 0.369 55 25 11 0 0
0.0553 0.0781 -0.6931 0.505 -0.863 0.029 54 24 11 0 0
0.0554 0.0781 -0.6963 0.424 -0.905 0.013 53 22 11 0 0
0.0554 0.0782 -0.6995 0.250 -0.966 0.069 53 23 10 0 0
0.0552 0.0786 -0.7028 0.203 -0.932 0.301 55 25 11 0 0
0.0563 0.0771 -0.7084 0.394 -0.878 -0.273 58 29 15 0 0
0.0554 0.0787 -0.7154 0.323 -0.910 -0.259 52 24 11 0 0
0.0602 0.0723 -0.7346 0.478 -0.873 0.099 55 27 12 0 0
0.0639 0.0676 -0.7576 0.456 -0.867 0.200 55 28 11 0 0
0.0647 0.0664 -0.7602 0.415 -0.832 0.367 56 29 12 0 0
0.0688 0.0606 -0.7638 0.753 -0.614 0.235 56 27 11 0 0
0.0808 0.0443 -0.8059 0.124 -0.926 0.357 52 22 10 0 0
0.0814 0.0434 -0.8086 0.227 -0.908 0.353 52 23 9 0 0
0.0827 0.0416 -0.8108 0.640 -0.766 0.062 52 23 9 0 0
0.0829 0.0414 -0.8138 0.544 -0.834 0.098 52 23 9 0 0
0.0869 0.0356 -0.8171 0.542 -0.832 -0.114 52 23 8 0 0
0.0929 0.0277 -0.8441 0.497 -0.501 0.708 70 33 13 0 0
0.0991 0.0193 -0.8675 0.548 -0.831 -0.096 76 52 33 0 0
0.0989 0.0199 -0.8772 0.722 -0.688 -0.066 71 48 31 0 0
0.0985 0.0207 -0.8839 0.594 -0.805 -0.005 71 48 32 0 0
0.0951 0.0261 -0.8963 0.543 -0.839 -0.031 67 43 28 0 0
0.0977 0.0240 -0.9516 0.462 -0.808 0.365 55 31 18 0 0
0.1011 0.0192 -0.9550 0.843 -0.436 0.314 71 49 37 0 0
0.1015 0.0187 -0.9578 0.896 -0.423 0.134 82 65 54 0 0
0.1132 0.0021 -0.9789 0.556 -0.674 0.486 102 87 81 0 0
0.1239 -0.0131 -0.9940 0.588 -0.771 0.245 80 54 48 0 0
0.1243 -0.0136 -0.9968 0.588 -0.771 0.245 74 46 35 0 0
0.1320 -0.0246 -1.0081 0.462 -0.887 0.015 63 31 10 0 0
0.1321 -0.0246 -1.0112 0.462 -0.887 0.015 63 30 9 0 0
0.1351 -0.0285 -1.0271 0.437 -0.898 0.052 75 40 14 0 0
0.1363 -0.0299 -1.0385 0.630 -0.748 0.210 82 51 27 0 0
0.1367 -0.0304 -1.0413 0.596 -0.780 0.190 88 58 34 0 0
0.1379 -0.0315 -1.0591 0.653 -0.675 0.344 92 66 43 0 0
0.1372 -0.0304 -1.0630 0.599 -0.794 -0.101 90 64 41 0 0
0.1321 -0.0224 -1.0780 0.509 -0.841 0.186 82 56 36 0 0
0.1333 -0.0240 -1.0862 0.363 -0.830 0.424 53 33 24 0 0
0.1338 -0.0246 -1.0889 0.286 -0.860 0.422 35 19 12 0 0
0.1340 -0.0247 -1.0919 0.381 -0.887 0.259 36 19 13 0 0
0.1347 -0.0257 -1.0943 0.338 -0.939 0.057 41 20 13 0 0
0.1368 -0.0284 -1.1080 0.469 -0.815 0.340 77 42 11 0 0
0.1396 -0.0321 -1.1241 0.396 -0.901 0.179 86 59 37 0 0
0.1397 -0.0318 -1.1368 0.352 -0.888 -0.294 83 55 34 0 0
-0.0000 0.1287 0.1081 0.381 -0.924 0.032 129 110 96 0 0
0.0452 0.0658 0.0019 0.855 -0.518 0.025 69 37 12 0 0
0.0391 0.0767 -0.0554 0.775 -0.567 0.281 10 6 5 0 0
0.0398 0.0756 -0.0582 0.397 -0.820 0.412 11 7 6 0 0
0.0781 0.0214 -0.1155 0.502 -0.864 0.032 130 105 94 0 0
0.0856 0.0107 -0.1232 0.690 -0.690 0.217 105 71 47 0 0
0.0836 0.0136 -0.1262 0.555 -0.815 0.165 94 56 26 0 0
0.0846 0.0123 -0.1289 0.487 -0.803 0.345 83 43 14 0 0
0.0861 0.0109 -0.1539 0.451 -0.823 -0.346 66 48 36 0 0
0.0830 0.0157 -0.1628 0.648 -0.721 -0.248 65 46 38 0 0
0.0834 0.0153 -0.1684 0.446 -0.846 -0.292 63 44 37 0 0
0.0681 0.0387 -0.1994 0.112 -0.956 0.273 58 39 33 0 0
0.0681 0.0387 -0.2023 0.195 -0.978 -0.069 58 39 33 0 0
0.0561 0.0586 -0.2748 0.529 -0.840 -0.121 58 38 27 0 0
0.0546 0.0610 -0.2811 0.534 -0.837 0.119 48 28 17 0 0
0.0378 0.0916 -0.4747 -0.252 -0.968 0.017 58 32 16 0 0
0.0391 0.0904 -0.4990 0.241 -0.956 -0.170 56 29 12 0 0
0.0402 0.0888 -0.5016 0.272 -0.949 0.158 56 29 12 0 0
0.0406 0.0884 -0.5046 0.272 -0.949 0.158 57 30 12 0 0
0.0410 0.0879 -0.5075 0.055 -0.988 0.146 57 30 11 0 0
0.0424 0.0859 -0.5100 0.016 -0.936 0.352 57 30 11 0 0
0.0470 0.0810 -0.5671 0.399 -0.762 0.510 66 34 13 0 0
0.0413 0.0899 -0.5857 0.182 -0.945 -0.273 74 42 19 0 0
0.0408 0.0907 -0.5891 0.182 -0.957 -0.226 78 44 21 0 0
0.0409 0.0906 -0.5922 0.167 -0.986 -0.009 80 45 23 0 0
0.0397 0.0926 -0.5961 0.647 -0.753 -0.123 82 46 24 0 0
0.0425 0.0898 -0.6389 0.273 -0.961 0.049 88 52 26 0 0
0.0426 0.0897 -0.6420 0.273 -0.961 0.049 86 50 24 0 0
0.0428 0.0896 -0.6451 0.273 -0.961 0.049 82 46 20 0 0
0.0429 0.0894 -0.6482 0.228 -0.974 0.013 79 43 17 0 0
0.0537 0.0752 -0.6990 0.680 -0.712 -0.175 56 26 12 0 0
0.0542 0.0747 -0.7019 0.732 -0.664 0.152 57 26 13 0 0
0.0756 0.0463 -0.7985 0.389 -0.824 0.412 53 21 9 0 0
0.0783 0.0427 -0.8091 0.008 -0.967 0.255 52 23 9 0 0
0.0945 0.0206 -0.8599 0.434 -0.894 0.110 75 44 20 0 0
0.0963 0.0186 -0.8837 0.517 -0.856 -0.004 70 48 33 0 0
0.0887 0.0309 -0.9190 0.597 -0.782 0.180 82 57 37 0 0
0.0889 0.0307 -0.9220 0.622 -0.777 0.098 87 63 39 0 0
0.0892 0.0307 -0.9378 0.469 -0.882 0.035 56 27 8 0 0
0.0907 0.0287 -0.9430 0.778 -0.551 0.301 44 21 8 0 0
0.0918 0.0274 -0.9517 0.522 -0.718 0.462 49 25 13 0 0
0.1130 -0.0027 -0.9832 0.744 -0.644 0.177 96 82 77 0 0
0.1293 -0.0258 -1.0085 0.678 -0.727 0.105 62 30 10 0 0
0.1295 -0.0260 -1.0114 0.604 -0.796 0.030 62 30 9 0 0
0.1296 -0.0259 -1.0146 0.462 -0.887 0.015 62 31 10 0 0
0.1325 -0.0298 -1.0274 0.445 -0.888 0.114 75 39 13 0 0
0.1363 -0.0324 -1.1220 0.486 -0.806 0.337 85 59 37 0 0
0.1368 -0.0331 -1.1246 0.359 -0.924 0.131 87 60 39 0 0
0.1371 -0.0333 -1.1307 0.362 -0.893 0.270 85 58 37 0 0
0.1378 -0.0343 -1.1331 0.397 -0.766 0.506 83 56 35 0 0
-0.0032 0.1281 0.1082 0.518 -0.853 0.058 129 112 101 0 0
-0.0031 0.1281 0.1053 0.480 -0.874 -0.076 120 95 78 0 0
0.0432 0.0638 0.0018 0.597 -0.756 0.270 69 37 13 0 0
0.0436 0.0633 -0.0038 0.755 -0.647 0.104 69 34 13 0 0
0.0372 0.0744 -0.0583 0.430 -0.806 0.407 11 6 6 0 0
0.0505 0.0557 -0.0835 0.523 -0.817 0.241 65 38 23 0 0
0.0754 0.0203 -0.1156 0.457 -0.889 -0.043 133 106 97 0 0
0.0837 0.0087 -0.1260 0.406 -0.907 -0.112 90 50 22 0 0
0.0829 0.0098 -0.1288 0.236 -0.914 0.329 85 43 17 0 0
0.0829 0.0102 -0.1401 0.493 -0.865 0.097 64 32 12 0 0
0.0717 0.0276 -0.1755 0.708 -0.704 -0.060 65 47 37 0 0
0.0720 0.0273 -0.1783 0.656 -0.684 -0.318 65 47 37 0 0
0.0710 0.0288 -0.1813 0.578 -0.761 -0.294 63 44 35 0 0
0.0710 0.0289 -0.1842 0.644 -0.683 -0.346 60 41 34 0 0
0.0704 0.0299 -0.1872 0.688 -0.721 -0.087 59 40 33 0 0
0.0659 0.0366 -0.1908 0.576 -0.815 0.056 60 41 34 0 0
0.0660 0.0365 -0.1936 0.576 -0.815 0.056 60 41 34 0 0
0.0670 0.0350 -0.1963 0.479 -0.869 -0.123 59 40 33 0 0
0.0669 0.0353 -0.1992 0.384 -0.921 -0.071 58 39 33 0 0
0.0665 0.0359 -0.2022 0.308 -0.838 -0.450 58 39 33 0 0
0.0562 0.0524 -0.2478 0.284 -0.910 -0.301 58 39 33 0 0
0.0547 0.0550 -0.2599 0.405 -0.878 -0.256 55 36 29 0 0
0.0536 0.0570 -0.2749 0.509 -0.852 -0.127 56 36 25 0 0
0.0529 0.0583 -0.2810 0.298 -0.951 0.087 51 31 20 0 0
0.0533 0.0578 -0.2868 0.456 -0.857 -0.238 51 31 22 0 0
0.0532 0.0582 -0.2898 0.387 -0.919 -0.070 46 26 17 0 0
0.0370 0.0884 -0.5082 -0.105 -0.977 0.184 57 30 12 0 0
0.0338 0.0932 -0.5128 0.643 -0.662 -0.386 58 31 12 0 0
0.0330 0.0946 -0.5195 0.209 -0.978 0.001 57 30 11 0 0
0.0377 0.0900 -0.5927 0.311 -0.950 -0.033 80 46 26 0 0
0.0377 0.0901 -0.5958 0.311 -0.950 -0.033 79 44 22 0 0
0.0376 0.0903 -0.5991 0.355 -0.935 -0.016 82 47 25 0 0
0.0376 0.0904 -0.6022 0.355 -0.935 -0.016 85 50 28 0 0
0.0400 0.0881 -0.6390 0.335 -0.940 -0.060 87 53 26 0 0
0.0839 0.0301 -0.8411 0.788 -0.616 -0.010 66 30 11 0 0
0.0853 0.0283 -0.8432 0.809 -0.523 0.268 73 37 15 0 0
0.0852 0.0284 -0.8464 0.695 -0.552 0.460 72 35 15 0 0
0.0910 0.0206 -0.8640 0.485 -0.870 -0.093 78 50 29 0 0
0.0906 0.0212 -0.8674 0.472 -0.867 -0.157 79 54 34 0 0
0.0904 0.0217 -0.8708 0.472 -0.867 -0.157 78 54 34 0 0
0.0901 0.0221 -0.8742 0.472 -0.867 -0.157 76 54 34 0 0
0.0863 0.0289 -0.9126 0.557 -0.831 -0.020 65 42 28 0 0
0.0870 0.0280 -0.9152 0.687 -0.719 -0.107 72 49 33 0 0
0.0864 0.0293 -0.9317 0.457 -0.889 -0.011 86 57 33 0 0
0.0911 0.0230 -0.9501 0.530 -0.797 0.290 47 23 11 0 0
0.0959 0.0165 -0.9650 0.617 -0.733 0.288 92 77 71 0 0
0.1095 -0.0028 -0.9811 0.282 -0.753 0.594 86 71 66 0 0
0.1105 -0.0042 -0.9833 0.282 -0.753 0.594 87 72 67 0 0
0.1210 -0.0192 -0.9954 0.691 -0.452 0.564 74 45 34 0 0
0.1245 -0.0239 -1.0078 0.282 -0.952 0.119 63 30 11 0 0
0.1251 -0.0247 -1.0103 0.386 -0.921 0.050 62 29 10 0 0
0.1301 -0.0315 -1.0274 0.634 -0.755 0.168 72 37 14 0 0
0.1321 -0.0339 -1.0443 0.612 -0.780 0.130 90 60 36 0 0
0.1292 -0.0283 -1.0856 0.789 -0.511 0.341 51 30 19 0 0
0.1320 -0.0315 -1.1145 0.575 -0.814 0.078 86 54 26 0 0
0.1355 -0.0361 -1.1330 0.567 -0.728 0.386 84 57 36 0 0
-0.0060 0.1269 0.1082 0.638 -0.759 -0.131 136 122 114 0 0
-0.0061 0.1272 0.1053 0.608 -0.785 -0.121 126 102 87 0 0
0.0260 0.0816 0.0678 0.515 -0.848 -0.123 60 31 17 0 0
0.0261 0.0817 0.0650 0.347 -0.937 -0.028 61 32 18 0 0
0.0476 0.0513 0.0354 0.452 -0.869 0.203 76 39 19 0 0
0.0427 0.0584 0.0328 0.852 -0.513 0.107 70 36 16 0 0
0.0427 0.0590 0.0131 0.751 -0.630 -0.198 67 32 12 0 0
0.0425 0.0594 0.0103 0.797 -0.597 -0.090 68 33 13 0 0
0.0426 0.0594 0.0074 0.740 -0.671 -0.032 70 35 15 0 0
0.0426 0.0595 0.0046 0.846 -0.529 -0.067 70 35 15 0 0
0.0426 0.0595 0.0018 0.891 -0.448 -0.071 67 35 11 0 0
0.0428 0.0594 -0.0039 0.830 -0.556 -0.040 71 36 15 0 0
0.0415 0.0621 -0.0324 0.800 -0.600 0.013 61 28 11 0 0
0.0419 0.0616 -0.0352 0.603 -0.797 0.013 62 30 13 0 0
0.0412 0.0628 -0.0409 0.850 -0.480 -0.217 52 28 15 0 0
0.0409 0.0634 -0.0438 0.836 -0.430 -0.340 29 15 9 0 0
0.0374 0.0686 -0.0496 0.955 -0.155 -0.252 11 5 5 0 0
0.0481 0.0541 -0.0835 0.575 -0.771 0.272 65 38 22 0 0
0.0797 0.0094 -0.1234 0.600 -0.767 0.229 104 69 50 0 0
0.0810 0.0076 -0.1261 0.483 -0.868 0.121 89 48 21 0 0
0.0796 0.0097 -0.1290 0.459 -0.886 0.070 87 43 17 0 0
0.0770 0.0144 -0.1603 0.300 -0.954 -0.015 67 49 38 0 0
0.0772 0.0142 -0.1631 0.459 -0.848 0.266 64 45 37 0 0
0.0696 0.0256 -0.1755 0.675 -0.718 -0.171 65 47 37 0 0
0.0697 0.0256 -0.1784 0.563 -0.715 -0.415 64 46 36 0 0
0.0687 0.0271 -0.1814 0.578 -0.761 -0.294 62 44 35 0 0
0.0638 0.0345 -0.1908 0.402 -0.909 0.105 60 41 34 0 0
0.0641 0.0342 -0.1936 0.402 -0.909 0.105 60 41 34 0 0
0.0644 0.0339 -0.1993 0.293 -0.945 -0.144 59 40 34 0 0
0.0651 0.0330 -0.2021 0.367 -0.852 -0.372 58 39 33 0 0
0.0536 0.0510 -0.2450 0.630 -0.775 -0.053 58 39 33 0 0
0.0535 0.0512 -0.2479 0.630 -0.775 -0.053 58 39 33 0 0
0.0535 0.0514 -0.2538 0.627 -0.768 -0.127 57 38 31 0 0
0.0525 0.0530 -0.2569 0.541 -0.718 -0.437 56 37 30 0 0
0.0517 0.0543 -0.2601 0.541 -0.718 -0.437 56 37 30 0 0
0.0516 0.0544 -0.2630 0.595 -0.695 -0.404 55 37 28 0 0
0.0511 0.0555 -0.2749 0.509 -0.852 -0.127 54 34 23 0 0
0.0509 0.0559 -0.2779 0.509 -0.852 -0.127 53 33 22 0 0
0.0500 0.0573 -0.2811 0.298 -0.951 0.087 50 30 19 0 0
0.0502 0.0572 -0.2870 0.224 -0.923 -0.312 53 33 24 0 0
0.0793 0.0190 -0.4227 0.510 -0.847 0.148 73 37 15 0 0
0.0330 0.0889 -0.5090 0.377 -0.831 -0.408 58 31 14 0 0
0.0316 0.0916 -0.5284 0.255 -0.914 0.316 57 30 11 0 0
0.0326 0.0908 -0.5530 0.699 -0.559 0.446 65 32 13 0 0
0.0343 0.0885 -0.5585 0.661 -0.701 0.268 65 32 13 0 0
0.0373 0.0850 -0.5853 0.913 -0.390 0.122 78 47 27 0 0
0.0385 0.0836 -0.6004 0.783 -0.622 -0.032 86 54 31 0 0
0.0354 0.0887 -0.6180 0.596 -0.754 -0.274 79 42 17 0 0
0.0350 0.0893 -0.6213 0.563 -0.809 -0.169 83 47 21 0 0
0.0721 0.0409 -0.8007 0.298 -0.864 0.405 51 22 8 0 0
0.0843 0.0244 -0.8389 0.630 -0.670 0.392 67 31 12 0 0
0.0849 0.0235 -0.8416 0.630 -0.670 0.392 73 37 16 0 0
0.0856 0.0228 -0.8537 0.735 -0.672 0.084 76 40 17 0 0
0.0863 0.0225 -0.8722 0.687 -0.724 0.057 80 56 35 0 0
0.0838 0.0273 -0.9126 0.594 -0.803 -0.045 65 43 29 0 0
0.0840 0.0271 -0.9157 0.549 -0.833 0.059 73 51 35 0 0
0.0839 0.0277 -0.9350 0.612 -0.786 0.085 78 47 23 0 0
0.0848 0.0266 -0.9407 0.522 -0.795 0.309 49 24 11 0 0
0.0849 0.0266 -0.9438 0.395 -0.755 0.524 43 21 8 0 0
0.0870 0.0237 -0.9516 0.560 -0.813 0.158 49 25 13 0 0
0.0889 0.0211 -0.9532 0.546 -0.803 0.239 54 30 18 0 0
0.0914 0.0175 -0.9573 -0.050 -0.888 0.456 72 51 38 0 0
0.1070 -0.0044 -0.9812 0.227 -0.794 0.564 86 68 64 0 0
0.1171 -0.0187 -0.9938 0.596 -0.752 0.282 84 61 52 0 0
0.1193 -0.0216 -1.0011 0.245 -0.906 0.345 65 32 12 0 0
0.1228 -0.0264 -1.0103 0.209 -0.967 0.145 58 25 8 0 0
0.1232 -0.0269 -1.0131 0.573 -0.818 -0.040 57 24 7 0 0
0.1277 -0.0331 -1.0276 0.640 -0.758 0.125 69 34 13 0 0
0.1278 -0.0332 -1.0306 0.591 -0.805 0.053 72 36 14 0 0
0.1278 -0.0325 -1.0527 0.537 -0.835 0.119 96 68 44 0 0
0.1252 -0.0273 -1.1001 0.720 -0.692 0.063 52 24 12 0 0
0.1275 -0.0303 -1.1105 0.511 -0.844 0.164 78 43 13 0 0
0.1278 -0.0307 -1.1133 0.511 -0.844 0.164 82 47 17 0 0
0.1296 -0.0332 -1.1146 0.575 -0.814 0.078 85 52 24 0 0
0.1331 -0.0377 -1.1331 0.511 -0.770 0.382 84 57 36 0 0
-0.0081 0.1248 0.1052 0.365 -0.905 0.221 132 110 95 0 0
0.0451 0.0499 0.0354 0.452 -0.869 0.203 80 44 20 0 0
0.0403 0.0569 0.0300 0.567 -0.823 0.041 66 29 11 0 0
0.0408 0.0564 0.0271 0.464 -0.884 -0.049 67 31 12 0 0
0.0408 0.0565 0.0243 0.464 -0.884 -0.049 64 31 9 0 0
0.0406 0.0569 0.0187 0.531 -0.834 -0.149 64 29 9 0 0
0.0406 0.0586 -0.0381 0.935 -0.348 -0.068 55 25 11 0 0
0.0393 0.0605 -0.0410 0.857 -0.209 -0.470 42 20 9 0 0
0.0381 0.0624 -0.0439 0.789 -0.259 -0.558 19 8 3 0 0
0.0302 0.0740 -0.0498 0.416 -0.311 -0.854 11 5 5 0 0
0.0224 0.0855 -0.0588 -0.179 -0.873 0.454 12 6 6 0 0
0.0439 0.0551 -0.0837 0.716 -0.682 0.148 64 38 25 0 0
0.0744 0.0133 -0.1604 0.515 -0.836 0.189 66 48 36 0 0
0.0620 0.0323 -0.1965 0.314 -0.891 -0.328 60 41 35 0 0
0.0585 0.0381 -0.2202 0.421 -0.638 -0.645 59 40 34 0 0
0.0513 0.0494 -0.2479 0.630 -0.775 -0.053 58 39 33 0 0
0.0516 0.0489 -0.2508 0.682 -0.700 -0.210 58 39 32 0 0
0.0501 0.0513 -0.2570 0.562 -0.690 -0.457 58 39 32 0 0
0.0493 0.0525 -0.2601 0.541 -0.718 -0.437 59 39 32 0 0
0.0485 0.0538 -0.2632 0.541 -0.718 -0.437 59 39 30 0 0
0.0466 0.0570 -0.2755 0.050 -0.997 0.060 56 36 25 0 0
0.0388 0.0705 -0.3523 0.020 -0.990 0.137 42 23 16 0 0
0.0405 0.0682 -0.3578 0.531 -0.828 -0.183 41 22 14 0 0
0.0395 0.0699 -0.3642 0.298 -0.688 0.661 37 20 11 0 0
0.0435 0.0642 -0.3720 0.298 -0.688 0.661 58 38 27 0 0
0.0750 0.0200 -0.4146 0.717 -0.690 -0.098 77 41 15 0 0
0.0768 0.0175 -0.4228 0.552 -0.797 0.245 72 36 12 0 0
0.0295 0.0881 -0.4876 0.369 -0.928 -0.046 59 33 18 0 0
0.0294 0.0888 -0.5064 0.711 -0.701 0.054 57 30 15 0 0
0.0319 0.0869 -0.5679 0.331 -0.943 -0.045 71 39 21 0 0
0.0319 0.0870 -0.5711 0.492 -0.852 -0.179 73 41 23 0 0
