ply
format ascii 1.0
element vertex 882
property float x
property float y
property float z
property float nx
property float ny
property float nz
property uchar diffuse_red
property uchar diffuse_green
property uchar diffuse_blue
property uchar class
property uchar detection
end_header
0.1350 0.1553 -0.3651 0.923 -0.384 -0.006 24 10 5 0 0
0.1352 0.1554 -0.3680 0.927 -0.352 0.128 43 25 18 0 0
0.1104 0.1669 -0.5816 0.939 -0.277 0.204 56 24 8 0 0
0.1119 0.1694 -0.6468 0.976 -0.111 0.189 51 22 8 0 0
0.1349 0.1711 -0.7548 0.970 -0.239 0.052 48 20 9 0 0
0.1518 0.1702 -0.7796 0.964 -0.233 -0.127 47 19 7 0 0
0.1766 0.1693 -0.8285 0.830 0.174 0.530 55 27 13 0 0
0.1778 0.1694 -0.8342 0.963 -0.008 0.271 55 26 12 0 0
0.1786 0.1694 -0.8370 0.963 -0.008 0.271 57 28 14 0 0
0.1790 0.1695 -0.8399 0.789 -0.353 0.503 58 26 13 0 0
0.1819 0.1730 -0.9353 0.880 -0.069 0.469 40 17 7 0 0
0.1801 0.1734 -0.9393 0.980 -0.193 -0.055 40 17 9 0 0
0.1823 0.1734 -0.9445 0.995 0.045 0.089 40 17 9 0 0
0.2083 0.1714 -0.9689 0.961 0.072 0.265 105 90 85 0 0
0.2167 0.1708 -0.9770 0.833 -0.288 0.472 98 80 75 0 0
0.2178 0.1707 -0.9795 0.797 -0.117 0.593 107 90 83 0 0
0.2452 0.1689 -1.0112 0.978 -0.175 0.117 79 42 16 0 0
0.2460 0.1690 -1.0169 0.980 0.084 0.182 69 31 8 0 0
0.0762 0.1402 0.1022 0.947 -0.303 0.108 93 55 26 0 0
0.0785 0.1434 0.0141 0.984 -0.177 -0.008 52 23 9 0 0
0.0787 0.1437 0.0082 0.982 0.011 0.190 50 21 7 0 0
0.1707 0.1413 -0.1900 0.837 0.351 -0.420 55 36 29 0 0
0.1469 0.1487 -0.3066 0.920 -0.371 0.127 67 49 36 0 0
0.1471 0.1488 -0.3095 0.980 -0.191 -0.047 50 21 9 0 0
0.1327 0.1524 -0.3595 0.896 -0.336 0.290 35 16 9 0 0
0.1322 0.1528 -0.3686 0.929 -0.366 -0.044 34 15 8 0 0
0.1347 0.1526 -0.3712 0.944 -0.048 0.325 41 21 14 0 0
0.1571 0.1532 -0.4476 0.439 0.260 -0.860 76 48 31 0 0
0.1443 0.1549 -0.4535 0.436 0.235 -0.869 71 42 24 0 0
0.1134 0.1664 -0.6526 0.998 -0.025 0.052 50 22 10 0 0
0.1143 0.1664 -0.6554 0.956 -0.226 0.186 46 18 6 0 0
0.1129 0.1668 -0.6622 0.998 -0.054 -0.020 49 21 9 0 0
0.1128 0.1669 -0.6653 0.998 -0.054 -0.020 49 21 9 0 0
0.1243 0.1665 -0.6865 0.926 -0.228 0.300 48 20 8 0 0
0.1248 0.1666 -0.6895 0.929 -0.328 -0.172 47 19 7 0 0
0.1413 0.1675 -0.7586 0.953 -0.254 -0.163 49 21 9 0 0
0.1681 0.1662 -0.8010 0.924 -0.188 -0.334 52 24 12 0 0
0.1924 0.1658 -0.8587 0.993 -0.061 0.099 86 51 23 0 0
0.1927 0.1658 -0.8617 0.993 -0.061 0.099 90 58 33 0 0
0.1781 0.1699 -0.9214 0.995 -0.013 0.099 87 60 41 0 0
0.1782 0.1700 -0.9245 0.958 -0.076 0.277 78 51 33 0 0
0.1853 0.1700 -0.9430 0.935 -0.343 -0.094 39 16 8 0 0
0.2530 0.1696 -1.1238 0.997 0.072 -0.001 95 64 36 0 0
0.2485 0.1709 -1.1421 0.938 -0.318 -0.138 90 60 34 0 0
0.0801 0.1398 0.0257 0.912 -0.336 0.235 52 21 6 0 0
0.0799 0.1421 -0.0304 1.000 0.012 -0.006 41 14 3 0 0
0.0798 0.1422 -0.0334 0.946 -0.027 0.322 38 14 2 0 0
0.1736 0.1347 -0.1068 0.434 -0.440 0.786 115 85 75 0 0
0.1875 0.1336 -0.1175 0.844 -0.397 0.361 147 120 111 0 0
0.1484 0.1455 -0.3065 0.899 -0.339 0.277 71 54 41 0 0
0.1381 0.1477 -0.3318 0.743 -0.423 -0.519 57 32 20 0 0
0.1251 0.1497 -0.3459 0.849 -0.031 -0.527 47 27 16 0 0
0.1257 0.1497 -0.3488 0.988 -0.130 0.082 45 23 13 0 0
0.1262 0.1499 -0.3547 0.988 0.115 0.104 41 21 14 0 0
0.1306 0.1497 -0.3600 0.892 -0.027 0.451 37 18 11 0 0
0.1950 0.1447 -0.4158 0.990 -0.132 -0.051 73 35 15 0 0
0.1083 0.1565 -0.4677 0.957 -0.144 0.250 72 43 27 0 0
0.1091 0.1565 -0.4706 0.957 -0.144 0.250 69 40 24 0 0
0.1060 0.1578 -0.4960 0.946 -0.175 0.272 58 29 14 0 0
0.1067 0.1581 -0.5051 0.999 0.003 0.037 55 26 11 0 0
0.1065 0.1583 -0.5083 0.999 0.035 -0.034 54 25 11 0 0
0.1093 0.1587 -0.5261 0.972 -0.237 0.008 54 26 12 0 0
0.1133 0.1633 -0.6526 0.998 -0.025 0.052 53 25 12 0 0
0.1135 0.1634 -0.6557 0.998 -0.025 0.052 53 25 11 0 0
0.1137 0.1635 -0.6588 0.998 -0.025 0.052 51 23 9 0 0
0.1228 0.1635 -0.6839 0.948 -0.227 0.225 49 21 9 0 0
0.1236 0.1635 -0.6868 0.952 -0.113 0.284 48 20 8 0 0
0.1236 0.1637 -0.6899 0.961 -0.242 -0.136 47 19 7 0 0
0.1249 0.1636 -0.6926 0.956 -0.289 0.047 47 19 7 0 0
0.1210 0.1645 -0.7034 0.939 0.098 0.329 47 19 7 0 0
0.1323 0.1646 -0.7369 0.701 0.520 0.488 51 23 10 0 0
0.1401 0.1645 -0.7560 0.915 -0.395 -0.083 49 21 9 0 0
0.1405 0.1646 -0.7590 0.953 -0.254 -0.163 50 22 10 0 0
0.1713 0.1626 -0.7966 0.843 0.448 0.298 52 24 12 0 0
0.1692 0.1630 -0.8005 0.899 -0.148 0.413 53 25 13 0 0
0.1924 0.1624 -0.8494 0.986 -0.122 0.117 70 34 14 0 0
0.1928 0.1625 -0.8523 0.976 -0.168 0.135 78 39 15 0 0
0.1911 0.1628 -0.8562 0.918 0.053 0.393 82 45 18 0 0
0.1811 0.1654 -0.8918 0.996 -0.091 -0.010 89 62 41 0 0
0.1768 0.1664 -0.9063 0.958 -0.189 -0.217 82 54 32 0 0
0.1768 0.1669 -0.9189 0.983 -0.094 -0.159 102 75 53 0 0
0.1809 0.1672 -0.9357 0.950 0.076 0.303 48 22 11 0 0
0.1804 0.1674 -0.9391 0.984 -0.175 -0.023 44 21 11 0 0
0.2491 0.1641 -1.0488 0.987 0.063 -0.146 93 63 39 0 0
0.2486 0.1649 -1.0676 0.986 -0.111 -0.121 93 65 44 0 0
0.2576 0.1651 -1.0962 0.846 -0.362 0.391 52 24 10 0 0
0.2573 0.1652 -1.0995 0.941 -0.338 0.003 59 26 7 0 0
0.2533 0.1663 -1.1142 0.992 -0.072 -0.104 87 52 24 0 0
0.2530 0.1664 -1.1175 0.992 -0.072 -0.104 91 56 30 0 0
0.2530 0.1666 -1.1206 0.997 0.020 0.073 94 62 35 0 0
0.0768 0.1355 0.0668 0.941 -0.337 0.018 60 29 8 0 0
0.0802 0.1392 -0.0335 0.972 -0.117 0.206 38 14 2 0 0
0.1591 0.1331 -0.0989 0.467 -0.494 0.733 95 73 64 0 0
0.1631 0.1369 -0.2053 0.115 -0.992 -0.058 54 36 28 0 0
0.1440 0.1429 -0.3013 0.801 -0.491 0.341 49 30 24 0 0
0.1464 0.1434 -0.3216 0.960 0.099 0.262 59 30 14 0 0
0.1284 0.1472 -0.3664 0.965 -0.262 -0.015 27 13 7 0 0
0.1892 0.1424 -0.4141 0.879 -0.233 0.415 67 29 9 0 0
0.1046 0.1544 -0.4810 0.971 -0.240 0.008 56 28 11 0 0
0.1075 0.1551 -0.5081 0.969 -0.247 0.023 52 23 10 0 0
0.1068 0.1569 -0.5516 0.999 -0.042 0.031 64 33 16 0 0
0.1097 0.1569 -0.5601 0.989 0.116 0.092 58 27 10 0 0
0.1112 0.1608 -0.6596 0.989 -0.147 -0.024 54 26 11 0 0
0.1242 0.1608 -0.6960 0.997 0.060 0.055 47 19 7 0 0
0.1298 0.1610 -0.7159 0.895 -0.429 0.121 50 22 10 0 0
0.1298 0.1611 -0.7191 0.752 -0.640 -0.157 50 22 10 0 0
0.1317 0.1615 -0.7341 0.989 -0.077 0.129 50 22 10 0 0
0.1331 0.1624 -0.7618 0.919 -0.365 -0.147 48 20 8 0 0
0.1329 0.1626 -0.7650 0.952 -0.304 -0.041 49 21 9 0 0
0.1509 0.1608 -0.7705 0.853 -0.380 -0.359 47 20 8 0 0
0.1548 0.1610 -0.7846 0.989 -0.149 0.009 50 22 10 0 0
0.1526 0.1614 -0.7886 0.864 -0.415 -0.285 49 21 10 0 0
0.1680 0.1606 -0.8103 0.984 0.060 0.169 54 26 12 0 0
0.1789 0.1599 -0.8244 0.998 -0.006 -0.063 56 28 14 0 0
0.1886 0.1598 -0.8480 0.960 0.114 0.256 61 27 10 0 0
0.1920 0.1595 -0.8496 0.986 -0.122 0.117 73 36 15 0 0
0.1913 0.1602 -0.8654 0.954 -0.228 -0.197 91 65 45 0 0
0.1904 0.1604 -0.8688 0.945 -0.262 -0.198 89 62 40 0 0
0.1763 0.1635 -0.9065 0.975 -0.212 0.062 78 50 27 0 0
0.1767 0.1636 -0.9095 0.994 -0.067 -0.090 80 50 26 0 0
0.1773 0.1640 -0.9217 0.998 0.022 0.060 93 65 46 0 0
0.1841 0.1644 -0.9498 0.938 -0.298 0.177 49 23 14 0 0
0.2093 0.1625 -0.9714 0.760 -0.650 0.000 93 78 72 0 0
0.2560 0.1622 -1.0940 0.769 -0.450 0.454 46 23 11 0 0
0.2561 0.1623 -1.0970 0.973 -0.228 0.031 51 23 8 0 0
0.2531 0.1634 -1.1143 0.990 -0.027 -0.139 89 53 27 0 0
0.2528 0.1635 -1.1176 0.999 -0.038 -0.009 93 59 32 0 0
0.0736 0.1320 0.0903 0.967 -0.240 -0.090 54 25 7 0 0
0.0738 0.1375 -0.0485 0.929 -0.369 0.015 39 15 5 0 0
0.1471 0.1404 -0.3216 0.998 -0.001 0.063 57 28 12 0 0
0.1885 0.1396 -0.4143 0.888 -0.219 0.404 67 29 9 0 0
0.1925 0.1393 -0.4164 0.973 -0.064 0.223 66 29 10 0 0
0.1335 0.1472 -0.4561 0.412 -0.442 -0.797 70 41 23 0 0
0.1032 0.1515 -0.4813 0.990 -0.136 0.026 62 34 18 0 0
0.1067 0.1522 -0.5083 0.969 -0.247 0.023 50 20 10 0 0
0.1206 0.1577 -0.6847 0.885 -0.289 0.366 51 23 9 0 0
0.1222 0.1577 -0.6904 0.919 -0.390 0.050 48 20 8 0 0
0.1230 0.1578 -0.6933 0.903 -0.413 0.121 48 20 8 0 0
0.1186 0.1585 -0.7011 0.976 -0.102 0.190 48 20 8 0 0
0.1317 0.1583 -0.7309 0.869 -0.329 0.370 50 22 10 0 0
0.1273 0.1602 -0.7672 0.646 -0.760 -0.068 49 21 9 0 0
0.1292 0.1601 -0.7696 0.847 -0.393 -0.357 49 21 9 0 0
0.1294 0.1602 -0.7727 0.898 -0.440 0.008 49 21 9 0 0
0.1488 0.1584 -0.7807 0.837 -0.472 -0.275 50 22 11 0 0
0.1542 0.1580 -0.7848 0.974 -0.173 -0.146 50 22 11 0 0
0.1557 0.1580 -0.7874 0.991 0.085 -0.102 50 22 11 0 0
0.1922 0.1564 -0.8464 0.981 0.108 -0.164 62 27 9 0 0
0.1860 0.1584 -0.8801 0.998 0.034 -0.046 82 54 33 0 0
0.1788 0.1599 -0.8991 0.971 -0.208 0.114 83 57 34 0 0
0.1795 0.1599 -0.9019 0.980 -0.186 -0.075 81 53 31 0 0
0.1760 0.1606 -0.9098 0.999 0.026 0.025 76 46 24 0 0
0.1818 0.1611 -0.9383 0.935 -0.272 0.229 44 20 12 0 0
0.1921 0.1610 -0.9614 0.889 0.046 0.455 81 63 53 0 0
0.2086 0.1596 -0.9717 0.936 -0.044 0.350 105 90 83 0 0
0.2099 0.1595 -0.9742 0.966 -0.132 0.222 100 84 77 0 0
0.2109 0.1595 -0.9767 0.967 -0.063 0.245 96 81 74 0 0
0.2116 0.1596 -0.9795 0.977 -0.098 0.187 90 75 68 0 0
0.2463 0.1572 -1.0134 0.971 -0.216 0.101 69 31 8 0 0
0.2482 0.1608 -1.1110 0.979 -0.205 0.005 73 36 10 0 0
0.2529 0.1605 -1.1144 0.992 -0.072 -0.104 90 56 29 0 0
0.2539 0.1619 -1.1541 0.592 -0.344 0.729 85 74 58 0 0
0.0732 0.1341 -0.0397 0.978 -0.159 -0.132 33 12 1 0 0
0.1372 0.1368 -0.2787 0.866 -0.449 0.221 53 33 22 0 0
0.1354 0.1372 -0.2848 0.954 -0.151 -0.258 44 24 13 0 0
0.1357 0.1373 -0.2877 0.978 -0.092 -0.188 46 24 13 0 0
0.1356 0.1374 -0.2907 0.940 -0.253 -0.228 46 24 13 0 0
0.1028 0.1485 -0.4815 0.990 -0.136 0.026 63 33 15 0 0
0.1150 0.1508 -0.5742 0.979 -0.182 0.095 70 38 18 0 0
0.1149 0.1554 -0.6898 0.947 -0.321 -0.029 50 22 10 0 0
0.1146 0.1556 -0.6931 0.984 -0.179 -0.009 48 20 8 0 0
0.1851 0.1537 -0.8340 0.990 0.013 0.138 58 26 11 0 0
0.1854 0.1537 -0.8370 0.957 0.063 0.284 59 25 11 0 0
0.1860 0.1538 -0.8399 0.990 0.013 0.138 57 23 10 0 0
0.1928 0.1541 -0.8647 0.984 0.047 0.172 90 65 43 0 0
0.1777 0.1572 -0.9027 0.940 0.325 0.104 78 50 29 0 0
0.1760 0.1576 -0.9098 0.956 0.188 0.225 74 43 22 0 0
0.1785 0.1574 -0.9117 0.970 0.238 -0.040 84 52 26 0 0
0.1791 0.1585 -0.9396 0.970 -0.222 0.098 42 19 8 0 0
0.1825 0.1582 -0.9411 0.989 0.017 0.148 42 19 9 0 0
0.2078 0.1566 -0.9690 0.993 0.074 0.088 91 76 70 0 0
0.2080 0.1567 -0.9720 0.993 0.074 0.088 101 84 77 0 0
0.2093 0.1566 -0.9744 0.996 0.067 0.065 95 77 70 0 0
0.2094 0.1567 -0.9775 0.932 -0.007 0.361 97 80 73 0 0
0.2101 0.1568 -0.9802 0.955 0.045 0.294 94 77 70 0 0
0.2472 0.1540 -1.0098 0.964 -0.262 0.053 67 29 8 0 0
0.2474 0.1541 -1.0128 0.964 -0.262 0.053 70 32 9 0 0
0.2476 0.1542 -1.0157 0.966 -0.243 0.084 78 40 17 0 0
0.2548 0.1545 -1.0424 0.989 -0.138 0.055 98 68 44 0 0
0.2509 0.1577 -1.1124 0.989 -0.006 0.145 91 54 25 0 0
0.2513 0.1577 -1.1153 0.989 -0.006 0.145 96 63 32 0 0
0.0737 0.1281 0.0372 0.922 -0.273 0.275 55 24 4 0 0
0.0720 0.1312 -0.0368 0.997 -0.065 -0.039 39 15 5 0 0
0.0719 0.1313 -0.0398 0.997 -0.065 -0.039 30 10 1 0 0
0.1939 0.1232 -0.1600 0.844 -0.331 0.422 63 44 37 0 0
0.1670 0.1269 -0.1821 0.897 -0.007 0.441 58 39 32 0 0
0.1556 0.1292 -0.2091 0.704 -0.608 -0.367 53 36 26 0 0
0.1203 0.1385 -0.3530 0.987 0.122 -0.110 39 19 11 0 0
0.1889 0.1338 -0.4144 0.967 0.031 0.251 67 30 10 0 0
0.1165 0.1433 -0.4630 0.630 -0.325 -0.705 61 32 16 0 0
0.1026 0.1457 -0.4877 0.990 -0.136 0.026 61 32 15 0 0
0.1108 0.1484 -0.5786 0.998 -0.056 0.012 71 36 16 0 0
0.1141 0.1521 -0.6807 0.995 -0.085 0.045 52 24 10 0 0
0.1594 0.1517 -0.7921 0.731 -0.631 0.259 52 24 8 0 0
0.1594 0.1521 -0.8014 0.928 0.338 0.153 55 28 12 0 0
0.1737 0.1515 -0.8234 0.920 -0.179 -0.349 54 26 12 0 0
0.1723 0.1517 -0.8271 0.920 -0.267 -0.287 57 28 14 0 0
0.1897 0.1505 -0.8413 0.940 -0.269 0.209 59 26 11 0 0
0.1900 0.1506 -0.8443 0.961 -0.266 0.083 58 25 10 0 0
0.1770 0.1544 -0.9061 0.993 0.007 0.120 70 41 20 0 0
0.1781 0.1549 -0.9213 0.992 -0.027 0.120 89 61 39 0 0
0.2064 0.1537 -0.9666 0.923 -0.144 0.357 101 86 81 0 0
0.2076 0.1536 -0.9691 0.990 0.122 -0.076 100 83 79 0 0
0.2075 0.1538 -0.9722 0.994 0.112 -0.001 102 84 78 0 0
0.2089 0.1537 -0.9746 0.943 -0.297 0.151 89 70 64 0 0
0.2154 0.1534 -0.9837 0.807 -0.116 0.578 99 81 74 0 0
0.2189 0.1531 -0.9849 0.967 -0.081 0.240 100 83 76 0 0
0.2213 0.1529 -0.9867 0.799 -0.407 0.442 99 80 73 0 0
0.2543 0.1516 -1.0426 0.984 -0.180 -0.009 97 67 43 0 0
0.2477 0.1548 -1.1050 0.922 -0.033 0.386 72 36 12 0 0
0.2508 0.1547 -1.1124 0.987 -0.035 0.159 88 51 23 0 0
0.2512 0.1548 -1.1153 0.987 -0.035 0.159 93 59 30 0 0
0.2538 0.1548 -1.1230 0.993 -0.111 0.033 102 72 44 0 0
0.0713 0.1251 0.0430 0.906 -0.326 0.269 57 26 8 0 0
0.0655 0.1284 -0.0250 0.992 -0.116 0.041 39 15 3 0 0
0.0718 0.1282 -0.0369 0.997 -0.065 -0.039 43 17 8 0 0
0.1742 0.1206 -0.1129 0.764 -0.367 0.531 128 100 88 0 0
0.1680 0.1237 -0.1763 0.831 -0.536 0.150 60 41 35 0 0
0.1660 0.1241 -0.1822 0.877 0.155 0.455 58 39 32 0 0
0.1559 0.1262 -0.2092 0.947 0.307 -0.092 54 36 28 0 0
0.1397 0.1299 -0.2607 0.957 0.252 -0.144 52 34 24 0 0
0.1313 0.1322 -0.2974 0.931 -0.300 0.210 48 28 17 0 0
0.1115 0.1453 -0.5784 0.869 -0.495 -0.024 73 38 16 0 0
0.1085 0.1484 -0.6511 0.966 -0.144 -0.214 53 25 10 0 0
0.1197 0.1494 -0.7039 0.948 -0.300 -0.102 51 23 10 0 0
0.1244 0.1498 -0.7273 0.950 -0.026 0.311 48 20 8 0 0
0.1512 0.1480 -0.7517 0.853 0.011 0.521 49 21 9 0 0
0.1314 0.1512 -0.7813 0.816 -0.413 0.405 51 23 9 0 0
0.1724 0.1487 -0.8271 0.976 -0.041 -0.212 56 27 13 0 0
0.1892 0.1477 -0.8446 0.961 -0.266 0.083 58 25 11 0 0
0.2059 0.1507 -0.9668 0.942 -0.157 0.296 93 78 73 0 0
0.2070 0.1507 -0.9693 0.982 -0.134 0.137 105 90 85 0 0
0.2080 0.1509 -0.9750 0.994 0.096 -0.058 110 92 88 0 0
0.2436 0.1481 -0.9994 0.815 -0.549 0.183 68 30 9 0 0
0.2445 0.1484 -1.0081 0.941 -0.305 0.147 66 28 7 0 0
0.2469 0.1519 -1.1054 0.912 0.003 0.411 75 38 13 0 0
0.2506 0.1518 -1.1125 0.977 -0.004 0.215 90 53 25 0 0
0.2511 0.1519 -1.1153 0.987 -0.035 0.159 95 60 31 0 0
0.0653 0.1254 -0.0251 0.994 -0.079 -0.073 41 16 4 0 0
0.1321 0.1206 -0.0772 0.949 -0.100 0.297 108 85 74 0 0
0.1373 0.1205 -0.0886 0.941 -0.034 0.336 56 27 11 0 0
0.1762 0.1176 -0.1158 0.791 -0.431 0.434 152 126 113 0 0
0.1779 0.1175 -0.1186 0.929 -0.306 0.206 134 107 91 0 0
0.1945 0.1171 -0.1516 0.824 0.099 0.558 64 45 38 0 0
0.1631 0.1213 -0.1768 0.913 -0.396 -0.099 59 40 34 0 0
0.1445 0.1259 -0.2455 0.957 0.228 -0.179 55 37 27 0 0
0.1824 0.1286 -0.4129 0.991 -0.062 -0.115 70 34 14 0 0
0.1012 0.1395 -0.4820 0.969 -0.233 0.079 70 38 23 0 0
0.1070 0.1457 -0.6548 0.991 -0.098 0.096 53 23 11 0 0
0.1189 0.1464 -0.7042 0.962 -0.271 0.026 50 22 10 0 0
0.1187 0.1468 -0.7137 0.995 -0.102 0.016 52 24 10 0 0
0.1490 0.1453 -0.7557 0.865 0.012 0.501 49 21 9 0 0
0.1504 0.1453 -0.7583 0.966 -0.249 0.077 50 22 10 0 0
0.1506 0.1454 -0.7613 0.963 -0.263 0.063 50 22 10 0 0
0.1489 0.1460 -0.7713 0.940 -0.319 -0.124 51 24 7 0 0
0.1700 0.1460 -0.8281 0.980 -0.019 -0.196 56 27 13 0 0
0.1894 0.1447 -0.8445 0.953 -0.246 0.177 58 25 10 0 0
0.1862 0.1458 -0.8645 0.909 -0.402 -0.110 88 58 36 0 0
0.1889 0.1463 -0.8849 1.000 0.025 0.003 87 62 42 0 0
0.2066 0.1478 -0.9695 0.982 -0.134 0.137 89 74 69 0 0
0.2328 0.1462 -0.9960 0.938 -0.120 0.324 76 39 20 0 0
0.2393 0.1460 -1.0078 0.970 -0.233 0.066 67 29 8 0 0
0.2444 0.1455 -1.0082 0.966 -0.034 0.256 66 28 7 0 0
0.2435 0.1457 -1.0117 0.996 -0.085 -0.023 72 34 13 0 0
0.2535 0.1494 -1.1323 0.958 -0.230 0.173 101 71 44 0 0
0.0690 0.1206 0.0103 0.984 -0.166 0.069 51 22 8 0 0
0.0648 0.1225 -0.0282 0.991 -0.134 -0.009 41 14 3 0 0
0.1327 0.1176 -0.0773 0.624 -0.317 0.714 98 75 63 0 0
0.1776 0.1147 -0.1187 0.974 0.153 0.170 126 99 85 0 0
0.1535 0.1203 -0.2009 0.646 -0.537 -0.542 59 40 33 0 0
0.1457 0.1228 -0.2455 0.988 0.063 -0.144 55 37 27 0 0
0.1437 0.1233 -0.2516 0.963 0.158 -0.218 55 37 27 0 0
0.1410 0.1238 -0.2578 0.964 -0.263 -0.036 52 34 24 0 0
0.1293 0.1265 -0.2978 0.869 -0.369 0.329 47 27 16 0 0
0.1291 0.1298 -0.3817 0.983 0.005 0.181 40 20 11 0 0
0.1676 0.1267 -0.4012 0.724 0.361 0.588 60 27 13 0 0
0.1067 0.1423 -0.6455 0.904 -0.407 0.127 57 29 12 0 0
0.1072 0.1424 -0.6485 0.939 -0.342 -0.018 56 29 12 0 0
0.1064 0.1426 -0.6518 0.991 -0.098 0.096 55 27 11 0 0
0.1142 0.1429 -0.6807 0.985 -0.020 -0.173 49 21 9 0 0
0.1254 0.1438 -0.7333 0.982 -0.010 0.189 49 21 9 0 0
0.1698 0.1430 -0.8282 0.861 -0.506 0.055 58 29 14 0 0
0.1848 0.1429 -0.8620 0.915 -0.360 0.184 83 46 20 0 0
0.1852 0.1430 -0.8680 0.983 -0.165 -0.077 89 61 43 0 0
0.1896 0.1430 -0.8784 0.971 0.069 -0.228 87 62 41 0 0
0.1887 0.1432 -0.8819 0.984 0.002 -0.176 87 62 42 0 0
0.1887 0.1434 -0.8850 0.993 -0.083 -0.083 86 61 41 0 0
0.1808 0.1447 -0.8980 0.955 -0.156 -0.251 80 53 32 0 0
0.2069 0.1449 -0.9724 0.954 -0.252 0.160 94 79 74 0 0
0.2215 0.1440 -0.9865 0.833 0.202 0.515 115 100 91 0 0
0.2232 0.1439 -0.9887 0.866 -0.070 0.496 105 87 80 0 0
0.2246 0.1439 -0.9911 0.866 -0.070 0.496 90 68 60 0 0
0.2292 0.1437 -0.9979 0.906 -0.421 -0.029 73 36 17 0 0
0.2389 0.1431 -1.0080 0.979 -0.169 0.117 68 30 9 0 0
0.2429 0.1428 -1.0120 0.998 -0.015 0.053 70 32 11 0 0
0.2468 0.1456 -1.0930 0.956 -0.284 0.080 35 19 10 0 0
0.0665 0.1158 0.0634 0.913 -0.373 -0.167 56 25 6 0 0
0.0661 0.1159 0.0605 0.901 -0.342 0.269 56 25 7 0 0
0.0674 0.1175 0.0162 0.993 -0.118 -0.008 51 22 8 0 0
0.0688 0.1175 0.0132 0.931 -0.169 0.325 54 25 10 0 0
0.0693 0.1182 -0.0076 0.958 -0.288 0.001 47 19 7 0 0
0.0646 0.1195 -0.0284 0.915 -0.282 0.288 42 15 4 0 0
0.1405 0.1208 -0.2550 0.950 0.031 -0.311 54 35 26 0 0
0.1278 0.1266 -0.3730 0.836 -0.311 0.452 45 24 14 0 0
0.1833 0.1233 -0.4304 0.994 0.109 -0.002 71 37 18 0 0
0.1142 0.1398 -0.6807 0.986 0.000 -0.167 51 23 10 0 0
0.1141 0.1401 -0.6870 0.951 -0.221 0.215 43 16 4 0 0
0.1193 0.1404 -0.7072 0.991 -0.065 0.119 54 26 12 0 0
0.1197 0.1404 -0.7102 0.991 -0.065 0.119 57 29 15 0 0
0.1473 0.1415 -0.8095 0.533 -0.815 0.227 56 27 13 0 0
0.1877 0.1389 -0.8452 0.960 0.271 -0.067 65 32 13 0 0
0.1874 0.1391 -0.8484 0.960 0.271 -0.067 70 35 15 0 0
0.1833 0.1402 -0.8657 0.975 0.033 -0.218 88 56 35 0 0
0.1832 0.1405 -0.8751 0.983 -0.174 0.057 86 61 39 0 0
0.2282 0.1405 -0.9891 0.748 0.210 0.630 93 71 63 0 0
0.2403 0.1398 -1.0011 0.683 -0.323 0.655 69 31 9 0 0
0.2504 0.1402 -1.0385 0.999 -0.032 -0.005 95 63 38 0 0
0.2460 0.1428 -1.0934 0.956 -0.284 0.080 35 18 10 0 0
0.0673 0.1145 0.0160 0.954 -0.261 0.148 50 21 7 0 0
0.1650 0.1126 -0.1798 0.914 -0.086 -0.397 60 41 34 0 0
0.1451 0.1160 -0.2193 0.512 0.815 0.270 56 37 30 0 0
0.1417 0.1175 -0.2490 0.983 0.042 -0.176 58 38 29 0 0
0.1391 0.1181 -0.2582 0.941 0.013 -0.339 57 37 28 0 0
0.1198 0.1211 -0.2874 0.908 0.387 0.161 50 30 19 0 0
0.1313 0.1202 -0.2918 0.907 -0.302 -0.293 48 28 17 0 0
0.1146 0.1243 -0.3573 0.919 0.032 0.393 51 28 16 0 0
0.1216 0.1240 -0.3681 0.945 -0.117 0.305 39 25 17 0 0
0.1229 0.1240 -0.3709 0.897 0.059 0.438 44 26 15 0 0
0.1365 0.1237 -0.3985 0.989 -0.038 0.146 46 21 14 0 0
0.1803 0.1201 -0.4135 0.914 -0.405 -0.012 65 28 8 0 0
0.0994 0.1311 -0.4949 0.941 0.064 0.333 78 47 26 0 0
0.0995 0.1312 -0.4980 0.912 -0.356 0.202 75 44 23 0 0
0.1052 0.1367 -0.6554 0.983 -0.102 0.154 52 23 8 0 0
0.1062 0.1368 -0.6614 0.986 -0.155 0.063 49 19 8 0 0
0.1066 0.1369 -0.6644 0.960 -0.267 -0.084 49 19 8 0 0
0.1148 0.1368 -0.6836 0.976 -0.183 -0.120 52 24 10 0 0
0.1183 0.1374 -0.7076 0.951 -0.276 0.142 51 23 9 0 0
0.1184 0.1375 -0.7107 0.948 -0.142 0.286 54 26 12 0 0
0.1838 0.1368 -0.8562 0.997 -0.075 0.008 80 41 16 0 0
0.1839 0.1369 -0.8593 0.997 -0.075 0.008 83 46 20 0 0
0.1828 0.1371 -0.8628 0.994 -0.104 -0.011 85 52 29 0 0
0.1828 0.1372 -0.8660 0.996 -0.081 -0.040 89 60 40 0 0
0.1821 0.1379 -0.8818 0.979 0.121 0.162 84 59 38 0 0
0.1801 0.1389 -0.9014 0.907 -0.264 -0.327 82 55 36 0 0
0.2050 0.1392 -0.9733 0.917 -0.190 0.351 99 84 77 0 0
0.2494 0.1369 -1.0267 0.997 0.019 -0.071 78 40 17 0 0
0.2491 0.1371 -1.0299 0.999 0.042 -0.031 81 44 20 0 0
0.2489 0.1372 -1.0331 0.997 0.019 -0.071 89 53 27 0 0
0.2473 0.1390 -1.0740 0.965 0.083 -0.249 82 54 39 0 0
0.1263 0.1095 -0.0778 0.720 -0.551 0.421 90 67 54 0 0
0.1779 0.1060 -0.1161 0.724 -0.099 0.683 138 112 99 0 0
0.1797 0.1059 -0.1189 0.952 -0.184 0.246 123 93 79 0 0
0.1520 0.1122 -0.2129 0.855 -0.438 -0.278 56 37 30 0 0
0.1430 0.1143 -0.2460 0.997 -0.074 0.014 60 40 31 0 0
0.1430 0.1144 -0.2490 0.895 -0.293 -0.336 60 40 31 0 0
0.1794 0.1173 -0.4137 0.832 -0.528 -0.174 74 36 16 0 0
0.1302 0.1368 -0.8007 0.921 0.072 -0.383 52 24 10 0 0
0.1853 0.1337 -0.8586 0.911 -0.287 0.297 83 47 21 0 0
0.1836 0.1342 -0.8656 0.933 -0.359 -0.016 89 60 39 0 0
0.1829 0.1344 -0.8690 0.985 -0.154 -0.082 88 61 42 0 0
0.1809 0.1380 -0.9605 0.996 0.058 -0.074 90 71 61 0 0
0.1829 0.1379 -0.9626 0.947 0.255 -0.195 90 73 66 0 0
0.2252 0.1348 -0.9875 0.979 0.186 -0.078 108 90 85 0 0
0.2269 0.1348 -0.9897 0.943 0.231 0.242 99 78 73 0 0
0.2488 0.1342 -1.0301 0.989 -0.148 -0.007 76 39 15 0 0
0.2488 0.1343 -1.0331 0.989 -0.148 -0.007 86 51 25 0 0
0.2460 0.1363 -1.0778 0.968 -0.129 -0.217 77 50 33 0 0
0.2468 0.1364 -1.0835 0.947 0.216 -0.238 53 31 22 0 0
0.0637 0.1085 0.0248 0.843 -0.537 -0.016 51 21 7 0 0
0.0654 0.1086 0.0188 0.981 -0.019 0.193 50 21 7 0 0
0.0581 0.1100 0.0011 0.897 -0.222 0.382 46 17 5 0 0
0.1244 0.1067 -0.0779 0.797 -0.604 -0.027 86 64 51 0 0
0.1526 0.1093 -0.2158 0.823 0.506 -0.259 59 40 33 0 0
0.1518 0.1095 -0.2188 0.962 0.157 0.225 59 40 33 0 0
0.1434 0.1112 -0.2431 0.996 0.032 -0.088 61 41 32 0 0
0.1427 0.1114 -0.2461 0.984 -0.013 0.179 61 41 32 0 0
0.1244 0.1147 -0.2869 0.902 0.426 0.071 51 31 20 0 0
0.1370 0.1139 -0.2970 0.894 -0.202 0.399 51 31 22 0 0
0.1389 0.1138 -0.2997 0.893 -0.202 0.402 56 36 29 0 0
0.1386 0.1142 -0.3087 0.956 -0.233 -0.176 69 46 31 0 0
0.1157 0.1334 -0.7558 0.972 -0.154 0.177 49 21 9 0 0
0.1435 0.1312 -0.7672 0.929 -0.061 -0.364 47 19 7 0 0
0.1314 0.1334 -0.7939 0.993 -0.119 0.016 51 23 9 0 0
0.1303 0.1336 -0.7975 0.929 -0.218 -0.300 51 23 9 0 0
0.1299 0.1338 -0.8009 0.933 -0.214 -0.290 51 23 9 0 0
0.1690 0.1308 -0.8191 0.858 -0.439 0.267 54 26 13 0 0
0.1821 0.1307 -0.8507 0.838 -0.489 0.244 73 38 17 0 0
0.1825 0.1308 -0.8536 0.967 -0.234 0.104 76 39 16 0 0
0.1823 0.1311 -0.8599 0.992 -0.122 -0.042 83 47 21 0 0
0.1818 0.1313 -0.8632 0.989 0.148 0.007 85 52 29 0 0
0.1818 0.1314 -0.8663 0.989 0.148 0.007 88 59 39 0 0
0.1823 0.1314 -0.8692 0.984 -0.141 -0.113 87 61 41 0 0
0.1841 0.1322 -0.8933 0.937 -0.277 0.214 80 53 34 0 0
0.1714 0.1342 -0.9148 0.988 -0.026 0.153 87 61 37 0 0
0.1780 0.1344 -0.9368 0.987 -0.054 0.154 47 19 8 0 0
0.1774 0.1347 -0.9433 0.996 -0.068 0.057 45 20 10 0 0
0.1820 0.1349 -0.9599 0.880 -0.376 -0.289 80 62 51 0 0
0.1807 0.1352 -0.9637 0.934 -0.301 -0.193 85 69 63 0 0
0.2268 0.1317 -0.9866 0.988 -0.152 0.016 106 88 85 0 0
0.2391 0.1314 -1.0077 0.795 -0.527 0.301 66 28 9 0 0
0.2484 0.1315 -1.0333 0.987 -0.157 0.020 87 52 25 0 0
0.2440 0.1333 -1.0697 0.906 -0.417 0.070 87 60 39 0 0
0.2465 0.1333 -1.0775 0.975 0.206 -0.079 77 50 33 0 0
0.2462 0.1335 -1.0807 0.975 0.206 -0.079 66 40 25 0 0
0.2374 0.1346 -1.0890 0.923 -0.108 0.370 53 31 22 0 0
0.0630 0.1059 0.0158 0.999 -0.036 -0.014 48 20 7 0 0
0.0589 0.1089 -0.0528 0.926 -0.377 -0.025 40 16 6 0 0
0.1430 0.1086 -0.2491 0.940 0.234 -0.250 59 39 29 0 0
0.1344 0.1106 -0.2827 0.904 0.390 0.176 54 34 23 0 0
0.1234 0.1119 -0.2901 0.818 -0.574 -0.047 51 31 21 0 0
0.1259 0.1133 -0.3315 0.606 -0.664 -0.438 59 34 23 0 0
0.1458 0.1139 -0.3968 0.665 0.424 0.615 56 29 21 0 0
0.0949 0.1223 -0.4930 0.925 -0.361 -0.117 75 43 25 0 0
0.0948 0.1230 -0.5117 0.938 -0.342 0.059 71 40 20 0 0
0.0951 0.1231 -0.5147 0.967 -0.061 0.246 68 36 17 0 0
0.1232 0.1287 -0.7310 0.982 0.179 0.065 49 21 9 0 0
0.1234 0.1288 -0.7340 0.982 0.179 0.065 48 20 8 0 0
0.1475 0.1282 -0.7781 0.975 -0.082 0.207 50 22 9 0 0
0.1373 0.1304 -0.8104 0.516 -0.029 0.856 53 25 13 0 0
0.1722 0.1285 -0.8457 0.991 0.098 0.092 61 29 9 0 0
0.1823 0.1284 -0.8692 0.974 -0.027 0.227 89 62 44 0 0
0.1828 0.1285 -0.8721 0.956 0.145 0.255 88 63 43 0 0
0.1814 0.1315 -0.9476 0.903 -0.381 0.198 54 27 14 0 0
0.2096 0.1299 -0.9739 0.979 -0.189 -0.078 91 74 67 0 0
0.2104 0.1299 -0.9766 0.981 0.004 0.193 93 76 69 0 0
0.2471 0.1283 -1.0248 0.980 0.114 0.164 76 38 15 0 0
0.2478 0.1284 -1.0275 0.910 -0.083 0.407 79 42 19 0 0
0.2482 0.1285 -1.0303 0.925 -0.282 0.254 81 45 22 0 0
0.1796 0.0982 -0.1419 0.953 -0.216 0.212 65 32 13 0 0
0.1528 0.1029 -0.2014 0.572 -0.015 -0.820 60 41 34 0 0
0.1591 0.1024 -0.2037 0.758 0.545 -0.359 60 41 34 0 0
0.1226 0.1106 -0.3321 0.606 -0.664 -0.438 58 35 23 0 0
0.1442 0.1112 -0.4002 0.847 -0.325 0.420 64 32 19 0 0
0.0945 0.1187 -0.4777 0.904 -0.399 0.150 78 49 30 0 0
0.1032 0.1252 -0.6719 0.951 -0.281 0.131 59 30 14 0 0
0.1460 0.1252 -0.7756 0.926 -0.377 0.024 49 21 8 0 0
0.1417 0.1269 -0.8086 0.951 0.265 0.158 52 24 12 0 0
0.1673 0.1251 -0.8229 0.800 -0.559 0.218 58 29 11 0 0
0.1738 0.1251 -0.8388 0.899 -0.277 0.339 66 34 18 0 0
0.1749 0.1252 -0.8445 0.900 0.435 -0.012 66 33 13 0 0
0.1703 0.1261 -0.8559 0.982 -0.052 -0.181 70 34 12 0 0
0.1845 0.1262 -0.8930 0.929 -0.320 0.186 75 46 28 0 0
0.1703 0.1281 -0.9090 0.993 -0.105 0.045 72 43 25 0 0
0.1797 0.1287 -0.9484 0.994 -0.009 0.106 55 27 15 0 0
0.1813 0.1288 -0.9539 0.961 -0.096 0.258 65 37 26 0 0
0.2090 0.1270 -0.9742 0.933 -0.264 0.246 94 77 70 0 0
0.2097 0.1270 -0.9769 0.997 0.001 0.083 93 76 69 0 0
0.2346 0.1257 -1.0009 0.866 -0.446 0.226 72 34 13 0 0
0.2349 0.1257 -1.0038 0.806 -0.266 0.530 67 29 10 0 0
0.2468 0.1253 -1.0218 0.985 -0.173 0.014 71 33 10 0 0
0.2471 0.1254 -1.0247 0.988 -0.123 0.089 75 37 14 0 0
0.2475 0.1256 -1.0307 0.940 -0.298 0.166 80 44 22 0 0
0.2442 0.1268 -1.0540 0.991 -0.103 0.080 95 68 43 0 0
0.0596 0.0987 0.0571 0.995 -0.092 0.035 61 29 8 0 0
0.1304 0.0979 -0.0926 0.745 -0.404 0.531 52 29 17 0 0
0.1784 0.0956 -0.1449 0.670 -0.646 0.366 65 38 24 0 0
0.1255 0.1071 -0.3258 0.915 -0.310 -0.258 68 36 21 0 0
0.1465 0.1079 -0.3968 0.818 0.495 0.292 56 26 15 0 0
0.0930 0.1158 -0.4781 0.985 -0.172 0.030 76 48 27 0 0
0.0889 0.1163 -0.4821 0.930 -0.365 0.050 76 48 27 0 0
0.0858 0.1198 -0.5672 1.000 -0.003 0.015 89 55 30 0 0
0.0882 0.1200 -0.5790 0.996 -0.083 0.043 79 44 20 0 0
0.1648 0.1222 -0.8209 0.800 -0.559 0.218 59 31 15 0 0
0.1750 0.1222 -0.8445 0.916 -0.390 0.099 67 34 15 0 0
0.1805 0.1231 -0.8824 0.985 -0.128 0.117 84 59 39 0 0
0.1835 0.1233 -0.8935 0.909 -0.417 -0.010 74 45 27 0 0
0.1722 0.1250 -0.9113 0.998 -0.068 0.011 82 55 34 0 0
0.1776 0.1258 -0.9463 0.798 -0.386 0.462 52 24 11 0 0
0.1811 0.1258 -0.9540 0.916 -0.099 0.389 64 36 25 0 0
0.1825 0.1257 -0.9564 0.912 -0.382 0.148 74 51 39 0 0
0.1831 0.1258 -0.9593 0.857 0.318 0.406 81 64 54 0 0
0.2129 0.1240 -0.9814 0.786 -0.188 0.589 90 73 66 0 0
0.2463 0.1225 -1.0221 0.985 -0.173 0.014 70 32 9 0 0
0.2470 0.1226 -1.0278 0.950 -0.296 0.103 75 38 16 0 0
0.2480 0.1230 -1.0395 0.976 -0.186 0.111 95 65 39 0 0
0.2483 0.1238 -1.0608 0.983 -0.184 -0.010 88 59 35 0 0
0.0570 0.0959 0.0571 0.947 -0.300 -0.114 61 28 8 0 0
0.0557 0.0970 0.0304 0.982 -0.094 0.164 58 26 6 0 0
0.1144 0.1043 -0.3035 0.374 -0.868 0.327 59 40 33 0 0
0.1101 0.1048 -0.3071 0.335 -0.834 -0.438 67 50 43 0 0
0.1242 0.1043 -0.3260 0.945 -0.297 -0.140 67 34 20 0 0
0.1412 0.1054 -0.3949 0.763 -0.391 0.515 51 23 12 0 0
0.1415 0.1055 -0.3978 0.953 -0.007 -0.302 63 32 20 0 0
0.0898 0.1184 -0.6226 0.993 -0.082 0.082 84 50 25 0 0
0.1041 0.1191 -0.6748 0.990 -0.074 -0.121 70 39 21 0 0
0.1467 0.1201 -0.8003 0.947 0.054 0.318 51 23 12 0 0
0.1580 0.1195 -0.8112 0.757 -0.652 0.041 53 25 13 0 0
0.1638 0.1195 -0.8244 0.794 -0.576 0.193 70 41 23 0 0
0.1812 0.1203 -0.8883 0.877 -0.357 0.322 78 50 31 0 0
0.1730 0.1222 -0.9203 0.949 -0.215 0.229 91 67 43 0 0
0.1782 0.1227 -0.9459 0.942 0.141 0.304 55 27 13 0 0
0.1785 0.1228 -0.9490 0.939 -0.296 0.178 57 29 15 0 0
0.1814 0.1229 -0.9569 0.898 -0.416 0.142 80 60 48 0 0
0.1839 0.1227 -0.9588 0.756 0.273 0.594 84 67 58 0 0
0.2289 0.1200 -0.9915 0.997 0.002 -0.076 86 59 52 0 0
0.2458 0.1196 -1.0223 0.985 -0.173 0.014 70 32 9 0 0
0.2462 0.1197 -1.0251 0.935 -0.345 -0.088 73 35 12 0 0
0.2465 0.1198 -1.0280 0.992 -0.096 -0.085 74 38 15 0 0
0.2475 0.1201 -1.0397 0.960 -0.173 0.218 92 62 36 0 0
0.2468 0.1209 -1.0586 0.998 -0.059 0.033 92 62 38 0 0
0.2469 0.1210 -1.0616 0.998 -0.059 0.033 91 62 38 0 0
0.0587 0.0921 0.0746 0.833 -0.549 0.060 59 27 7 0 0
0.0570 0.0954 -0.0114 0.835 -0.392 0.385 53 21 8 0 0
0.1206 0.0929 -0.0902 0.736 -0.646 0.203 51 25 13 0 0
0.1465 0.0950 -0.2081 0.440 -0.788 0.432 62 43 36 0 0
0.1094 0.1016 -0.2983 0.911 -0.186 -0.368 54 33 22 0 0
0.1082 0.1018 -0.3015 0.911 -0.186 -0.368 54 33 23 0 0
0.1052 0.1022 -0.3049 0.396 -0.784 -0.478 59 39 33 0 0
0.1013 0.1027 -0.3085 0.360 -0.703 -0.613 70 49 44 0 0
0.1225 0.1032 -0.3714 0.937 -0.343 -0.073 55 36 29 0 0
0.1381 0.1027 -0.3956 0.804 -0.594 -0.036 51 24 12 0 0
0.1389 0.1027 -0.3984 0.828 -0.247 -0.504 60 28 16 0 0
0.1358 0.1032 -0.4020 0.934 -0.055 0.352 67 30 16 0 0
0.0891 0.1157 -0.6292 0.958 0.264 0.111 89 58 30 0 0
0.1038 0.1161 -0.6749 0.981 -0.189 -0.035 66 35 15 0 0
0.1002 0.1167 -0.6824 0.893 -0.116 -0.435 60 30 12 0 0
0.1110 0.1168 -0.7102 0.992 -0.074 0.102 52 24 10 0 0
0.1266 0.1167 -0.7454 0.995 0.070 0.064 50 22 10 0 0
0.1529 0.1162 -0.7915 0.926 -0.332 0.178 55 28 13 0 0
0.1474 0.1170 -0.8000 0.882 -0.165 0.442 52 24 12 0 0
0.1557 0.1167 -0.8122 0.757 -0.652 0.041 57 29 15 0 0
0.1600 0.1166 -0.8198 0.732 -0.374 0.569 54 26 12 0 0
0.1776 0.1198 -0.9462 0.813 -0.546 0.201 55 27 13 0 0
0.1776 0.1199 -0.9494 0.939 -0.296 0.178 58 30 16 0 0
0.1803 0.1200 -0.9575 0.912 -0.382 0.148 76 57 48 0 0
0.1851 0.1196 -0.9582 0.839 0.519 0.162 76 58 51 0 0
0.1865 0.1196 -0.9606 0.764 0.454 0.458 80 63 56 0 0
0.2270 0.1170 -0.9863 0.866 0.376 0.328 91 72 63 0 0
0.2306 0.1167 -0.9875 0.933 0.358 0.021 94 72 66 0 0
0.2283 0.1171 -0.9918 0.983 0.049 -0.178 91 65 58 0 0
0.2467 0.1181 -1.0617 0.998 -0.059 0.033 92 64 40 0 0
0.2387 0.1201 -1.0972 0.925 0.119 -0.361 41 19 9 0 0
0.2465 0.1210 -1.1391 0.975 -0.088 -0.204 85 57 33 0 0
0.0507 0.0926 -0.0025 0.936 -0.266 0.230 54 22 7 0 0
0.1183 0.0902 -0.0933 0.590 -0.704 0.396 65 42 30 0 0
0.1049 0.0990 -0.2990 0.943 -0.253 0.217 59 37 26 0 0
0.0989 0.1014 -0.3514 0.914 -0.405 -0.034 56 34 21 0 0
0.1381 0.0998 -0.3956 0.501 -0.865 -0.025 54 28 16 0 0
0.0835 0.1109 -0.5710 0.939 -0.191 0.287 93 62 34 0 0
0.0844 0.1109 -0.5739 0.939 -0.191 0.287 95 64 36 0 0
0.0855 0.1109 -0.5767 0.906 -0.381 0.186 98 67 39 0 0
0.0855 0.1111 -0.5799 0.698 -0.711 -0.082 96 65 37 0 0
0.0911 0.1130 -0.6443 0.989 -0.144 -0.043 80 45 20 0 0
0.0984 0.1134 -0.6735 0.881 -0.453 0.137 64 33 13 0 0
0.1019 0.1132 -0.6755 0.822 -0.101 0.561 64 33 13 0 0
0.1030 0.1132 -0.6783 0.973 -0.183 0.144 64 33 14 0 0
0.0992 0.1137 -0.6827 0.902 0.153 -0.403 65 36 18 0 0
0.1107 0.1137 -0.7103 0.986 -0.109 0.127 61 34 19 0 0
0.1611 0.1131 -0.8099 0.849 0.350 0.396 52 24 10 0 0
0.1610 0.1135 -0.8193 0.938 0.021 0.347 58 30 16 0 0
0.1620 0.1135 -0.8220 0.938 0.021 0.347 57 29 15 0 0
0.1632 0.1135 -0.8246 0.962 -0.010 0.273 56 29 12 0 0
0.1722 0.1141 -0.8612 0.975 0.065 0.210 80 43 17 0 0
0.1837 0.1139 -0.8809 0.940 -0.342 -0.001 83 58 37 0 0
0.1741 0.1167 -0.9353 0.999 0.037 0.006 52 24 10 0 0
0.2278 0.1140 -0.9859 0.970 -0.064 0.235 91 72 63 0 0
0.2301 0.1139 -0.9877 0.901 -0.225 -0.371 93 70 62 0 0
0.2440 0.1143 -1.0324 0.995 0.038 -0.092 82 48 23 0 0
0.0552 0.0901 -0.0265 0.929 -0.282 0.240 52 23 8 0 0
0.1119 0.0876 -0.0878 0.858 -0.424 0.289 63 37 21 0 0
0.1157 0.0874 -0.0906 0.793 -0.534 0.295 66 40 25 0 0
0.1171 0.0874 -0.0935 0.680 -0.418 0.603 67 44 31 0 0
0.1121 0.0945 -0.2741 0.669 -0.689 0.278 63 40 32 0 0
0.1209 0.0973 -0.3718 0.899 -0.158 -0.409 56 34 28 0 0
0.1178 0.0979 -0.3784 0.846 0.375 -0.380 54 30 20 0 0
0.1347 0.0971 -0.3963 0.674 -0.717 -0.178 58 32 20 0 0
0.0804 0.1046 -0.4781 0.832 -0.552 0.064 79 54 32 0 0
0.0856 0.1089 -0.6051 0.964 0.019 0.265 97 64 34 0 0
0.0880 0.1097 -0.6327 0.962 -0.274 0.009 85 48 22 0 0
0.0882 0.1098 -0.6358 0.974 -0.198 0.107 85 49 23 0 0
0.0881 0.1101 -0.6422 0.989 -0.143 -0.018 86 52 27 0 0
0.1245 0.1106 -0.7399 0.950 0.202 0.240 50 22 10 0 0
0.1598 0.1103 -0.8105 0.811 -0.090 0.579 55 27 13 0 0
0.1716 0.1126 -0.8989 0.967 -0.051 -0.248 74 47 28 0 0
0.1708 0.1127 -0.9024 0.969 -0.201 -0.142 73 46 27 0 0
0.1762 0.1134 -0.9312 0.978 -0.112 0.177 53 25 12 0 0
0.2000 0.1128 -0.9693 0.846 0.462 0.265 90 71 65 0 0
0.2276 0.1111 -0.9859 0.970 -0.064 0.235 89 67 58 0 0
0.2297 0.1111 -0.9910 0.946 -0.116 -0.303 84 57 48 0 0
0.2383 0.1117 -1.0263 0.949 -0.302 0.093 72 36 12 0 0
0.2457 0.1153 -1.1425 0.995 -0.068 -0.074 85 59 35 0 0
0.1157 0.0846 -0.0936 0.581 -0.754 0.308 78 55 43 0 0
0.1703 0.0817 -0.1373 0.874 -0.244 0.419 68 40 20 0 0
0.1471 0.0850 -0.1763 0.189 -0.428 -0.884 62 43 36 0 0
0.1148 0.0932 -0.3278 0.913 -0.405 0.045 70 42 27 0 0
0.0997 0.0959 -0.3665 0.630 -0.437 0.642 35 20 15 0 0
0.1137 0.0952 -0.3792 0.876 -0.483 0.019 59 35 26 0 0
0.1098 0.0957 -0.3830 0.945 -0.248 0.212 61 37 29 0 0
0.0723 0.1027 -0.4894 0.779 -0.559 0.285 85 58 37 0 0
0.0896 0.1064 -0.6291 0.886 -0.451 -0.103 84 48 22 0 0
0.0893 0.1065 -0.6323 0.886 -0.451 -0.103 85 48 23 0 0
0.0892 0.1069 -0.6418 0.889 -0.451 0.079 85 51 26 0 0
0.1507 0.1082 -0.8142 0.935 -0.308 0.174 56 28 14 0 0
0.1568 0.1082 -0.8304 0.989 -0.046 0.144 54 26 11 0 0
0.1823 0.1068 -0.8474 0.998 0.040 -0.056 74 39 16 0 0
0.1953 0.1098 -0.9592 0.650 -0.290 0.703 86 68 62 0 0
0.1997 0.1096 -0.9632 0.944 -0.314 -0.096 83 65 59 0 0
0.2434 0.1091 -1.0480 0.926 -0.283 0.249 93 61 37 0 0
0.2442 0.1092 -1.0506 0.926 -0.283 0.249 94 63 40 0 0
0.2418 0.1097 -1.0612 0.987 -0.104 0.122 93 64 40 0 0
0.2346 0.1114 -1.0901 0.993 -0.075 0.093 40 21 14 0 0
0.2349 0.1115 -1.0931 0.993 -0.075 0.093 37 18 9 0 0
0.2357 0.1115 -1.0957 0.966 -0.192 0.172 41 18 10 0 0
0.2323 0.1121 -1.1039 0.833 -0.449 -0.322 48 21 10 0 0
0.2459 0.1115 -1.1175 0.980 -0.008 -0.198 94 63 36 0 0
0.0505 0.0827 0.0210 0.986 -0.034 0.166 62 29 10 0 0
0.0506 0.0830 0.0121 0.939 -0.342 -0.031 59 26 8 0 0
0.1136 0.0868 -0.2294 0.837 -0.492 0.239 63 43 34 0 0
0.1018 0.0933 -0.3814 0.672 -0.737 -0.075 59 35 28 0 0
0.1278 0.0919 -0.4008 0.959 0.165 0.232 67 36 24 0 0
0.0740 0.1022 -0.5643 0.870 -0.379 0.317 95 63 38 0 0
0.0821 0.1068 -0.7077 0.811 -0.562 -0.163 60 33 15 0 0
0.1143 0.1049 -0.7280 0.947 -0.028 0.320 62 35 18 0 0
0.1264 0.1046 -0.7455 0.904 -0.407 0.132 62 34 22 0 0
0.1268 0.1047 -0.7485 0.946 -0.219 0.238 59 31 19 0 0
0.1465 0.1053 -0.8097 0.744 -0.572 0.346 55 27 13 0 0
0.1639 0.1082 -0.9276 0.986 -0.100 0.132 91 65 42 0 0
0.2407 0.1070 -1.0649 0.938 -0.339 -0.073 95 67 44 0 0
0.2421 0.1070 -1.0672 1.000 -0.010 -0.014 94 67 44 0 0
0.2347 0.1085 -1.0900 0.974 -0.194 -0.114 36 17 9 0 0
0.2425 0.1081 -1.0978 0.572 0.086 0.816 48 21 10 0 0
0.1113 0.0840 -0.2297 0.958 -0.227 0.175 62 42 33 0 0
0.1311 0.0887 -0.4032 0.442 0.016 0.897 74 40 27 0 0
0.1244 0.1014 -0.7368 0.680 -0.686 -0.257 59 29 18 0 0
0.1257 0.1014 -0.7395 0.753 -0.647 -0.120 58 29 17 0 0
0.1466 0.1017 -0.7940 0.873 -0.465 0.150 56 28 14 0 0
0.2073 0.1031 -0.9655 0.976 0.144 0.163 95 78 71 0 0
0.2382 0.1034 -1.0385 0.956 -0.248 0.158 86 56 30 0 0
0.2418 0.1037 -1.0549 0.994 -0.080 0.070 94 66 42 0 0
0.2390 0.1043 -1.0658 0.946 -0.323 -0.027 99 71 48 0 0
0.1334 0.0778 -0.1893 0.893 0.256 0.369 65 47 37 0 0
0.1155 0.0807 -0.2293 0.984 -0.013 0.176 64 44 35 0 0
0.1141 0.0809 -0.2325 0.991 -0.026 -0.128 66 46 35 0 0
0.0876 0.0876 -0.3597 0.582 -0.763 0.282 80 58 45 0 0
0.0813 0.1000 -0.6888 0.890 -0.344 -0.297 72 43 25 0 0
0.0802 0.1002 -0.6924 0.890 -0.344 -0.297 69 40 22 0 0
0.0855 0.0998 -0.6938 0.852 0.304 -0.425 68 39 21 0 0
0.0805 0.1005 -0.7019 0.880 0.030 -0.474 67 38 20 0 0
0.0827 0.1004 -0.7043 0.961 0.052 -0.270 66 37 19 0 0
0.0828 0.1005 -0.7075 0.997 -0.046 0.063 65 38 19 0 0
0.1209 0.0992 -0.7539 0.810 -0.544 -0.219 70 43 26 0 0
0.1699 0.0990 -0.8528 0.905 0.058 0.422 76 40 14 0 0
0.1748 0.0990 -0.8631 0.973 -0.200 0.114 87 59 34 0 0
0.2193 0.1002 -0.9901 0.983 -0.173 -0.067 93 70 60 0 0
0.2214 0.1001 -0.9921 0.975 -0.210 -0.070 85 59 50 0 0
0.2409 0.1001 -1.0339 0.922 -0.363 0.136 86 52 27 0 0
0.2414 0.1001 -1.0367 0.922 -0.363 0.136 88 58 32 0 0
0.2427 0.1001 -1.0390 0.896 -0.306 0.323 94 62 37 0 0
0.2415 0.1009 -1.0581 0.955 -0.266 0.132 96 68 44 0 0
0.2395 0.1012 -1.0623 0.995 -0.091 0.032 99 71 47 0 0
0.2362 0.1022 -1.0829 0.997 -0.026 -0.075 69 44 28 0 0
0.2327 0.1027 -1.0880 0.957 -0.053 -0.284 55 34 22 0 0
0.2334 0.1027 -1.0907 0.986 -0.060 -0.155 37 19 9 0 0
0.2340 0.1027 -1.0934 0.900 0.173 -0.401 36 18 7 0 0
0.2453 0.1023 -1.1053 0.956 -0.133 0.261 74 37 11 0 0
0.0356 0.0736 0.0539 0.876 0.055 0.479 162 155 154 0 0
0.0236 0.0781 -0.0453 0.826 0.349 -0.443 44 30 22 0 0
0.1351 0.0747 -0.1864 0.935 0.108 -0.337 64 47 37 0 0
0.1336 0.0749 -0.1894 0.882 0.260 0.392 66 49 39 0 0
0.1154 0.0777 -0.2294 0.831 -0.197 0.520 65 47 35 0 0
0.1151 0.0779 -0.2324 0.969 -0.026 0.247 67 49 37 0 0
0.0837 0.0849 -0.3604 0.586 -0.468 0.662 80 61 48 0 0
0.0885 0.0846 -0.3626 0.528 -0.405 0.747 52 36 28 0 0
0.0800 0.0970 -0.6893 0.890 -0.344 -0.297 74 45 27 0 0
0.0789 0.0972 -0.6929 0.890 -0.344 -0.297 71 42 24 0 0
0.0809 0.0971 -0.6954 0.678 -0.691 -0.250 70 41 24 0 0
0.0796 0.0976 -0.7054 0.790 -0.588 0.174 69 40 24 0 0
0.1159 0.0961 -0.7400 0.859 -0.439 -0.264 57 29 15 0 0
0.1207 0.0958 -0.7414 0.793 -0.422 -0.439 56 28 14 0 0
0.1211 0.0958 -0.7444 0.791 -0.522 -0.318 58 30 16 0 0
0.1210 0.0960 -0.7475 0.841 -0.540 -0.032 60 32 18 0 0
0.1174 0.0965 -0.7552 0.704 -0.690 -0.167 64 38 25 0 0
0.1726 0.0965 -0.8703 0.980 -0.126 -0.153 85 57 37 0 0
0.1737 0.0967 -0.8791 0.995 -0.059 0.080 77 52 32 0 0
0.1547 0.0992 -0.9098 0.945 -0.294 0.140 71 43 27 0 0
0.2311 0.0974 -1.0208 0.699 -0.092 0.709 74 36 13 0 0
0.2393 0.0983 -1.0624 0.995 -0.091 0.032 98 71 44 0 0
0.2394 0.0984 -1.0655 0.995 -0.091 0.032 96 70 45 0 0
0.2308 0.1000 -1.0922 0.871 -0.475 0.126 38 18 10 0 0
0.2464 0.0993 -1.1046 0.941 -0.242 0.238 77 40 15 0 0
0.2471 0.1003 -1.1351 0.926 -0.217 -0.309 88 60 35 0 0
0.2407 0.1012 -1.1453 0.833 -0.528 0.163 86 59 37 0 0
0.0359 0.0705 0.0538 0.876 0.055 0.479 180 175 177 0 0
0.0471 0.0716 -0.0003 0.970 -0.232 -0.067 53 24 8 0 0
0.0249 0.0749 -0.0454 0.826 0.349 -0.443 69 58 54 0 0
0.1070 0.0755 -0.2334 0.923 -0.384 0.038 68 50 38 0 0
0.0953 0.0782 -0.2827 0.708 -0.674 -0.212 63 42 31 0 0
0.0923 0.0785 -0.2862 0.744 -0.612 -0.268 66 42 32 0 0
0.0790 0.0803 -0.3092 0.332 -0.391 0.858 80 58 45 0 0
0.0924 0.0795 -0.3134 0.615 -0.788 -0.018 82 55 39 0 0
0.0790 0.0821 -0.3582 0.700 -0.536 0.472 72 53 39 0 0
0.0803 0.0821 -0.3610 0.652 -0.560 0.511 77 58 47 0 0
0.0868 0.0820 -0.3722 0.607 -0.781 0.146 69 49 41 0 0
0.0954 0.0818 -0.3829 0.772 -0.445 0.454 73 51 38 0 0
0.0812 0.0940 -0.6953 0.925 -0.356 -0.136 73 45 29 0 0
0.0771 0.0945 -0.6999 0.815 -0.503 -0.286 71 44 27 0 0
0.0797 0.0944 -0.7022 0.909 -0.247 -0.335 70 43 26 0 0
0.0794 0.0945 -0.7055 0.986 -0.142 0.091 70 43 26 0 0
0.0796 0.0946 -0.7086 0.953 -0.045 0.301 71 43 27 0 0
0.1135 0.0932 -0.7409 0.949 -0.257 -0.180 61 33 19 0 0
0.1359 0.0942 -0.8141 0.946 0.154 -0.287 57 29 17 0 0
0.1685 0.0937 -0.8690 0.979 0.191 0.067 85 57 36 0 0
0.2270 0.0940 -0.9983 0.830 0.468 0.305 73 37 14 0 0
0.2295 0.0940 -1.0031 0.814 -0.141 0.564 72 34 11 0 0
0.2307 0.0970 -1.0890 0.941 -0.133 -0.311 44 23 12 0 0
0.2446 0.0965 -1.1056 0.959 -0.220 0.177 78 41 16 0 0
0.2465 0.0965 -1.1076 0.961 -0.266 -0.076 86 50 23 0 0
0.2361 0.0986 -1.1450 0.988 -0.148 -0.040 86 58 36 0 0
0.2409 0.0984 -1.1513 0.818 -0.570 0.076 60 45 29 0 0
0.0457 0.0687 -0.0004 0.941 -0.333 -0.059 53 24 8 0 0
0.0317 0.0715 -0.0485 0.824 -0.308 -0.476 182 182 182 0 0
0.0325 0.0715 -0.0515 0.889 -0.182 -0.420 181 181 182 0 0
0.0734 0.0697 -0.0838 0.677 -0.714 -0.179 79 53 38 0 0
0.1380 0.0682 -0.1746 0.607 -0.730 -0.315 68 50 40 0 0
0.1335 0.0695 -0.2013 0.952 -0.269 -0.145 67 49 39 0 0
0.1024 0.0728 -0.2310 0.711 -0.672 0.209 68 50 38 0 0
0.1050 0.0727 -0.2337 0.654 -0.752 0.085 68 50 38 0 0
0.0994 0.0741 -0.2612 0.498 -0.784 -0.370 69 50 36 0 0
0.0968 0.0744 -0.2646 0.538 -0.700 -0.469 71 52 37 0 0
0.0912 0.0753 -0.2773 0.566 -0.805 -0.178 66 46 35 0 0
0.0936 0.0752 -0.2800 0.774 -0.542 -0.328 66 46 35 0 0
0.0928 0.0754 -0.2831 0.758 -0.484 -0.437 68 46 36 0 0
0.0911 0.0756 -0.2864 0.758 -0.484 -0.437 69 45 35 0 0
0.1051 0.0759 -0.3237 0.694 -0.695 -0.185 78 49 31 0 0
0.0952 0.0787 -0.3829 0.968 -0.121 -0.221 72 50 37 0 0
0.0946 0.0789 -0.3861 0.979 -0.202 -0.002 70 48 36 0 0
0.0938 0.0791 -0.3893 0.968 -0.121 -0.221 56 34 23 0 0
0.1528 0.0759 -0.4200 0.910 -0.396 0.125 77 36 15 0 0
0.0251 0.0892 -0.5327 0.909 0.354 -0.220 124 113 105 0 0
0.0242 0.0894 -0.5362 0.909 0.354 -0.220 121 110 103 0 0
0.0233 0.0896 -0.5396 0.909 0.354 -0.220 119 109 101 0 0
0.0832 0.0912 -0.7073 0.987 -0.140 0.080 71 44 28 0 0
0.0867 0.0910 -0.7093 0.731 -0.596 0.332 69 41 27 0 0
0.1359 0.0911 -0.8140 0.961 0.007 -0.277 56 28 16 0 0
0.1421 0.0907 -0.8146 0.965 -0.253 0.069 55 27 14 0 0
0.1538 0.0906 -0.8348 0.867 -0.272 0.418 51 23 8 0 0
0.2198 0.0914 -0.9928 0.738 0.037 0.674 89 63 54 0 0
0.2248 0.0913 -0.9994 0.929 -0.264 0.257 73 35 12 0 0
0.2390 0.0914 -1.0317 0.979 -0.108 0.170 84 48 21 0 0
0.2392 0.0915 -1.0347 0.975 -0.207 -0.080 89 55 30 0 0
0.2438 0.0934 -1.0968 0.988 0.028 0.149 57 28 13 0 0
0.2397 0.0956 -1.1520 0.866 -0.500 0.032 62 48 32 0 0
0.0339 0.0649 0.0446 0.833 -0.474 0.286 87 56 31 0 0
0.0451 0.0658 -0.0005 0.989 -0.041 -0.140 53 24 7 0 0
0.0447 0.0659 -0.0035 0.972 0.015 -0.234 52 23 7 0 0
0.0364 0.0679 -0.0425 0.963 -0.239 0.126 59 43 36 0 0
0.0347 0.0683 -0.0516 0.906 -0.185 -0.380 181 180 182 0 0
0.0805 0.0663 -0.0866 0.883 -0.216 -0.416 82 57 46 0 0
0.0812 0.0663 -0.0896 0.936 -0.047 0.349 83 57 47 0 0
0.1082 0.0690 -0.2185 0.556 -0.060 -0.829 69 51 39 0 0
0.0926 0.0719 -0.2682 0.536 -0.774 -0.338 74 53 40 0 0
0.0897 0.0723 -0.2746 0.547 -0.803 -0.236 71 50 37 0 0
0.0886 0.0725 -0.2777 0.559 -0.791 -0.249 71 50 37 0 0
0.0911 0.0724 -0.2804 0.751 -0.601 -0.273 70 49 37 0 0
0.0905 0.0725 -0.2835 0.864 0.494 -0.094 69 48 36 0 0
0.0869 0.0729 -0.2870 0.929 0.115 -0.351 71 48 38 0 0
0.0741 0.0742 -0.2979 0.485 -0.503 0.715 68 43 33 0 0
0.0930 0.0758 -0.3804 0.815 -0.216 -0.537 76 53 40 0 0
0.0914 0.0760 -0.3837 0.927 0.009 0.375 80 57 44 0 0
0.0250 0.0872 -0.5650 0.625 0.781 -0.002 158 154 154 0 0
0.0249 0.0876 -0.5746 0.541 0.839 0.057 158 153 151 0 0
0.0251 0.0877 -0.5778 0.541 0.839 0.057 156 150 148 0 0
0.0253 0.0878 -0.5810 0.528 0.849 0.017 153 147 145 0 0
0.0252 0.0879 -0.5843 0.528 0.849 0.017 150 144 142 0 0
0.0235 0.0881 -0.5879 0.495 0.868 -0.035 148 143 137 0 0
0.0227 0.0883 -0.5914 0.484 0.873 -0.056 145 140 134 0 0
0.0219 0.0885 -0.5949 0.462 0.883 -0.081 143 137 131 0 0
0.0955 0.0877 -0.7221 0.509 -0.399 0.763 65 37 24 0 0
0.0816 0.0891 -0.7334 0.796 -0.472 0.379 67 38 25 0 0
0.1190 0.0884 -0.7893 0.877 0.452 0.160 69 41 26 0 0
0.1214 0.0884 -0.7915 0.966 0.183 0.185 70 42 27 0 0
0.1335 0.0881 -0.8087 0.881 -0.466 -0.082 54 26 15 0 0
0.1360 0.0881 -0.8140 0.961 0.007 -0.277 53 25 13 0 0
0.1416 0.0877 -0.8148 0.981 -0.173 -0.086 54 26 14 0 0
0.1377 0.0882 -0.8196 0.805 -0.133 0.579 57 28 16 0 0
0.1706 0.0880 -0.8804 0.975 -0.078 0.210 80 55 35 0 0
0.2199 0.0885 -0.9927 0.738 0.037 0.674 91 66 56 0 0
0.2242 0.0885 -1.0028 0.996 -0.084 0.033 72 35 10 0 0
0.2386 0.0885 -1.0319 0.996 0.007 -0.086 88 53 25 0 0
0.2388 0.0886 -1.0348 0.979 -0.152 0.133 88 56 31 0 0
0.2387 0.0894 -1.0564 0.966 -0.238 0.096 101 73 51 0 0
0.0296 0.0621 0.0477 0.821 -0.192 -0.538 144 133 124 0 0
0.0356 0.0646 -0.0336 0.969 -0.172 0.178 53 24 10 0 0
0.0361 0.0646 -0.0366 0.969 -0.172 0.178 51 23 10 0 0
0.0351 0.0648 -0.0397 0.905 -0.128 0.406 51 28 16 0 0
0.0348 0.0649 -0.0427 0.724 0.003 0.690 92 78 71 0 0
0.1452 0.0607 -0.1424 0.942 0.330 -0.060 74 47 30 0 0
0.1506 0.0608 -0.1536 0.791 -0.612 0.011 70 50 39 0 0
0.1513 0.0608 -0.1565 0.776 -0.620 0.114 69 50 40 0 0
0.1386 0.0620 -0.1660 0.633 -0.490 0.599 70 52 42 0 0
0.1457 0.0617 -0.1713 0.574 -0.818 0.042 71 53 43 0 0
0.1357 0.0625 -0.1750 0.291 -0.932 -0.218 72 52 43 0 0
0.1119 0.0649 -0.1946 0.793 0.603 -0.085 73 56 48 0 0
0.1179 0.0646 -0.1970 0.801 -0.582 0.137 71 52 45 0 0
0.1117 0.0655 -0.2124 0.775 -0.100 -0.624 68 50 38 0 0
0.1090 0.0658 -0.2156 0.781 -0.022 -0.624 68 50 38 0 0
0.1025 0.0664 -0.2192 0.983 -0.000 0.181 69 51 39 0 0
0.1008 0.0667 -0.2223 0.723 -0.615 -0.315 69 51 39 0 0
0.1020 0.0667 -0.2252 0.951 -0.016 -0.308 69 51 39 0 0
0.1013 0.0668 -0.2283 0.873 0.455 -0.176 69 51 39 0 0
0.1011 0.0670 -0.2313 0.616 -0.606 -0.504 70 50 39 0 0
0.0986 0.0672 -0.2345 0.591 -0.759 -0.272 72 52 41 0 0
0.0938 0.0680 -0.2470 0.427 -0.715 -0.554 75 55 44 0 0
0.0882 0.0690 -0.2628 0.528 -0.764 -0.371 75 55 44 0 0
0.0879 0.0692 -0.2688 0.514 -0.785 -0.345 75 54 43 0 0
0.0846 0.0697 -0.2753 0.683 -0.702 -0.203 73 51 38 0 0
0.0841 0.0698 -0.2784 0.683 -0.691 -0.237 72 51 38 0 0
0.0832 0.0700 -0.2815 0.683 -0.691 -0.237 72 50 40 0 0
0.0807 0.0705 -0.2910 0.864 0.016 -0.503 72 50 39 0 0
0.0820 0.0705 -0.2938 0.416 -0.816 0.401 70 48 37 0 0
0.0232 0.0867 -0.6367 0.365 0.926 -0.100 163 155 152 0 0
0.0795 0.0868 -0.7503 0.899 0.369 0.233 66 38 26 0 0
0.0940 0.0860 -0.7577 0.782 -0.496 0.378 65 39 26 0 0
0.1239 0.0854 -0.8000 0.941 0.313 0.128 71 43 31 0 0
0.1290 0.0852 -0.8043 0.918 -0.182 0.353 72 44 32 0 0
0.1279 0.0854 -0.8079 0.913 -0.267 0.309 64 36 24 0 0
0.1303 0.0853 -0.8100 0.995 0.100 0.001 63 35 23 0 0
0.1381 0.0851 -0.8194 0.958 0.166 0.234 59 31 19 0 0
0.1715 0.0884 -0.9772 0.871 -0.465 -0.159 87 68 61 0 0
0.2384 0.0857 -1.0350 0.979 -0.152 0.133 91 59 34 0 0
0.2390 0.0863 -1.0531 0.948 -0.245 0.203 99 71 49 0 0
0.2406 0.0885 -1.1171 0.978 0.108 0.180 95 64 36 0 0
0.2426 0.0889 -1.1345 0.981 -0.190 0.021 94 64 38 0 0
0.0426 0.0598 0.0023 0.970 -0.226 0.086 56 27 8 0 0
0.0348 0.0618 -0.0398 0.854 -0.201 0.480 54 33 21 0 0
0.0368 0.0621 -0.0518 0.978 0.141 -0.151 182 181 182 0 0
0.1383 0.0591 -0.1661 0.762 -0.268 0.589 70 52 44 0 0
0.1415 0.0590 -0.1688 0.929 0.119 -0.351 71 52 44 0 0
0.0916 0.0651 -0.2444 0.575 -0.631 -0.520 74 56 45 0 0
0.0805 0.0663 -0.2577 0.529 -0.657 -0.536 75 55 44 0 0
0.0811 0.0664 -0.2607 0.648 -0.697 -0.306 77 57 46 0 0
0.0726 0.0684 -0.3013 0.344 0.014 0.939 75 57 43 0 0
0.1222 0.0682 -0.3933 0.673 -0.604 0.428 64 40 31 0 0
0.1455 0.0679 -0.4306 0.915 -0.381 0.131 77 47 27 0 0
0.0828 0.0828 -0.7330 0.985 -0.113 -0.131 69 43 30 0 0
0.0972 0.0832 -0.7724 0.600 -0.786 -0.148 67 40 29 0 0
0.1202 0.0828 -0.8046 0.454 -0.721 0.524 73 47 36 0 0
0.1286 0.0824 -0.8107 0.941 -0.285 0.181 72 46 34 0 0
0.2383 0.0828 -1.0350 0.960 -0.249 0.124 94 62 37 0 0
0.2385 0.0837 -1.0595 0.987 -0.112 -0.116 100 72 50 0 0
0.2386 0.0860 -1.1276 0.982 -0.152 -0.110 93 63 39 0 0
0.2427 0.0860 -1.1344 0.997 0.081 0.018 90 60 34 0 0
0.2319 0.0872 -1.1472 0.990 -0.036 -0.135 86 58 37 0 0
0.0447 0.0557 0.0290 0.954 -0.259 -0.151 54 24 9 0 0
0.0396 0.0588 -0.0519 0.919 -0.387 -0.075 181 180 181 0 0
0.1261 0.0575 -0.1788 0.653 -0.734 0.189 72 55 47 0 0
0.0779 0.0652 -0.3067 0.382 -0.560 0.735 73 48 39 0 0
0.0778 0.0654 -0.3128 0.405 -0.810 0.423 81 53 36 0 0
0.0785 0.0655 -0.3158 0.458 -0.815 0.356 89 61 40 0 0
0.0798 0.0655 -0.3186 0.579 -0.785 -0.221 92 61 39 0 0
0.1199 0.0654 -0.3938 0.957 -0.077 -0.281 69 46 37 0 0
0.0915 0.0807 -0.7778 0.465 -0.632 -0.620 68 41 30 0 0
0.1505 0.0792 -0.8455 0.685 0.198 0.701 65 32 15 0 0
0.2419 0.0831 -1.1348 0.947 -0.124 0.295 90 60 34 0 0
0.2300 0.0844 -1.1484 0.987 0.131 0.088 87 59 37 0 0
0.2319 0.0843 -1.1503 0.940 -0.290 -0.180 75 53 34 0 0
0.2342 0.0843 -1.1520 0.935 -0.317 -0.158 62 44 30 0 0
0.0223 0.0562 -0.0310 0.919 -0.139 0.369 47 20 7 0 0
0.0383 0.0559 -0.0520 0.919 -0.387 -0.075 180 181 183 0 0
0.1442 0.0521 -0.1427 0.853 -0.337 -0.398 72 45 26 0 0
0.1339 0.0534 -0.1608 0.778 -0.286 -0.560 73 54 47 0 0
0.1285 0.0541 -0.1700 0.715 -0.625 -0.315 71 53 44 0 0
0.1289 0.0544 -0.1787 0.567 -0.821 -0.073 72 55 47 0 0
0.0938 0.0580 -0.2173 0.524 -0.843 0.121 73 55 45 0 0
0.0878 0.0769 -0.7504 0.698 -0.565 0.439 71 45 32 0 0
0.0954 0.0771 -0.7699 0.343 -0.883 0.320 65 39 27 0 0
0.0861 0.0781 -0.7798 0.537 -0.545 -0.644 67 41 28 0 0
0.1047 0.0775 -0.7981 0.584 -0.812 0.011 74 47 36 0 0
0.1554 0.0768 -0.8747 0.896 -0.362 -0.258 87 62 42 0 0
0.1622 0.0792 -0.9565 0.667 -0.739 -0.096 78 59 48 0 0
0.1619 0.0794 -0.9598 0.702 -0.705 -0.102 82 62 55 0 0
0.1671 0.0794 -0.9698 0.827 -0.559 0.066 82 63 56 0 0
0.2366 0.0806 -1.1349 0.972 -0.234 -0.029 92 61 37 0 0
