ply
format ascii 1.0
element vertex 684
property float x
property float y
property float z
property uchar diffuse_red
property uchar diffuse_green
property uchar diffuse_blue
end_header
-0.1670618622126084 0.07836393344959577 -1.1034019258427383 51 33 23
-0.17336860456195485 0.06938867051428063 -1.1002651488420667 51 32 22
-0.16735647300065315 0.07780241897173806 -1.1095608202548906 57 36 24
-0.16880271338111774 0.07568827694544726 -1.1113223068719758 67 42 25
-0.17005313439311032 0.07385067452140258 -1.113275836298152 77 50 28
-0.17113636746333138 0.0722491642739348 -1.1153939327864302 82 56 33
-0.16847181204038975 0.0759367859645194 -1.1213454212730016 84 58 36
-0.1672649157137593 0.07756701251025976 -1.1258169625163197 85 60 40
-0.16871288281356284 0.07545076526688713 -1.127561982059873 85 60 40
-0.1754683523508873 0.0656279630216992 -1.1334639981774193 82 59 41
-0.1765019645712507 0.0636612553653927 -1.1549251691138351 135 131 125
-0.17183363952687974 0.07017215376247318 -1.1631291319797123 157 154 150
-0.17280027455661198 0.06873588189748805 -1.1653360209110928 172 171 168
-0.10366267766862947 0.19697557012459815 -0.10979230766539584 102 88 81
-0.10413417164657926 0.1962314375788724 -0.11274915473757112 94 82 76
-0.10414920163907881 0.19614332304519777 -0.1157422543786693 90 77 72
-0.12822007650275616 0.16115964378476272 -0.1313717441468592 74 51 36
-0.1263784876886842 0.16374016868093455 -0.13449627986371152 72 48 34
-0.13209199057503157 0.155271083164685 -0.14564758768629332 64 46 34
-0.13113427158751068 0.15658156939723916 -0.1486913126744596 65 48 39
-0.12049434015430496 0.17179894400923895 -0.1528700963411739 67 52 47
-0.12204318717920787 0.1694425742710431 -0.1586177248309865 72 62 60
-0.12473602926884941 0.165443559057282 -0.16420813685367486 69 62 59
-0.11992526257675967 0.17228630313539103 -0.16779380029532745 68 60 58
-0.11658659273880234 0.17701453080031002 -0.17121112123618507 70 62 60
-0.11359996886710212 0.18123682332551017 -0.1745997601547656 72 64 62
-0.11213790097749093 0.18326966256708627 -0.1777953619475433 78 70 68
-0.10952853846698274 0.18694960930329424 -0.18116104791491877 79 72 66
-0.10651912465911466 0.19120359898865458 -0.18459903251523077 80 73 67
-0.10409090698799571 0.1946227836569188 -0.1879694858800745 80 73 67
-0.1059208827427464 0.1919284182410254 -0.1907220435763437 83 76 70
-0.10340400179861059 0.19547451103016422 -0.1941227856573265 88 81 76
-0.09859190113311146 0.20231511988193607 -0.1978909834008595 88 83 79
-0.09577825589727895 0.20628642298362876 -0.20137343522093376 89 84 81
-0.09164916494299008 0.21214556315250122 -0.20508131620735331 93 85 83
-0.062477441291635016 0.24978289238238596 -0.40041129461558633 117 100 94
-0.07108070714486715 0.23739369004486094 -0.4008451471844841 115 98 91
-0.08291238741242271 0.2203834101559175 -0.40018011220892963 108 91 84
-0.08881313805610051 0.2118654361996426 -0.401402811315697 100 83 76
-0.09013215403139468 0.20990722277584242 -0.40411428497844604 93 74 68
-0.0958495711445666 0.20165279043412615 -0.40534886617542343 97 79 72
-0.11175291550549345 0.1788183960510783 -0.403119148959288 88 70 63
-0.1143634096472742 0.17473892223142568 -0.4176659126401546 82 59 45
-0.11440514147689936 0.17461058056474843 -0.4207402622529798 80 57 42
-0.11018953339271324 0.18057456584245118 -0.42533263412516076 79 56 40
-0.11555584999244493 0.17282664324362576 -0.42650878597446984 78 55 39
-0.11667651505023376 0.1710858633731659 -0.432280605799521 80 59 44
-0.11304757080422248 0.17620946264630563 -0.4367025048902776 82 62 48
-0.11595701137007053 0.17197800846606526 -0.4387260465767899 91 75 64
-0.11172609780672184 0.17796227703839604 -0.4433967643391864 101 90 84
-0.1088089610545146 0.1820665178720255 -0.4475986033539061 119 114 113
-0.10435003433107126 0.18837595825931214 -0.45240099551856133 178 177 178
-0.07586921343066594 0.22125435730197796 -0.81721164964766 85 65 56
-0.08731286822008844 0.2048872902092474 -0.8127260491858358 84 62 52
-0.09235574372890212 0.1976341935869656 -0.8125780375179875 83 59 47
-0.10200161041319923 0.1832450752492232 -0.8355062075135329 82 55 36
-0.10339265023856986 0.18119248254815196 -0.837800882615772 83 56 37
-0.10913135833526776 0.17295349619814576 -0.8369609446304614 84 56 37
-0.11610092941762241 0.16296383138834733 -0.8352000864397777 81 51 33
-0.11623302134051983 0.16270358785009637 -0.8383590382071671 81 50 31
-0.1186202476707806 0.15923480824481123 -0.8398765486007719 83 52 32
-0.11658942822503265 0.16183469362390157 -0.8543874167799154 88 58 35
-0.11676799263679993 0.1615082486501807 -0.8575162252908034 89 58 37
-0.11990431833903137 0.1569747436250107 -0.8584403123946114 89 59 37
-0.12008374957992596 0.15664724245070752 -0.8615605174702863 88 60 41
-0.12006055865594474 0.15660791358847032 -0.8648332598463402 93 69 54
-0.11849391987649936 0.15876361877311657 -0.8692715758438172 94 73 62
-0.11737756544447121 0.1602787336619167 -0.8733794221393888 93 76 67
-0.11534138621597069 0.1631017158667021 -0.8781941982490629 96 81 72
-0.11083945214418375 0.16943068478482712 -0.8849033729471469 96 82 74
-0.11585662432120278 0.1622235790013889 -0.8843499623323169 96 84 77
-0.11179227247830195 0.16792975793906995 -0.8907501517046097 96 83 76
-0.10967714758501147 0.1707907518314002 -0.8989676386173165 94 80 72
-0.10820577399158186 0.1728092997270811 -0.9034094032444215 90 74 65
-0.1094572729365921 0.1709567846670494 -0.9057361765535606 88 70 59
-0.11194485083179055 0.16734726857561227 -0.9070887793534761 87 69 59
-0.11162414158296337 0.1677299482603719 -0.9106362117115395 91 74 64
-0.10678587413772361 0.17453384932984728 -0.917751925699903 95 77 68
-0.10685430388389144 0.17436299208343264 -0.9210107996500002 95 77 68
-0.10826220842703475 0.1722883467501576 -0.9232057765649425 96 76 67
-0.1049668337386637 0.17689821692517288 -0.9291467153308732 98 78 66
-0.10547312787830374 0.1761048929072816 -0.932063775932129 101 82 68
-0.10496311183574691 0.1767558656272036 -0.9357961260932387 101 81 67
-0.10540565801416524 0.17605313286845992 -0.938764421038696 98 76 62
-0.10716147631648162 0.1734843283524292 -0.9406682647238939 95 71 55
-0.10793288739698456 0.1723144543824549 -0.9433630800991812 89 66 47
-0.10907560691627756 0.17061708641271206 -0.9457519661645917 81 58 40
-0.10959942166521124 0.1697991506281588 -0.9486420476521465 80 57 41
-0.11467261005603098 0.1625179882965736 -0.9477938931318864 79 56 40
-0.1193585254314458 0.15527498302926865 -0.9703145926707212 78 60 45
-0.11861285994510513 0.1562605500726379 -0.9742490981171397 78 59 44
-0.12172608242345649 0.151766211800173 -0.9749065617155394 78 59 44
-0.13286011076227078 0.13573774529838742 -0.9752348125903114 78 59 44
-0.13184499877303466 0.13710635406301025 -0.979379777722388 81 62 48
-0.13079718506321653 0.13852122656615978 -0.9835603970368563 85 65 53
-0.15599156629336974 0.10139510859719272 -1.0228593740744008 62 33 14
-0.1629628959138037 0.09143525917908718 -1.01964238447131 64 35 15
-0.16647683235370425 0.08638002849158787 -1.019592618079513 67 36 16
-0.166677408616761 0.08602445425370807 -1.0226068827966426 70 38 18
-0.1742728359686418 0.07518151020163219 -1.0187171852051276 74 41 22
-0.17039864055558815 0.08060498417237498 -1.025526210141921 75 42 23
-0.17107382899004459 0.07957658856494208 -1.0280850743947583 76 43 24
-0.17148057692671054 0.07892890124312268 -1.0308942774885081 78 46 26
-0.17285790587091912 0.07690501869727229 -1.0327846472292888 77 50 29
-0.1750187350439018 0.073770389697222 -1.0339249476674301 79 54 35
-0.17760364976169515 0.0700347487145827 -1.0346501514059456 81 58 41
-0.172692370275838 0.0768560745648807 -1.0457109839237306 82 60 46
-0.16994804889862242 0.08046174292429113 -1.0611628083959337 80 58 44
-0.1687765718072078 0.08205082741470833 -1.0655114304636006 79 57 43
-0.16068153199988938 0.09330831102653567 -1.0831032149266973 70 51 39
-0.15643796323515413 0.09903259423534504 -1.1002976249067453 48 31 21
-0.159648039706067 0.0944121151883292 -1.1003596810166787 46 29 19
-0.16462642698295368 0.08728680488106369 -1.0986364241357143 47 29 19
-0.1672636481077567 0.0834787870876543 -1.0992315783723043 49 31 21
-0.1678743947854567 0.08254179983925618 -1.1018498354553683 50 32 22
-0.1715982881343024 0.07719498140776387 -1.1013261596527133 51 33 23
-0.1698740772230785 0.079565699253102 -1.1062922551233851 52 33 23
-0.16748960600375107 0.08287134996845764 -1.1119399479645562 57 36 25
-0.17047492264095104 0.07857123432879146 -1.1121393990043207 64 39 22
-0.17198428810285926 0.07636183024442016 -1.1138285037737812 74 48 26
-0.17265091921779796 0.0753460791532904 -1.1163724642591693 81 55 32
-0.1707465841147351 0.07797121910844461 -1.1215530870479515 85 59 37
-0.1699893657238657 0.07897167972009923 -1.125565488417212 85 60 40
-0.1716776313024546 0.07650920419273337 -1.127058554657451 85 60 40
-0.17596853706846127 0.0703617622162637 -1.125847365965033 84 58 41
-0.174801502221674 0.07187091482939068 -1.1335065723277207 82 58 41
-0.1767580685614784 0.06902925296635734 -1.1346898369715785 81 59 41
-0.16909728340351127 0.0798027595054654 -1.14593916335676 81 59 40
-0.1658755999314195 0.08429122868758984 -1.1525717487010463 80 58 38
-0.17484553232248323 0.07116229872494827 -1.16255461320848 164 161 158
-0.08982781758957979 0.22226691725734293 -0.10806565313099671 114 97 90
-0.09842180647980868 0.20980916535656752 -0.11043807574280132 107 91 84
-0.1053014273655495 0.19982416530070085 -0.11290328178218642 97 85 78
-0.10404904951570182 0.20156423288323574 -0.11600424582303158 92 79 74
-0.12549354782460034 0.1702598246789011 -0.13192587854111865 72 50 35
-0.12279386937306716 0.17395692107370586 -0.14107392503125132 67 46 34
-0.1317924845574629 0.1608592885097378 -0.14599738903480616 67 49 37
-0.13002728878805442 0.16333870943870385 -0.14914071887144426 66 50 41
-0.1297604185227048 0.16365881774531033 -0.15211944278450587 68 54 48
-0.1278211040917555 0.16638875950625048 -0.15530066883371516 73 62 58
-0.12589006471053568 0.16910652731273196 -0.15849234411233687 73 63 61
-0.12341784342704988 0.17260379260126046 -0.16176300674504557 72 64 62
-0.12243304030733583 0.1739577253688064 -0.16485832626112595 68 61 61
-0.11865430473869144 0.179336755212663 -0.16832370784603895 73 66 64
-0.11500523615579454 0.1845285155167134 -0.17179313247142475 74 66 64
-0.10982932168004403 0.19191938526296248 -0.17548999395658693 79 71 69
-0.10787039817913108 0.19467544756735525 -0.17877120061578955 82 74 71
-0.10527176815614359 0.19835273648733698 -0.18215409430085783 85 78 71
-0.10513884697461098 0.19841186874101505 -0.18822498197407822 88 81 76
-0.10099817806587792 0.20430946372859443 -0.19186893818510042 90 83 78
-0.09645555905789616 0.21078545489163697 -0.19559704289104432 91 85 81
-0.05190584146308058 0.2705945100826751 -0.40143244654389587 124 115 110
-0.07735875138367172 0.23382048293063767 -0.40286886980281134 108 92 85
-0.08425526630364062 0.22384505602258895 -0.4037809586156951 101 84 78
-0.08817168910908728 0.2181506827968991 -0.40564733378175327 98 79 73
-0.09498437347652981 0.2082970725206338 -0.40652270787466505 99 80 72
-0.09981844035337668 0.20128586863457432 -0.40803067549947813 92 73 65
-0.11049481992076476 0.1857493848229984 -0.41372747683493 80 59 45
-0.12033262594390035 0.17135315954059302 -0.4226377776534827 80 57 42
-0.11877572348637594 0.17352098589709938 -0.42628015400596087 79 56 41
-0.11705288870129588 0.17592681415542855 -0.42999250938368233 82 60 45
-0.11692466903899894 0.17604323753415685 -0.43313292066071674 83 63 49
-0.11596848700690646 0.1773481604927505 -0.4365800984395204 86 68 56
-0.11317150779246098 0.18129529971050698 -0.4407165440976324 102 88 80
-0.10533559517514372 0.19233792494939408 -0.4530154135784813 181 180 183
-0.08250268560820817 0.21732122675056942 -0.8178366152722353 86 65 56
-0.08785413687160751 0.20960371338196843 -0.8174895552382309 85 63 52
-0.09043382478228523 0.20570078796910216 -0.8256762017446109 84 58 45
-0.08797646264825246 0.20913777039096737 -0.8307228072886934 83 57 43
-0.08908197981761026 0.2074860338160415 -0.8332776426209105 83 55 41
-0.09573285330917364 0.19791507503628844 -0.8319089486107747 83 55 41
-0.10168508700541706 0.18934261146851963 -0.8309988732006943 83 56 41
-0.10204680620807235 0.18875398611129524 -0.8340384953846438 83 56 39
-0.10473573666944941 0.18484232432768766 -0.8354127159979243 83 56 38
-0.10259971821098757 0.18782026914498604 -0.8402380224138899 83 56 38
-0.10585922260304975 0.18309426619216163 -0.8411863595580431 83 56 38
-0.11244229071235982 0.1736235219599082 -0.8397109293718138 84 54 37
-0.1141349615160057 0.17113539934211375 -0.8417535007042478 85 54 35
-0.11838645545738831 0.16499449853740897 -0.8419201980639414 87 56 35
-0.11445535446230352 0.1703919345932931 -0.854602657735901 90 60 37
-0.11707694512483136 0.16657844300500232 -0.8559328995719376 91 63 40
-0.11881514496584604 0.16402609882630514 -0.8579067797290093 90 63 41
-0.12003317209926335 0.16221634379879155 -0.8602605906010085 90 65 43
-0.11827200189831129 0.16465847697917074 -0.8648434393470507 97 74 56
-0.11809046354293573 0.16484608466307799 -0.8682483718565007 98 78 65
-0.11723867936323094 0.1659900959584158 -0.8721623849507262 98 79 71
-0.11447749937364443 0.1698585997299938 -0.8775316708320153 98 82 76
-0.1135318894623237 0.17113609262988555 -0.8815353565691536 100 86 80
-0.11011269072880013 0.17594283127288982 -0.8874374266233205 100 86 79
-0.11201830969819519 0.17315182253099667 -0.8892734777150704 98 86 79
-0.1084575356296672 0.1781599551333683 -0.8953117178594711 100 87 81
-0.10674637812258114 0.18038396174607274 -0.9065684029943301 92 77 69
-0.10543643060412627 0.18218003866252758 -0.910908524953931 92 75 66
-0.10869589370587276 0.17745817756984722 -0.9116701685359482 96 79 70
-0.11089389207587975 0.17425069295924545 -0.9132506081239196 100 83 75
-0.10379186636502233 0.1843076883069295 -0.9221755490686949 100 83 75
-0.1059340273968924 0.1811797457305872 -0.9238045620286337 102 83 76
-0.10313516349016302 0.1850985884672502 -0.9293595125673937 103 84 75
-0.10349364039483558 0.18451446785534203 -0.9324071692462215 106 85 77
-0.10465786344112377 0.18278136772278972 -0.9348073598731786 107 86 78
-0.10583297080934631 0.18103286611353825 -0.9371933451062705 105 84 72
-0.10712489974306391 0.17911791212160352 -0.9394793713876458 100 78 64
-0.10911381849602961 0.17620931916677984 -0.9411936164819479 96 71 55
-0.10980091114019883 0.1751570230486571 -0.9439577906608507 91 66 49
-0.11167460863987784 0.17241306527983324 -0.9457494511814935 85 61 44
-0.11346661416458255 0.16978577933323613 -0.9475984998360236 83 60 44
-0.11673369585898588 0.16505589536125725 -0.9482240896845905 82 59 43
-0.12069784536436547 0.15897201885700493 -0.9647527795232747 80 58 44
-0.1215924626635324 0.15755265687965492 -0.9706036106620279 78 58 44
-0.1578897375136793 0.10400085551602484 -1.0234146570314318 64 35 15
-0.16434422383632724 0.09474361186489917 -1.0206639184450872 65 36 15
-0.16210306059275517 0.09786301314645177 -1.0259614440386915 67 36 16
-0.16484487377967905 0.09389054001116796 -1.026625539374988 71 39 18
-0.1691570415630436 0.08768363832992655 -1.0258050904202964 75 42 23
-0.17054034833325293 0.08564511377462293 -1.027709787897597 75 42 23
-0.171371401041787 0.08439257598175458 -1.03012765974723 76 44 25
-0.17209919332632057 0.08328704611746945 -1.032639464361748 79 48 29
-0.17307493641610933 0.08182879036704588 -1.0349132664223157 81 54 34
-0.17279962002250326 0.08215059504715021 -1.0383720059898398 82 57 38
-0.17508527856348172 0.07882883939752468 -1.0393912546777686 83 61 43
-0.17474832331382345 0.0792383703012844 -1.042907284671875 82 60 45
-0.17040488017834832 0.08534732676274379 -1.0502717906526051 81 59 45
-0.17125714266233605 0.08385417927182698 -1.0622932273926355 78 57 43
-0.15893186141308394 0.10081509389475196 -1.1003100674477049 49 32 23
-0.164331922168106 0.09306644560352878 -1.0981778016449144 48 31 22
-0.1680126535443651 0.0877627591242466 -1.0977367789282848 49 31 22
-0.16982709533970458 0.085112610810692 -1.0991501950610862 52 34 24
-0.17110039807286206 0.08323190955902246 -1.101099405648941 51 33 23
-0.1715537888246228 0.08251681007455094 -1.1038710972609198 50 32 22
-0.17036504303673483 0.08413584665857898 -1.108306309011169 52 33 23
-0.17209653917537698 0.08160410507347533 -1.1097805363650124 54 33 21
-0.17387844029672292 0.07900092418761288 -1.1111942612806627 65 40 21
-0.17629819799723795 0.07549143643016162 -1.1119461047169894 76 50 28
-0.1776347812765704 0.07352155895977185 -1.113795956457597 82 56 33
-0.17226295470248407 0.08108483611991497 -1.1225418281648754 85 59 38
-0.17122894008261522 0.08248339789772781 -1.126844972429903 84 59 39
-0.17238694161026466 0.08076711132652122 -1.1288869610909997 84 59 39
-0.1740225144342492 0.07837238874695192 -1.1304275633899115 84 58 40
-0.17482376084333534 0.07716325422122171 -1.1328282258644575 82 57 40
-0.1774745434822441 0.07332651891341561 -1.1332942779200266 80 56 39
-0.1686645129483982 0.0857007979878718 -1.1490019332136192 81 59 40
-0.16533540239900063 0.09035866815953855 -1.155764762466985 78 57 38
-0.16489766413374668 0.0906943492516343 -1.1693116468027787 126 121 113
-0.18125934320558057 0.06738603185085545 -1.1551056456578275 152 148 145
-0.09433355470920464 0.22104667113786886 -0.1109978435378865 109 92 84
-0.10567866437945087 0.20457114103691693 -0.11312121113739318 103 89 81
-0.1052289985590681 0.20515692358336554 -0.11616146812531478 96 82 76
-0.11113379375524755 0.19655185302232053 -0.11866284120673044 88 71 64
-0.12699230573297074 0.17342444919436933 -0.12615972593211564 75 52 38
-0.12947083451286567 0.16977666258301324 -0.12887445497683603 72 49 35
-0.12733701191947408 0.17279889518670372 -0.13203201488934987 71 49 35
-0.11979709236621425 0.18357410395568102 -0.13872459650719113 67 46 32
-0.12467728448573079 0.17645382032465656 -0.14118088973484308 66 46 34
-0.12842402746386494 0.17097285152356667 -0.1437362469185214 67 47 36
-0.13138280568717944 0.16663150919757325 -0.14636103260001887 66 49 39
-0.13047838351831886 0.16787559683708264 -0.14941370648123492 66 52 44
-0.12697460065141375 0.17287736235440954 -0.1527769560822486 68 57 50
-0.12589187726977033 0.17437879778937787 -0.1558698637919051 74 65 60
-0.1252847695015282 0.17519255727711713 -0.15891144315509392 74 66 63
-0.12264873046736169 0.17893902986106514 -0.16221137232511662 75 67 65
-0.11392532126677009 0.19141947601169113 -0.16930721527443598 76 68 67
-0.11626647250651179 0.18797112515817624 -0.17199929361070607 81 73 71
-0.11162710698285468 0.19461171214792494 -0.1756281294908786 84 76 74
-0.10649224525634256 0.2019026993242785 -0.1823787074608547 91 84 77
-0.1045342956358652 0.2046669552634876 -0.1856886897913956 92 85 81
-0.07717683188413338 0.23959234642154878 -0.4038092584811473 107 92 85
-0.08347716190417986 0.23044437519969482 -0.40492068204083015 104 86 82
-0.08881681889041285 0.2226814662568729 -0.4063189464045947 96 77 70
-0.09745043884501818 0.21017269855388626 -0.40658249490159154 98 79 71
-0.10203377496395204 0.20350097267602973 -0.4081718181925838 98 78 69
-0.11873323883770089 0.17890701090415412 -0.4272270270854869 83 60 44
-0.11510517772106586 0.18406616036189172 -0.43164033249997935 85 63 49
-0.11409768831622885 0.18545042556657507 -0.4351151381104363 87 68 57
-0.11326879444905862 0.1865773224390846 -0.43853085513451145 95 79 70
-0.11057089252488739 0.19039581673277897 -0.44264721784673094 110 100 94
-0.10705546390730271 0.195256449895981 -0.4533533326084079 180 181 183
-0.09586468345873997 0.20349356017046205 -0.8237198054125279 85 59 47
-0.0905511429290157 0.21103688760170208 -0.8307687536482294 86 58 45
-0.09376522772245799 0.20628780263711738 -0.835160081370538 85 58 43
-0.09468751486179483 0.20489469185886233 -0.8378308086508335 85 58 41
-0.10230948684312458 0.19390220536501543 -0.8357136670022269 84 57 40
-0.10762320895267143 0.18621780952730072 -0.8352085873316778 83 56 39
-0.10886191093542667 0.18437232069784265 -0.837607446089999 83 56 39
-0.11011268028084867 0.18250966911745298 -0.8399917560953956 83 56 39
-0.11090890744966857 0.181298309354699 -0.8427000071696467 84 55 39
-0.11586367243386028 0.17412987076430103 -0.8423752405702365 86 56 36
-0.11758618956855586 0.1715920493801844 -0.8443873243204915 88 57 36
-0.1167049818774124 0.17278395171170863 -0.8483028631961511 90 58 35
-0.11931545644581303 0.1689744984342516 -0.8496505194055591 92 61 37
-0.11980773743792941 0.16819914716038248 -0.8525522178713325 95 67 43
-0.11857593076685151 0.16989306249496594 -0.8567335869736458 100 72 50
-0.11852181153118384 0.16990018700576248 -0.8600449105089846 99 71 50
-0.1176602384057854 0.17106360774771473 -0.8639626367136319 98 74 54
-0.11459805277690617 0.17523672190431244 -0.8761158927451833 100 83 76
-0.11346947480977618 0.17664008044978713 -0.8868530682652319 110 95 88
-0.10897949578222477 0.1829971437731995 -0.8936042531432536 109 94 87
-0.10360816902425021 0.1903286779835433 -0.914385428882893 104 88 80
-0.10365744614353364 0.19018641388838786 -0.9176805486226094 108 91 83
-0.10328568252753434 0.19064671614029044 -0.921309328003008 106 89 82
-0.10131738521529257 0.1933917866874043 -0.9262073819460985 107 88 81
-0.10193155205109661 0.19244090342366116 -0.9290634649784241 108 90 82
-0.10138775595885557 0.19314711543461327 -0.9328421457037641 108 90 78
-0.10473852338550588 0.1882803450229169 -0.9335035857841054 107 87 78
-0.1058997829355108 0.18654688240649958 -0.9359082500335982 105 85 75
-0.10753114166604191 0.18414091271082322 -0.9379278968129428 102 82 67
-0.10874580755216448 0.18233130251588509 -0.9402770338587664 98 75 59
-0.11169909872666975 0.17803438870126204 -0.9412063242299833 96 70 55
-0.11312210440243928 0.17592708048010625 -0.9433687746297696 92 68 52
-0.11473445942328162 0.1735490470776493 -0.9453691174487431 88 66 49
-0.11615713760919656 0.17129982901288693 -0.9541488041587233 83 60 44
-0.12034389849579909 0.16524008897885112 -0.9539873982071879 83 60 44
-0.12044432756161459 0.1648116738845472 -0.9671385325938431 81 58 44
-0.12134971208262327 0.16337447782790934 -0.9729957139701307 81 58 44
-0.14394572916802473 0.13050439476790837 -0.9798192462779934 84 62 48
-0.16119698208939548 0.10452989336490323 -1.0258968852364254 67 36 15
-0.16326923248559366 0.10150092539784106 -1.0271963930293246 70 38 17
-0.16782901221684332 0.09491983067954356 -1.026159109832588 72 40 19
-0.1747345799806344 0.08498949717958879 -1.0228956429042062 75 42 23
-0.1754304252842696 0.08392713834752474 -1.0254352280934087 75 44 24
-0.16535485163084251 0.09824509119513189 -1.0381396371894742 77 47 28
-0.1689666740611405 0.09294950146008467 -1.0411602569816034 82 57 38
-0.17224764680023344 0.08819609276077638 -1.0412507132797102 82 58 41
-0.17799233842741857 0.07992582915415862 -1.0389676701030701 83 61 44
-0.1786542569206807 0.07891220844534066 -1.041525577660535 82 60 46
-0.17033789079577571 0.09071504476930331 -1.052717468435755 81 59 45
-0.1680736465200583 0.09373895275270626 -1.0645750447586544 78 59 44
-0.16606706493814255 0.0965333225868459 -1.0697586149463778 76 57 42
-0.16081482461203905 0.10346878515400822 -1.1009320657758017 53 36 27
-0.16709594189141075 0.0944376322439112 -1.0979075028569392 52 35 26
-0.1698373298277211 0.09045697794674688 -1.0984006768099412 52 33 25
-0.17066606466768564 0.08920508146116107 -1.1008049626951715 51 33 24
-0.17264171472934217 0.08631724462763767 -1.1020470383205763 51 33 22
-0.17143037601989905 0.0879755122308008 -1.106507547175817 53 34 23
-0.17000656082508098 0.08993665234893489 -1.1111926761538846 53 33 23
-0.17154015113718593 0.08767956027018527 -1.1128734930188986 60 37 23
-0.1743015678089334 0.08367152383253007 -1.1132912287778887 76 49 29
-0.17687550053780796 0.07993119352932644 -1.1138858322222236 82 56 33
-0.17979992835640282 0.0756913422983206 -1.1141057795931346 83 58 36
-0.17854338235395653 0.0774138916388121 -1.1186214481717869 84 59 38
-0.1791793868660027 0.07643760325141317 -1.1211884634112292 84 58 39
-0.172388708357504 0.08605081280905275 -1.1314576332536472 84 58 38
-0.17731627697106744 0.07895523766879121 -1.1295769911227598 84 58 38
-0.17886600263214525 0.07667618219533193 -1.131192575891394 82 60 39
-0.1681201170013947 0.09178629688251938 -1.152196190587668 81 59 40
-0.16729104459037134 0.09261620457321498 -1.1694263605036814 134 131 125
-0.18321846568813702 0.06984684536432545 -1.1556454377435335 159 155 153
-0.1765274575954624 0.07924265537354758 -1.1693099511717624 179 177 178
-0.09155008179440584 0.23045155750597704 -0.11145907817762277 113 95 88
-0.1006979117996415 0.2171122951319145 -0.11377025794084158 112 95 87
-0.10920435144612861 0.20470474523598664 -0.11608737671286297 99 85 77
-0.11188645856269809 0.20074940077499853 -0.11885914492092439 87 71 62
-0.12027990514029147 0.18850733248605706 -0.12111387117977401 82 63 52
-0.12492584728506112 0.18170349905751068 -0.12366590766904982 73 51 38
-0.1261345899236644 0.17988706036720564 -0.1265160298055021 75 52 38
-0.12596519144099375 0.18007014603787225 -0.1294934985353546 73 50 36
-0.12452718983369256 0.18209361167522264 -0.13259846057637395 71 49 35
-0.12945328980101756 0.17488453867663095 -0.13506615771905067 69 47 34
-0.1293205910571073 0.1750144698092394 -0.1380358621160627 67 45 32
-0.12674778584834773 0.17868392979160908 -0.14126813762512402 65 46 34
-0.13169649093317787 0.17144294933439144 -0.1436917003876615 67 47 36
-0.13110469185844642 0.17223881965603785 -0.14671151062584628 66 51 41
-0.13004996906150718 0.17370602792944412 -0.14978879754818242 65 53 44
-0.12853036094197487 0.17584734083658293 -0.15292749238456632 70 60 54
-0.12592897708842915 0.17955735450276694 -0.1562054310831628 76 67 63
-0.13002843181371965 0.17354921575940765 -0.1586754817226457 74 66 63
-0.1252339987434889 0.18043929762455369 -0.16224083047004742 79 71 69
-0.12064666380616465 0.18702849426714685 -0.1658063951829653 78 69 70
-0.11585875438131417 0.19390799513082882 -0.16942386253015404 85 76 75
-0.1107264631633211 0.20128628873004561 -0.17311404958948431 89 81 79
-0.10600518168398386 0.2080680295231518 -0.1767768834283243 91 83 81
-0.08340898305691519 0.2360483933443706 -0.40583025699682906 108 90 86
-0.09541040637708825 0.21856292645498965 -0.40815973194637684 97 77 70
-0.10165757210874257 0.2094649132356244 -0.40919318831433327 96 76 67
-0.10446201458993748 0.20534438976083644 -0.4113718184256911 101 79 69
-0.10733262955187516 0.20112851155445102 -0.4135134396158364 98 74 57
-0.11836852537619826 0.1848478853903457 -0.42519328825935554 92 66 51
-0.10968119983553538 0.19733706032016676 -0.43143550263018676 93 68 53
-0.1162224494337552 0.18781793027627625 -0.4321788691507574 96 74 62
-0.11240644872445077 0.19326650042248295 -0.4366893364557143 95 79 71
-0.11032073557583796 0.19621431026538327 -0.44058221550969023 110 98 93
-0.1074314339474134 0.20032299751854185 -0.4447873223344145 126 121 118
-0.09083441037588147 0.21644265884126743 -0.8224158347418763 88 68 58
-0.09380228650233205 0.21210406037667845 -0.8236794405677414 84 63 52
-0.09530683582273022 0.20979966393129032 -0.82927904694755 87 61 48
-0.09305030699676659 0.2129738485181386 -0.8342015244485579 88 62 48
-0.0956304289641414 0.20919351690137605 -0.8357050478314115 89 62 46
-0.09861225753126729 0.20483591812879898 -0.8369086364880605 87 60 43
-0.10287600346400697 0.19856557780930506 -0.8404895124459256 85 58 41
-0.10673618870592966 0.1929461893624618 -0.8410164325624843 84 57 40
-0.1098457113395864 0.1884063303353912 -0.8420660573909038 84 57 39
-0.11383694348706777 0.18246035171721575 -0.8490275862494826 90 59 37
-0.118975793237214 0.17500490886041697 -0.8485320654360587 96 64 38
-0.11843314174379552 0.17571551990306877 -0.8522064706853606 102 71 45
-0.11767013003842132 0.17674272300600377 -0.8560488885008869 103 75 52
-0.11711845331687061 0.1774660986413824 -0.8597397170630078 104 76 55
-0.11625545197406502 0.17863675498172574 -0.8636679204875997 103 76 56
-0.11572922917495787 0.17932334109311482 -0.8673497265445911 103 81 64
-0.11423360455997086 0.1810536970983489 -0.8882574410366144 115 102 96
-0.10863802399324651 0.18902195306488168 -0.8958746983212107 117 104 98
-0.10298436747703846 0.19707290933489857 -0.9035710803523087 116 102 97
-0.10118112763404546 0.19937993758623745 -0.9183486075311662 114 100 93
-0.10428427612329694 0.19485247749480275 -0.9192499660867548 113 98 92
-0.09992387338530914 0.20104365899231907 -0.926043173089179 110 95 88
-0.09911111202159012 0.20213977871756222 -0.93004441154381 110 94 86
-0.10015666180074062 0.20056730826330627 -0.9325697337279409 113 95 87
-0.10077060369154911 0.19961468282142214 -0.9354358074738424 114 96 85
-0.10404565871085472 0.1948411851665578 -0.9361616415513441 110 90 80
-0.10547447490947356 0.19271884496160402 -0.938358363515669 106 84 73
-0.10715775674244182 0.19023131434423446 -0.9403421249683841 100 78 64
-0.11157894591868608 0.1838132932627685 -0.940093448918867 95 71 56
-0.1124688042435564 0.18246532148203853 -0.9426989084815365 93 67 52
-0.11303179722741391 0.18158665401706708 -0.9455679435786065 91 67 51
-0.11726398577912182 0.17544104166627406 -0.9454222175521024 88 65 48
-0.1143417288048946 0.17956540637744164 -0.9511486440786213 85 62 44
-0.10924144488712606 0.18681557616814715 -0.9586949842665464 84 61 44
-0.10923739237082189 0.18675059473599037 -0.9620431146944634 84 61 45
-0.11604298489140613 0.176912308500687 -0.9597207301927733 84 61 45
-0.11541559391692163 0.1777422757765063 -0.9635726191563475 82 59 43
-0.11815227253798256 0.17374440777595385 -0.9646076942201972 81 58 42
-0.12150100792018692 0.16886853758924886 -0.9651127426727971 80 57 42
-0.1175952536628643 0.17440296101597172 -0.971727657603489 80 57 43
-0.16420013067153877 0.1055568451734356 -1.025426996784098 69 39 18
-0.16560247352094654 0.10347883206008539 -1.0273466086153236 72 41 20
-0.17331990017143373 0.0923514221116281 -1.0233411014402527 73 42 21
-0.17416421007387978 0.09107373695996086 -1.025752293487432 74 43 23
-0.17556372328377529 0.08900059191256593 -1.0276361393565914 77 47 26
-0.16820331285253518 0.09947894017459594 -1.0378010143314067 78 49 30
-0.16988564042553655 0.09700033430216785 -1.0394286346092334 79 52 34
-0.17091629587259097 0.09545555589090104 -1.0416679921293857 81 56 39
-0.17448334240384278 0.09027718636522672 -1.0414798765261741 81 59 42
-0.1774372458887516 0.08590982919610161 -1.0450612067591045 82 60 46
-0.17621685295674305 0.0873863310444945 -1.0590706683048312 78 59 44
-0.17200716806296615 0.09334734786815538 -1.0663927995436118 77 58 43
-0.16622313591410753 0.10156244227982404 -1.0752833610778358 77 58 43
-0.1620476671059074 0.10747322638778638 -1.0826301623539178 76 57 43
-0.15926588620397003 0.11118002686697502 -1.09844196696316 54 36 26
-0.1606853153625658 0.10907850257201553 -1.1002995708187957 55 37 27
-0.16186821099811788 0.10731576766274722 -1.102386600659698 56 38 28
-0.1718539383143758 0.09295100602837135 -1.09563488077569 56 37 28
-0.1714023687956135 0.09352887820126059 -1.0993287148695279 56 37 28
-0.1707083409776181 0.0944537360244503 -1.1032714154689247 55 35 26
-0.17393608023653817 0.08976482160368233 -1.1032488612949838 55 35 25
-0.17726696342658388 0.08492865774262949 -1.1031033649519237 58 38 26
-0.17203021783039252 0.09235557667552691 -1.1116658251369476 60 37 25
-0.17353323043224855 0.09013573904053307 -1.113376022898247 70 44 27
-0.1754492911330156 0.08732493057682704 -1.114655244579893 83 56 35
-0.1771534389194968 0.08481760538824942 -1.1161419843927582 86 62 39
-0.17945981249531953 0.08144867077750109 -1.1169990165469217 86 60 40
-0.17961209599476294 0.08116241967778628 -1.1200702175478663 85 60 41
-0.17977329472493941 0.08086340238824591 -1.123132620672247 84 58 41
-0.17804609446069516 0.08326635628873878 -1.1281590568001292 84 58 40
-0.17683554522422903 0.08492985166903108 -1.132658569850684 83 59 40
-0.18303372973212223 0.07599347206311172 -1.1294177934733858 83 61 42
-0.18777792922174288 0.06913798798069534 -1.1276658356191267 84 63 44
-0.1812834609618782 0.07836082126100664 -1.1377097058946073 84 62 44
-0.17638920710933156 0.08529366723823195 -1.1461061945919897 81 60 43
-0.16575924954574914 0.10022190671215923 -1.1704556075654424 119 112 104
-0.16925416754008105 0.09515395090853437 -1.1700018666502126 146 144 138
-0.18380055029291975 0.0742814891745899 -1.1576655928941821 163 162 159
-0.18062678707452318 0.07868298002402964 -1.167562351134363 180 179 180
-0.097993330838028 0.22640914564438402 -0.11423929026980609 117 99 89
-0.10692151005080462 0.21334844968942668 -0.11653308291200462 106 91 82
-0.11281149700078624 0.204711497433636 -0.11904141713662195 92 77 68
-0.11947782195335668 0.1949450776794881 -0.12145095583364637 86 68 57
-0.12113474843874059 0.19247113834831084 -0.12428281786823119 78 58 46
-0.1288669886216728 0.1811543616717815 -0.12653717870871092 77 54 40
-0.1268642907282187 0.1840076840259045 -0.12969063791135108 77 54 40
-0.1280013278666009 0.1822910285992292 -0.13254471342886456 74 52 38
-0.1330074995427757 0.1749433521872005 -0.13500009312881744 72 50 36
-0.13374442043818466 0.1738094195569464 -0.1378759050185151 68 46 33
-0.12947647805531504 0.1799590465234011 -0.14128505318387743 66 47 35
-0.13010125086249774 0.17898815199805024 -0.14418101232410055 70 50 39
-0.1306605132060384 0.17805094124785847 -0.15004593576143505 69 58 50
-0.1296814997193163 0.17941375275864427 -0.1531261757227427 73 65 59
-0.12950499920463127 0.1796087686021444 -0.15611616070958526 75 68 64
-0.1244464527448447 0.1869068814869286 -0.15970936021036783 83 75 72
-0.11985102230451239 0.19353062135874294 -0.16327251808971988 84 76 74
-0.11483749883613309 0.20076208377561966 -0.16691514392294604 87 78 79
-0.11020665034238203 0.20743625345433458 -0.17053559349350947 91 83 81
-0.10512112501836583 0.21477131405613303 -0.1742428636939766 94 86 84
-0.10137182881035334 0.21532478951242118 -0.410188250772846 97 77 68
-0.10503305114417127 0.20994915891069554 -0.41207852524425687 101 79 70
-0.10536813279827406 0.20939787922929173 -0.41510007810905974 105 81 67
-0.1067655197376694 0.20730599376618725 -0.4177507617335909 99 73 54
-0.10864049305685336 0.2045216460329249 -0.42022720395328994 96 69 51
-0.11301592390350158 0.19811146405796026 -0.4218091458599931 97 70 52
-0.11323620537402408 0.19772708509380876 -0.42485098314426306 98 71 54
-0.11280909638977306 0.19828144001105574 -0.4281256878742172 98 70 56
-0.11281606558375752 0.198206318477962 -0.43124671416729304 97 71 58
-0.10972898661669349 0.20261727410831928 -0.43549880454846385 98 78 68
-0.10840423580676488 0.2044727253428679 -0.4391208415221103 105 90 85
-0.10556734615715983 0.20852029373351894 -0.44331204641237926 121 113 112
-0.10659664609390705 0.20689702896294865 -0.4492234461826551 179 181 183
-0.0936050804546665 0.21771884150887183 -0.839020438896188 90 64 47
-0.09937217118034777 0.2092601483042258 -0.8415702809521709 89 62 45
-0.1069054018953767 0.19832400707635486 -0.8394731299416344 87 60 43
-0.10655517338951642 0.19876034039568158 -0.8430345132293824 86 59 42
-0.11267723308166926 0.18965518654628866 -0.8517860788730439 93 63 39
-0.11292528855491193 0.18922880080259996 -0.8549012178561005 100 68 45
-0.11660646771074121 0.18385151844545636 -0.8554734167939881 106 75 51
-0.11563466754443437 0.18518442095814497 -0.8594854644673965 105 77 53
-0.11489437368990373 0.18618335015265408 -0.8633317416897828 102 75 52
-0.11430828426958145 0.1869598109438862 -0.8670681552858659 105 79 58
-0.11334794356000266 0.18827578726151542 -0.871090958258041 108 86 71
-0.1030415033283944 0.20264968717994442 -0.9022170567803075 127 118 113
-0.09664111839590261 0.21152505601804572 -0.9239940199314458 120 107 101
-0.09998031180678787 0.20664292970939604 -0.9247244297567914 118 105 99
-0.1022024762188872 0.20337081981492586 -0.9263229477175776 118 105 98
-0.09763768891006633 0.20987852018617195 -0.9333152218373845 118 103 95
-0.0987780896927972 0.20816516699331622 -0.9357751183452715 117 99 92
-0.10004223458674397 0.20627363214982675 -0.9381304171975331 112 94 82
-0.1008609321113022 0.20502400255470019 -0.940838384845974 108 88 76
-0.10086161032794572 0.20495295727105556 -0.9442040888877502 101 79 66
-0.10491399926670841 0.19904486824789674 -0.9442844772390837 96 73 59
-0.11521804380268016 0.18399273630633312 -0.9459101084484931 88 65 49
-0.11231267451952304 0.18796914285927108 -0.9583152344867663 83 60 43
-0.11323788466965198 0.18656705848170732 -0.9608892155457781 84 61 45
-0.11825143107025557 0.179277294161537 -0.9600459543935759 84 61 45
-0.11588590673383287 0.18261453767482316 -0.9653566982891048 84 61 45
-0.12036282247662142 0.17609825241801935 -0.9649298656867209 82 59 43
-0.123647497935545 0.1712992595010978 -0.9654838304750876 79 56 41
-0.12275842032707897 0.17251038958413784 -0.9695536781000523 77 54 40
-0.1250140392208463 0.1691935572254767 -0.970958203776727 77 54 40
-0.13220110730408863 0.15877683846821247 -0.9681459203247129 78 55 41
-0.14588108340394942 0.138538014939064 -0.9825615417072244 82 60 46
-0.16266457594807598 0.11310525112307554 -1.029190633995479 69 41 19
-0.16706402837193982 0.10671124431892613 -1.028313424851505 72 44 22
-0.1769754655358145 0.09239173001752925 -1.0222336749304997 74 45 23
-0.17778592179071184 0.09115973118984617 -1.0246716917842587 75 46 25
-0.17718805172844573 0.09195275030829636 -1.0284375136277915 73 45 24
-0.17486511557079043 0.09522592328015261 -1.0338442297720523 75 48 28
-0.178309453570681 0.09020709556397156 -1.0337796147290865 79 52 35
-0.17862928566307046 0.08968061629894189 -1.0366775081298012 80 58 42
-0.177377775156301 0.09141309050765298 -1.0410791897159477 82 61 46
-0.1736354038794063 0.09672605197576804 -1.0478819643936503 81 61 46
-0.1711994515212516 0.09982414177780864 -1.0696138140232299 78 59 44
-0.16714777416723414 0.1055793681541926 -1.0768275056371663 77 58 43
-0.16315638283307965 0.11124742342703078 -1.0840077286112744 79 60 45
-0.16236082972260235 0.11211852133079489 -1.0978647442283358 57 38 27
-0.16556856127433073 0.10744184988738766 -1.0979298950466387 57 37 27
-0.16159712896448947 0.11307944880063862 -1.105175734098275 56 36 26
-0.17505621815833008 0.09367618427827963 -1.0949160853999147 56 36 26
-0.17212659797953322 0.09781724285352869 -1.1011090256203777 57 37 26
-0.17284987571072535 0.09671068522343997 -1.1036250043010143 57 35 24
-0.17954367302159546 0.08702819537743417 -1.1000786505894051 56 36 24
-0.1788245087152449 0.08799395910814516 -1.1040387328768875 60 40 26
-0.17691355304692388 0.09067132967807146 -1.1092213236333512 67 43 27
-0.17726227157411178 0.0901030851402897 -1.112103020669815 76 47 28
-0.1792788930838887 0.08713951916299947 -1.113270974292441 82 57 35
-0.1809691141432831 0.08464491510898435 -1.1147642466425263 86 61 41
-0.18440171264689392 0.07964842512368811 -1.1144485015912935 87 61 43
-0.1817498277310386 0.0833893355858025 -1.120417800638791 86 60 43
-0.1817083135058266 0.08338169351796858 -1.1236918818808856 85 59 43
-0.18344855312583852 0.08081574020097418 -1.1251105194167363 84 60 43
-0.17999562018543352 0.08570610912081195 -1.1319484596884102 84 61 43
-0.18557134709293244 0.07763362961642091 -1.1293434277866707 84 63 45
-0.18496408830796712 0.07843830459191707 -1.1332066963275196 84 63 46
-0.1798113130258322 0.08576826066595672 -1.1418682227649761 83 62 46
-0.17488163811027593 0.09277727152627792 -1.150326682514466 78 57 43
-0.16878993224719513 0.10124864324188071 -1.1698981525556205 131 125 117
-0.1720714770737957 0.0964706304409778 -1.169663394908558 154 151 147
-0.18354924945405093 0.07986292872585934 -1.1638349593280004 175 175 174
-0.18216521206490693 0.08178147196832276 -1.1685773019108807 181 181 181
-0.11260655211216868 0.2103378252033092 -0.11932162352895209 99 83 71
-0.11871186662086969 0.20136015396483284 -0.1217863545837239 86 70 57
-0.11907796468412478 0.2007643195207353 -0.12474424500343893 82 61 48
-0.13212116542894406 0.18159581244253734 -0.1294670583217693 80 58 46
-0.13373305151071693 0.17918162875100901 -0.1322660248030938 77 57 45
-0.13530591673169584 0.17682457203731528 -0.13506155228639183 77 56 45
-0.13400276131787417 0.1786668404355396 -0.13815104421698987 74 55 41
-0.1314201791403419 0.18237691882828283 -0.14138607358347122 72 54 41
-0.13269670032839764 0.18045257028602318 -0.14421133553525675 74 57 48
-0.13194766456422033 0.1814854500565077 -0.14725931063082218 72 58 49
-0.13043275159565967 0.18363628679480945 -0.15040086259594806 71 60 54
-0.12835471795767084 0.1866089723905145 -0.1536181972836281 74 67 64
-0.12352458028715843 0.193598754216884 -0.15718017919767058 82 76 75
-0.11857989519476572 0.20075518546927115 -0.16078334661533855 88 79 78
-0.1138173841332541 0.2076451442174596 -0.16439121545174132 94 85 83
-0.10904013300516363 0.2145560705018778 -0.16802769922797298 95 86 83
-0.0978970130216457 0.22585194640911832 -0.41227541083864866 104 85 76
-0.1022289110881487 0.21948357077629638 -0.41394879909387305 101 80 69
-0.10506005050568208 0.2152994366615928 -0.41611968799771826 102 79 67
-0.10657879265411788 0.21302521246739015 -0.4187347140507138 105 81 67
-0.10925359299794624 0.20906906680638343 -0.4209355016931079 105 79 65
-0.10931241742230206 0.20891930107320306 -0.42405121165302917 104 78 63
-0.10950292289490064 0.20857793462214338 -0.4271207691372401 101 76 63
-0.10906682510691526 0.2091481663260048 -0.43041641326792857 100 77 65
-0.10844068987819142 0.20999478424699064 -0.4337847806382976 104 83 72
-0.09223500046487726 0.2256148184822342 -0.8284792341380951 94 76 68
-0.09715581677865412 0.21842196184611504 -0.828361949603111 91 71 61
-0.09059799980333055 0.22784768222036828 -0.8363364933077639 90 67 55
-0.09284987413350185 0.22451901920643624 -0.8380936733077909 89 65 51
-0.10464748568812185 0.20737203832769685 -0.8330314976876154 92 66 50
-0.10584881402450641 0.20556514991651706 -0.835489604812875 93 66 48
-0.10737777458311556 0.203284130342165 -0.8377065150105197 92 64 50
-0.1004955102131383 0.21317797810176534 -0.8459880815000596 92 63 50
-0.1030301572550116 0.20944115754213483 -0.8474855084300111 91 62 47
-0.10937715220103295 0.20018693669128904 -0.8461950253081433 90 62 43
-0.11659033325050554 0.18961249942633682 -0.8475276233518839 95 64 40
-0.11508604906582835 0.1917220230877773 -0.8519286893446911 97 69 45
-0.11233615444890307 0.1956338328599444 -0.8572610295342423 104 73 51
-0.11478923443514064 0.19201649044654795 -0.8587481857946987 108 77 55
-0.11293824574750116 0.19462721772496488 -0.8634302886296197 105 78 55
-0.1114892555607401 0.196656044103381 -0.8678238264857779 106 82 59
-0.11044742836366434 0.198095569628537 -0.8719213901892511 111 88 70
-0.1060759855520747 0.20435215396228695 -0.8785374079669115 114 95 82
-0.09207021461065143 0.2237154489637826 -0.9330814121556903 131 117 112
-0.09776144011624874 0.21541688293306116 -0.9319481231413288 129 114 107
-0.0958177571820977 0.21815808849669166 -0.9368775180172519 129 113 106
-0.09864559941162027 0.2140002959564693 -0.9379966576519573 124 106 97
-0.09925295354784269 0.21305309310152645 -0.9408862187052451 112 92 82
-0.09956756615897802 0.21252914886982072 -0.9440098944773255 103 81 69
-0.098250012280402 0.21436472536354137 -0.9484553677121275 96 74 60
-0.09817499486472692 0.21440393838120014 -0.9518997844631748 92 69 55
-0.10278574647042457 0.20766978439901396 -0.9515223243691642 90 67 52
-0.1128227697838182 0.19302432175961637 -0.950019402692538 87 64 48
-0.11246948598998371 0.19346647036662218 -0.9536567524827331 86 64 47
-0.11064796831518031 0.19603053886556676 -0.9585131351352691 85 62 46
-0.11558377569596862 0.1886918299985401 -0.9644526884359542 85 62 48
-0.11886387998619316 0.18381528974325567 -0.9683793677531691 84 61 46
-0.12155600984786291 0.1798571249097773 -0.9694404466684893 80 57 42
-0.12280934266601407 0.17797809428178907 -0.9717079939104312 78 55 39
-0.12810677757408334 0.17025634262449413 -0.9705253120486735 77 54 38
-0.16926246914969817 0.10889001325591038 -1.0285929260932767 71 43 20
-0.17882114075569072 0.09503127209066739 -1.0228248381310212 75 45 25
-0.17900284694963248 0.09470353418260727 -1.025857146775272 77 47 26
-0.1791983063074825 0.09435594756541854 -1.0288766863015837 76 49 28
-0.17860718698143063 0.09514320019407946 -1.0326440835922324 79 53 37
-0.17933076545631066 0.09403364202767112 -1.0351627616455785 84 60 45
-0.17623932418352312 0.09842782547913288 -1.0413278125967478 83 61 47
-0.17686716415978543 0.0974562644278209 -1.0439438672013208 82 61 46
-0.1761227534171394 0.09846423996867243 -1.04787845663434 80 59 43
-0.17267603988122315 0.10310521928045481 -1.0673702742321167 79 59 45
-0.16634292361842018 0.11177159391606688 -1.0963983053655013 58 38 27
-0.16934452034097272 0.10737731309398013 -1.096658422793668 59 39 28
-0.17254582159649234 0.10269547468604577 -1.0967009632143514 56 36 25
-0.17887638149322507 0.09350292849528787 -1.093570774084543 56 36 25
-0.17679293715791955 0.09644008174858952 -1.0989113080084918 57 37 26
-0.1832598990933485 0.0870519143425221 -1.0955940887680589 56 36 24
-0.18115312551234708 0.09002265138567572 -1.1009604476100394 57 36 22
-0.17968674656372574 0.09207007690690718 -1.1056876282458545 61 39 24
-0.17931707968352334 0.09253663445009756 -1.109302816547855 71 44 26
-0.18151132673927922 0.0893079884171633 -1.110290067574706 79 52 30
-0.18567368095600362 0.08324326222969416 -1.1092392662166821 83 58 39
-0.18318752269405444 0.08676007632929984 -1.115028966734106 83 58 41
-0.18516610268629735 0.08384277866648913 -1.1162117902511854 84 61 43
-0.18638511537161295 0.0820202036158832 -1.118172791112189 84 61 43
-0.1863757019794774 0.08196778465374924 -1.1214073144144663 84 60 43
-0.18578933822061555 0.0827466246108644 -1.1252460183766653 84 61 43
-0.18687846715565262 0.08104532887041312 -1.130561496240132 84 63 46
-0.1845484160995241 0.08433603767052891 -1.1362458337164747 85 63 45
-0.18189606161690297 0.08809073044650181 -1.1422864807259538 83 61 43
-0.18086863149171545 0.08950432905389706 -1.1466223162200193 75 57 40
-0.17673531908402884 0.09539165599907617 -1.154267642722944 74 60 46
-0.1724585394428328 0.10135083448744889 -1.168653783437544 141 137 131
-0.17439352426850285 0.09849689228144178 -1.1698556543996572 161 159 156
-0.18503380941598863 0.083039863753493 -1.1649058583113767 177 177 177
-0.19231223081468102 0.07249235773544997 -1.1602601059930948 182 181 183
-0.1094240611355962 0.22035156241995446 -0.11985999352960532 107 88 76
-0.11978423894504538 0.20511177948265485 -0.12195972348207247 95 77 63
-0.11784824566115973 0.20788794381613218 -0.12513206621112613 85 66 52
-0.13102594553089472 0.18852193662247457 -0.12689068748890941 80 63 51
-0.13034821524717893 0.18945512951157711 -0.12992371255885338 82 64 52
-0.13244274438899117 0.18632709403047354 -0.13268529897462797 80 61 49
-0.13178082947330358 0.1872370751804616 -0.13571891293472835 81 60 49
-0.12967391235887812 0.1902636150785843 -0.13890897239091 79 60 46
-0.13523864604834346 0.18205280574293964 -0.14128547600146432 76 58 45
-0.12840367140189965 0.1919445076729443 -0.14798311586560509 72 58 51
-0.12729248235018878 0.19351197830704253 -0.15109432927844235 76 66 62
-0.12589264039446785 0.1955020491467699 -0.15424686510226415 85 77 75
-0.12036359713618298 0.20353910634184202 -0.15790801506690727 90 84 83
-0.11407578885021855 0.2126867035922481 -0.16169392177829722 96 88 87
-0.10969395128661118 0.2190425345342159 -0.16527380067643746 99 92 89
-0.10277939463122912 0.22404408151891642 -0.4209881196545384 103 81 69
-0.10327048759914473 0.22326362879318146 -0.423975091297263 103 80 69
-0.10545453325829876 0.2199484405535596 -0.4295138203357159 107 86 77
-0.08426335775881116 0.24279419643172728 -0.8393295523060935 96 75 64
-0.08754782874769687 0.23795496384089632 -0.8403825611161638 94 72 59
-0.10737705669470035 0.20868249108149994 -0.8495615111284577 102 74 53
-0.10790913702609506 0.20784294890244137 -0.8524969685794351 104 73 51
-0.11383616465168828 0.19916924141354875 -0.8514637326069651 107 75 50
-0.11453714054995928 0.19808483758782924 -0.854255215954685 108 79 54
-0.11094391451292623 0.2032357494204568 -0.8602267468151512 109 81 60
-0.10978182594627475 0.20485629598457653 -0.8644117158571643 112 84 64
