ply
format ascii 1.0
element vertex 846
property float x
property float y
property float z
property float nx
property float ny
property float nz
property uchar diffuse_red
property uchar diffuse_green
property uchar diffuse_blue
property uchar class
property uchar detection
end_header
-0.0475 -0.0280 -0.9975 -0.672 -0.719 0.177 65 41 27 0 0
-0.0479 -0.0292 -1.0031 -0.530 -0.788 0.312 49 20 6 0 0
-0.0531 -0.0420 -1.0240 -0.489 -0.865 -0.114 66 35 14 0 0
-0.0513 -0.0393 -1.0640 -0.155 -0.936 -0.317 79 57 43 0 0
-0.0517 -0.0402 -1.0666 -0.627 -0.732 0.266 77 57 43 0 0
-0.0515 -0.0419 -1.1234 -0.424 -0.905 0.040 81 57 39 0 0
-0.0519 -0.0430 -1.1292 -0.429 -0.900 0.079 78 57 40 0 0
-0.0534 -0.0468 -1.1362 -0.558 -0.827 -0.063 72 53 36 0 0
-0.0542 -0.0488 -1.1446 -0.311 -0.915 -0.258 68 50 36 0 0
-0.0181 0.0867 0.0731 -0.613 -0.737 0.284 58 25 8 0 0
-0.0151 0.0935 0.0648 -0.119 -0.970 0.211 49 20 9 0 0
-0.0131 0.0980 0.0593 0.151 -0.988 0.042 48 18 7 0 0
-0.0131 0.0979 0.0564 0.151 -0.988 0.042 49 22 10 0 0
-0.0133 0.0973 0.0535 0.064 -0.983 0.171 101 81 71 0 0
-0.0137 0.0963 0.0506 -0.023 -0.970 0.242 107 91 83 0 0
-0.0140 0.0956 0.0478 -0.023 -0.970 0.242 103 83 76 0 0
-0.0139 0.0957 0.0449 -0.007 -0.995 0.101 102 82 73 0 0
-0.0291 0.0591 0.0213 0.095 -0.967 0.235 92 59 42 0 0
-0.0325 0.0506 0.0099 -0.305 -0.905 0.298 68 33 12 0 0
-0.0214 0.0733 -0.0846 -0.179 -0.938 -0.295 46 22 13 0 0
-0.0210 0.0743 -0.0875 -0.375 -0.920 -0.110 47 24 15 0 0
-0.0203 0.0758 -0.0905 -0.278 -0.960 0.036 38 15 7 0 0
-0.0381 0.0331 -0.1112 -0.917 -0.330 0.225 76 44 31 0 0
-0.0451 0.0159 -0.1355 -0.537 -0.840 -0.075 65 29 10 0 0
-0.0433 0.0197 -0.1472 -0.265 -0.964 0.008 54 30 15 0 0
-0.0431 0.0199 -0.1529 -0.595 -0.792 0.138 58 41 31 0 0
-0.0326 0.0430 -0.1981 -0.185 -0.805 0.563 57 40 32 0 0
-0.0275 0.0544 -0.2169 -0.451 -0.820 -0.353 53 36 29 0 0
-0.0184 0.0735 -0.2786 0.050 -0.992 -0.116 40 23 16 0 0
-0.0119 0.0857 -0.3683 -0.391 -0.887 0.245 20 8 5 0 0
-0.0150 0.0780 -0.3789 -0.061 -0.976 -0.209 47 23 12 0 0
-0.0187 0.0691 -0.3861 -0.710 -0.589 0.386 45 21 13 0 0
-0.0203 0.0650 -0.3913 -0.585 -0.450 0.675 64 36 21 0 0
-0.0325 0.0358 -0.4059 -0.127 -0.652 0.748 86 53 39 0 0
-0.0030 0.1016 -0.5115 0.090 -0.995 -0.050 44 19 12 0 0
-0.0041 0.0984 -0.5295 -0.728 -0.677 0.113 46 22 12 0 0
-0.0031 0.1000 -0.5521 -0.009 -0.984 0.180 46 22 11 0 0
-0.0029 0.1003 -0.5554 -0.111 -0.979 0.173 46 22 10 0 0
-0.0030 0.0998 -0.5584 -0.111 -0.979 0.173 46 22 10 0 0
-0.0027 0.1006 -0.5618 -0.548 -0.776 0.312 46 22 10 0 0
-0.0043 0.0960 -0.5794 -0.733 -0.681 -0.012 51 25 12 0 0
-0.0052 0.0938 -0.5818 -0.769 -0.625 0.133 52 25 12 0 0
-0.0013 0.1019 -0.6131 -0.439 -0.897 0.050 65 34 14 0 0
-0.0029 0.0977 -0.6277 -0.228 -0.959 0.169 76 42 17 0 0
-0.0016 0.0997 -0.6541 -0.269 -0.933 0.239 68 34 9 0 0
-0.0012 0.1003 -0.6704 -0.284 -0.888 0.361 58 27 9 0 0
-0.0122 0.0717 -0.7461 -0.728 -0.388 0.565 52 20 5 0 0
-0.0138 0.0676 -0.7508 -0.506 -0.846 0.168 55 22 7 0 0
-0.0139 0.0672 -0.7539 -0.549 -0.793 0.264 55 22 6 0 0
-0.0148 0.0648 -0.7625 -0.414 -0.900 0.139 63 30 11 0 0
-0.0153 0.0637 -0.7652 -0.484 -0.795 0.367 64 31 12 0 0
-0.0157 0.0626 -0.7680 -0.484 -0.795 0.367 62 29 10 0 0
-0.0255 0.0377 -0.8209 -0.270 -0.914 0.303 63 28 9 0 0
-0.0259 0.0366 -0.8236 -0.304 -0.927 0.219 62 27 8 0 0
-0.0264 0.0355 -0.8262 -0.309 -0.895 0.322 66 29 11 0 0
-0.0262 0.0358 -0.8296 -0.521 -0.842 0.139 66 29 11 0 0
-0.0307 0.0243 -0.8497 -0.210 -0.975 -0.069 81 40 13 0 0
-0.0311 0.0231 -0.8618 -0.299 -0.951 0.076 84 51 26 0 0
-0.0315 0.0220 -0.8645 -0.007 -0.993 0.122 86 54 30 0 0
-0.0277 0.0298 -0.8941 -0.286 -0.957 -0.047 65 40 27 0 0
-0.0276 0.0299 -0.8974 -0.286 -0.957 -0.047 60 37 23 0 0
-0.0276 0.0284 -0.9451 -0.278 -0.958 0.068 59 30 13 0 0
-0.0282 0.0268 -0.9475 -0.318 -0.770 0.553 60 31 14 0 0
-0.0302 0.0218 -0.9578 -0.836 -0.547 -0.052 71 49 34 0 0
-0.0401 -0.0020 -0.9703 -0.271 -0.952 -0.140 107 92 85 0 0
-0.0569 -0.0440 -1.0413 -0.789 -0.603 0.118 79 57 40 0 0
-0.0575 -0.0456 -1.0434 -0.493 -0.869 -0.039 79 58 41 0 0
-0.0568 -0.0441 -1.0476 -0.684 -0.677 0.272 79 58 41 0 0
-0.0535 -0.0378 -1.0868 -0.400 -0.891 0.212 32 17 10 0 0
-0.0538 -0.0384 -1.0896 -0.399 -0.841 0.366 33 17 10 0 0
-0.0540 -0.0390 -1.0925 -0.466 -0.703 0.537 39 22 15 0 0
-0.0546 -0.0408 -1.1009 -0.732 -0.654 -0.192 46 24 15 0 0
-0.0540 -0.0397 -1.1081 -0.456 -0.887 0.071 61 31 16 0 0
-0.0537 -0.0389 -1.1118 -0.381 -0.893 0.238 70 39 18 0 0
-0.0539 -0.0396 -1.1146 -0.381 -0.893 0.238 76 49 25 0 0
-0.0540 -0.0398 -1.1176 -0.332 -0.943 0.021 84 58 37 0 0
-0.0540 -0.0400 -1.1208 -0.265 -0.964 0.034 85 60 44 0 0
-0.0559 -0.0450 -1.1368 -0.626 -0.753 -0.202 72 53 38 0 0
-0.0211 0.0869 0.0702 -0.490 -0.855 0.170 59 24 10 0 0
-0.0163 0.0978 0.0564 -0.023 -0.970 0.242 64 42 29 0 0
-0.0166 0.0971 0.0535 -0.023 -0.970 0.242 118 106 95 0 0
-0.0171 0.0956 0.0477 -0.023 -0.970 0.242 106 88 81 0 0
-0.0318 0.0600 0.0212 -0.058 -0.989 0.134 87 56 38 0 0
-0.0334 0.0561 0.0184 -0.326 -0.826 0.459 71 35 14 0 0
-0.0279 0.0670 -0.0412 -0.528 -0.815 0.240 16 10 7 0 0
-0.0228 0.0777 -0.0761 -0.129 -0.991 0.036 41 26 21 0 0
-0.0228 0.0776 -0.0789 -0.129 -0.991 0.036 55 37 30 0 0
-0.0229 0.0773 -0.0818 -0.149 -0.986 0.079 53 34 26 0 0
-0.0236 0.0757 -0.0847 -0.389 -0.885 -0.257 48 26 16 0 0
-0.0237 0.0754 -0.0875 -0.375 -0.920 -0.110 47 24 15 0 0
-0.0420 0.0310 -0.1195 -0.151 -0.987 -0.053 143 120 110 0 0
-0.0428 0.0289 -0.1251 -0.161 -0.897 0.412 99 65 48 0 0
-0.0475 0.0174 -0.1356 -0.489 -0.866 -0.105 68 32 12 0 0
-0.0461 0.0205 -0.1415 -0.347 -0.931 0.111 57 25 9 0 0
-0.0460 0.0203 -0.1528 -0.443 -0.839 0.317 57 40 30 0 0
-0.0111 0.0955 -0.3640 -0.648 -0.648 0.401 24 13 9 0 0
-0.0203 0.0729 -0.3867 -0.335 -0.831 0.445 44 19 12 0 0
-0.0252 0.0609 -0.3963 -0.074 -0.570 0.818 63 30 15 0 0
-0.0066 0.1022 -0.4738 -0.797 -0.554 0.241 42 22 11 0 0
-0.0059 0.1023 -0.5178 -0.023 -1.000 -0.014 47 23 12 0 0
-0.0034 0.1080 -0.5257 0.260 -0.941 0.217 45 21 11 0 0
-0.0066 0.1004 -0.5267 -0.635 -0.772 0.008 46 22 12 0 0
-0.0051 0.1034 -0.5401 -0.254 -0.827 0.501 47 23 11 0 0
-0.0055 0.1025 -0.5430 -0.332 -0.890 0.312 47 23 11 0 0
-0.0056 0.1022 -0.5461 -0.418 -0.908 -0.035 48 24 12 0 0
-0.0064 0.1002 -0.5487 -0.366 -0.926 -0.088 49 25 13 0 0
-0.0055 0.1021 -0.5524 -0.476 -0.879 0.012 48 24 12 0 0
-0.0059 0.1011 -0.5553 -0.222 -0.943 0.249 47 23 11 0 0
-0.0061 0.1005 -0.5583 -0.452 -0.856 0.250 48 24 12 0 0
-0.0066 0.0989 -0.5704 -0.559 -0.784 0.270 46 22 11 0 0
-0.0062 0.0984 -0.6084 -0.586 -0.796 -0.151 60 29 11 0 0
-0.0053 0.0988 -0.6598 -0.184 -0.972 -0.148 56 25 8 0 0
-0.0059 0.0972 -0.6624 -0.135 -0.947 0.290 56 24 10 0 0
-0.0155 0.0712 -0.7551 -0.782 -0.587 0.208 56 23 7 0 0
-0.0199 0.0597 -0.7920 -0.538 -0.843 -0.018 61 26 10 0 0
-0.0288 0.0372 -0.8298 -0.440 -0.880 0.178 67 30 12 0 0
-0.0291 0.0365 -0.8326 -0.358 -0.933 0.017 66 29 11 0 0
-0.0340 0.0242 -0.8555 -0.166 -0.953 0.255 87 50 24 0 0
-0.0339 0.0240 -0.8618 -0.205 -0.978 -0.030 87 54 28 0 0
-0.0338 0.0238 -0.8809 -0.216 -0.976 -0.015 68 42 29 0 0
-0.0315 0.0270 -0.9438 -0.444 -0.879 0.175 59 30 14 0 0
-0.0323 0.0245 -0.9555 -0.096 -0.861 -0.500 67 39 21 0 0
-0.0580 -0.0385 -1.0249 -0.715 -0.689 0.119 64 33 13 0 0
-0.0574 -0.0372 -1.0321 -0.449 -0.893 0.013 75 46 25 0 0
-0.0576 -0.0378 -1.0349 -0.351 -0.854 0.385 77 51 30 0 0
-0.0604 -0.0448 -1.0433 -0.261 -0.960 0.104 80 59 42 0 0
-0.0603 -0.0448 -1.0497 -0.371 -0.920 0.130 82 61 44 0 0
-0.0602 -0.0448 -1.0528 -0.269 -0.961 -0.062 81 60 43 0 0
-0.0602 -0.0449 -1.0560 -0.319 -0.943 0.091 80 58 42 0 0
-0.0557 -0.0347 -1.0688 -0.233 -0.972 0.010 78 57 43 0 0
-0.0563 -0.0366 -1.0869 -0.400 -0.891 0.212 33 18 11 0 0
-0.0567 -0.0376 -1.0894 -0.257 -0.849 0.462 35 18 11 0 0
-0.0571 -0.0388 -1.0919 -0.295 -0.662 0.689 38 21 14 0 0
-0.0565 -0.0376 -1.0991 -0.558 -0.820 -0.126 43 22 17 0 0
-0.0565 -0.0377 -1.1023 -0.668 -0.736 0.109 47 24 16 0 0
-0.0566 -0.0380 -1.1053 -0.668 -0.736 0.109 54 27 14 0 0
-0.0567 -0.0383 -1.1083 -0.456 -0.887 0.071 63 32 17 0 0
-0.0568 -0.0388 -1.1112 -0.356 -0.923 0.144 70 40 19 0 0
-0.0570 -0.0392 -1.1142 -0.356 -0.923 0.144 75 48 24 0 0
-0.0570 -0.0395 -1.1204 -0.207 -0.978 -0.013 86 62 45 0 0
-0.0591 -0.0447 -1.1298 -0.405 -0.878 0.254 78 58 39 0 0
-0.0590 -0.0446 -1.1331 -0.476 -0.868 -0.144 73 54 36 0 0
0.0112 0.1729 0.1242 -0.667 -0.135 0.733 184 184 186 0 0
-0.0235 0.0888 0.0730 -0.408 -0.806 0.428 63 30 11 0 0
-0.0200 0.0964 0.0505 -0.023 -0.970 0.242 113 100 92 0 0
-0.0200 0.0963 0.0476 -0.120 -0.968 0.221 108 90 83 0 0
-0.0351 0.0596 0.0212 -0.230 -0.970 -0.072 85 55 38 0 0
-0.0377 0.0531 0.0155 -0.386 -0.920 0.073 65 31 12 0 0
-0.0377 0.0531 0.0127 -0.510 -0.858 -0.059 62 30 9 0 0
-0.0372 0.0541 0.0099 -0.526 -0.845 -0.098 60 28 8 0 0
-0.0369 0.0543 -0.0042 -0.105 -0.979 0.175 51 24 9 0 0
-0.0363 0.0557 -0.0070 -0.082 -0.997 -0.003 46 23 9 0 0
-0.0327 0.0637 -0.0184 -0.257 -0.966 -0.024 42 21 14 0 0
-0.0256 0.0787 -0.0761 -0.192 -0.959 0.207 41 27 22 0 0
-0.0258 0.0781 -0.0790 -0.192 -0.959 0.207 56 40 33 0 0
-0.0260 0.0775 -0.0818 -0.192 -0.959 0.207 53 35 26 0 0
-0.0263 0.0768 -0.0847 -0.127 -0.962 0.243 47 27 16 0 0
-0.0456 0.0295 -0.1251 -0.279 -0.895 0.349 95 62 46 0 0
-0.0496 0.0196 -0.1385 -0.486 -0.863 0.141 61 28 13 0 0
-0.0250 0.0737 -0.2664 -0.458 -0.740 0.493 46 29 22 0 0
-0.0253 0.0727 -0.2693 -0.463 -0.818 0.342 44 27 20 0 0
-0.0261 0.0707 -0.2720 -0.451 -0.585 0.674 44 27 20 0 0
-0.0267 0.0676 -0.3192 -0.207 -0.953 -0.221 57 28 12 0 0
-0.0280 0.0619 -0.3963 -0.106 -0.414 0.904 62 31 17 0 0
-0.0424 0.0270 -0.4183 -0.073 -0.843 0.533 70 34 11 0 0
-0.0113 0.0991 -0.4696 -0.925 -0.103 -0.365 44 25 12 0 0
-0.0083 0.1056 -0.4869 -0.790 -0.518 0.326 46 24 13 0 0
-0.0090 0.1032 -0.5114 -0.008 -0.995 0.104 47 23 11 0 0
-0.0091 0.1024 -0.5206 -0.023 -1.000 -0.014 47 23 12 0 0
-0.0096 0.1011 -0.5266 -0.873 -0.485 -0.057 46 22 12 0 0
-0.0081 0.1042 -0.5401 -0.638 -0.755 0.152 47 23 11 0 0
-0.0086 0.1030 -0.5429 -0.350 -0.935 0.052 47 23 11 0 0
-0.0085 0.1022 -0.5711 -0.821 -0.558 0.118 49 25 12 0 0
-0.0082 0.1028 -0.5745 -0.497 -0.867 -0.036 49 26 12 0 0
-0.0078 0.1002 -0.6760 -0.419 -0.854 0.308 54 22 8 0 0
-0.0175 0.0756 -0.7244 -0.212 -0.953 -0.219 56 27 11 0 0
-0.0171 0.0764 -0.7279 -0.139 -0.962 -0.235 55 26 10 0 0
-0.0191 0.0707 -0.7544 -0.066 -0.764 0.642 57 24 8 0 0
-0.0330 0.0327 -0.8978 0.330 -0.928 0.174 59 36 22 0 0
-0.0457 0.0001 -0.9703 -0.198 -0.955 -0.220 108 93 86 0 0
-0.0554 -0.0239 -1.0012 -0.533 -0.751 0.391 54 27 13 0 0
-0.0558 -0.0250 -1.0038 -0.572 -0.684 0.453 52 24 10 0 0
-0.0589 -0.0326 -1.0151 -0.527 -0.766 0.369 56 27 13 0 0
-0.0627 -0.0426 -1.0440 -0.166 -0.962 0.218 79 58 41 0 0
-0.0595 -0.0360 -1.0673 -0.424 -0.870 -0.250 79 58 44 0 0
-0.0600 -0.0380 -1.0917 -0.028 -0.735 0.678 38 21 14 0 0
-0.0590 -0.0359 -1.0995 -0.714 -0.696 -0.079 42 21 16 0 0
-0.0589 -0.0356 -1.1029 -0.668 -0.736 0.109 47 24 15 0 0
-0.0592 -0.0366 -1.1087 -0.246 -0.939 0.241 65 35 19 0 0
-0.0599 -0.0386 -1.1171 -0.056 -0.998 -0.015 81 55 34 0 0
-0.0599 -0.0386 -1.1203 -0.056 -0.998 -0.015 83 59 40 0 0
-0.0599 -0.0389 -1.1233 -0.084 -0.996 0.020 84 61 43 0 0
-0.0616 -0.0432 -1.1334 -0.476 -0.868 -0.144 74 55 37 0 0
-0.0603 -0.0404 -1.1417 -0.560 -0.756 -0.338 71 52 37 0 0
0.0030 0.1606 0.1115 -0.826 -0.473 -0.306 127 104 90 0 0
-0.0182 0.1095 0.0882 -0.556 -0.788 0.264 120 95 81 0 0
-0.0226 0.0979 0.0562 -0.031 -0.987 0.158 52 24 12 0 0
-0.0227 0.0974 0.0533 -0.031 -0.987 0.158 68 46 35 0 0
-0.0227 0.0973 0.0505 -0.120 -0.968 0.221 92 75 67 0 0
-0.0230 0.0967 0.0476 -0.120 -0.968 0.221 98 77 70 0 0
-0.0385 0.0580 -0.0042 -0.366 -0.903 0.225 52 25 11 0 0
-0.0353 0.0650 -0.0213 0.135 -0.977 -0.165 44 27 20 0 0
-0.0326 0.0708 -0.0413 -0.795 -0.604 -0.052 16 10 7 0 0
-0.0228 0.0934 -0.0650 -0.251 -0.620 0.744 6 5 3 0 0
-0.0279 0.0804 -0.0848 -0.562 -0.785 -0.260 46 26 15 0 0
-0.0467 0.0345 -0.1169 -0.368 -0.867 0.337 126 102 92 0 0
-0.0471 0.0336 -0.1196 -0.368 -0.889 0.272 129 107 97 0 0
-0.0475 0.0326 -0.1224 -0.275 -0.913 0.301 124 99 89 0 0
-0.0484 0.0303 -0.1251 -0.371 -0.884 0.283 98 64 51 0 0
-0.0521 0.0210 -0.1386 -0.486 -0.863 0.141 62 30 12 0 0
-0.0522 0.0206 -0.1442 -0.359 -0.933 0.002 59 29 12 0 0
-0.0524 0.0201 -0.1470 -0.364 -0.924 0.114 60 35 21 0 0
-0.0267 0.0771 -0.2698 -0.525 -0.806 0.273 45 28 21 0 0
-0.0269 0.0763 -0.2727 -0.525 -0.806 0.273 46 29 22 0 0
-0.0286 0.0723 -0.2750 -0.436 -0.586 0.683 48 31 24 0 0
-0.0270 0.0756 -0.2905 -0.523 -0.844 -0.115 42 25 18 0 0
-0.0209 0.0883 -0.3439 -0.367 -0.927 0.071 24 13 10 0 0
-0.0211 0.0878 -0.3468 -0.419 -0.907 0.028 36 22 20 0 0
-0.0197 0.0909 -0.3505 -0.589 -0.808 0.014 30 15 13 0 0
-0.0196 0.0912 -0.3536 -0.559 -0.829 -0.002 28 15 12 0 0
-0.0196 0.0909 -0.3566 -0.404 -0.908 -0.109 25 14 10 0 0
-0.0309 0.0626 -0.3962 -0.168 -0.388 0.906 59 30 16 0 0
-0.0446 0.0295 -0.4157 -0.172 -0.830 0.531 73 35 12 0 0
-0.0429 0.0327 -0.4404 -0.460 -0.739 -0.491 78 53 37 0 0
-0.0117 0.1055 -0.4804 0.025 -0.997 -0.072 46 25 14 0 0
-0.0103 0.1078 -0.5124 -0.461 -0.767 0.447 47 24 12 0 0
-0.0104 0.1075 -0.5155 -0.288 -0.938 0.192 48 25 13 0 0
-0.0105 0.1070 -0.5248 -0.271 -0.885 -0.378 48 25 14 0 0
-0.0127 0.1016 -0.5264 -0.534 -0.820 -0.208 48 25 14 0 0
-0.0120 0.1031 -0.5300 -0.287 -0.956 -0.055 47 24 13 0 0
-0.0102 0.1074 -0.5344 -0.614 -0.783 -0.103 46 23 12 0 0
-0.0108 0.1059 -0.5371 0.042 -0.999 -0.026 46 23 12 0 0
-0.0092 0.1057 -0.6551 -0.341 -0.932 0.121 73 38 15 0 0
-0.0107 0.1014 -0.6760 -0.227 -0.972 -0.065 54 23 7 0 0
-0.0172 0.0846 -0.7147 -0.446 -0.843 0.302 54 25 9 0 0
-0.0181 0.0817 -0.7328 -0.236 -0.956 -0.173 55 24 9 0 0
-0.0306 0.0494 -0.8088 -0.447 -0.857 0.259 59 26 7 0 0
-0.0311 0.0481 -0.8115 -0.362 -0.857 0.366 59 27 8 0 0
-0.0347 0.0393 -0.8202 0.078 -0.896 0.436 61 26 8 0 0
-0.0396 0.0268 -0.8430 -0.126 -0.930 0.346 78 38 12 0 0
-0.0568 -0.0194 -0.9969 -0.388 -0.811 0.437 70 49 37 0 0
-0.0650 -0.0398 -1.0228 -0.523 -0.822 0.223 64 33 13 0 0
-0.0645 -0.0391 -1.0360 -0.160 -0.953 0.258 81 56 38 0 0
-0.0557 -0.0199 -1.0898 -0.306 -0.940 0.151 50 32 26 0 0
-0.0630 -0.0384 -1.1197 -0.056 -0.998 -0.015 86 63 44 0 0
-0.0631 -0.0387 -1.1228 -0.082 -0.997 0.008 86 64 45 0 0
-0.0659 -0.0455 -1.1247 -0.315 -0.942 -0.112 85 62 46 0 0
-0.0627 -0.0385 -1.1423 -0.262 -0.878 -0.400 74 54 39 0 0
0.0009 0.1635 0.1116 -0.430 -0.803 -0.412 129 106 92 0 0
-0.0383 0.0653 -0.0213 -0.417 -0.903 -0.105 43 28 20 0 0
-0.0240 0.0979 -0.0651 -0.507 -0.500 0.702 6 5 3 0 0
-0.0314 0.0795 -0.0848 -0.706 -0.709 -0.005 52 31 22 0 0
-0.0326 0.0765 -0.0904 -0.509 -0.847 0.154 38 18 11 0 0
-0.0324 0.0768 -0.0933 -0.296 -0.847 0.442 36 15 9 0 0
-0.0497 0.0348 -0.1168 -0.541 -0.796 0.272 124 100 90 0 0
-0.0499 0.0341 -0.1196 -0.668 -0.734 0.122 134 113 104 0 0
-0.0510 0.0314 -0.1251 -0.541 -0.841 -0.016 106 73 60 0 0
-0.0497 0.0331 -0.1680 -0.900 -0.419 -0.119 58 41 34 0 0
-0.0291 0.0793 -0.2581 -0.871 -0.166 0.462 46 32 23 0 0
-0.0264 0.0845 -0.2977 -0.236 -0.884 -0.404 39 22 15 0 0
-0.0228 0.0914 -0.3443 -0.384 -0.863 0.327 24 13 9 0 0
-0.0237 0.0891 -0.3469 -0.346 -0.921 0.178 37 22 19 0 0
-0.0215 0.0943 -0.3509 -0.405 -0.905 0.133 32 17 14 0 0
-0.0216 0.0941 -0.3540 -0.195 -0.952 0.234 31 17 14 0 0
-0.0283 0.0769 -0.3870 -0.318 -0.864 0.391 45 19 11 0 0
-0.0471 0.0311 -0.4158 -0.517 -0.784 0.344 71 31 11 0 0
-0.0188 0.0969 -0.4654 0.201 -0.711 -0.674 63 44 30 0 0
-0.0149 0.1057 -0.4802 -0.290 -0.957 -0.022 46 24 13 0 0
-0.0110 0.1149 -0.4889 -0.470 -0.876 -0.107 46 24 13 0 0
-0.0152 0.1044 -0.5018 -0.821 -0.563 0.093 46 24 13 0 0
-0.0153 0.1040 -0.5048 -0.821 -0.563 0.093 47 25 14 0 0
-0.0131 0.1090 -0.5156 -0.099 -0.995 0.012 48 26 13 0 0
-0.0128 0.1074 -0.5849 -0.672 -0.700 0.241 55 29 15 0 0
-0.0199 0.0860 -0.7148 -0.446 -0.843 0.302 55 26 10 0 0
-0.0379 0.0395 -0.8198 -0.469 -0.842 0.266 64 31 11 0 0
-0.0389 0.0342 -0.9007 -0.781 -0.625 -0.028 54 30 18 0 0
-0.0389 0.0335 -0.9261 -0.649 -0.752 0.117 70 43 29 0 0
-0.0398 0.0304 -0.9569 -0.499 -0.817 -0.288 67 39 24 0 0
-0.0393 0.0314 -0.9607 -0.499 -0.817 -0.288 80 57 43 0 0
-0.0580 -0.0150 -1.0085 -0.106 -0.956 0.272 53 24 10 0 0
-0.0682 -0.0396 -1.0128 -0.477 -0.784 0.398 56 27 11 0 0
-0.0686 -0.0406 -1.0154 -0.477 -0.784 0.398 58 29 11 0 0
-0.0673 -0.0376 -1.0204 -0.487 -0.786 0.381 59 30 12 0 0
-0.0673 -0.0378 -1.0234 -0.493 -0.862 0.116 63 32 13 0 0
-0.0675 -0.0382 -1.0264 -0.396 -0.893 0.215 66 35 14 0 0
-0.0634 -0.0310 -1.1013 -0.556 -0.686 0.470 43 25 17 0 0
-0.0425 0.0632 -0.0015 -0.602 -0.734 0.313 45 21 8 0 0
-0.0411 0.0660 -0.0213 -0.324 -0.916 0.237 42 27 19 0 0
-0.0270 0.0984 -0.0651 -0.433 -0.605 0.668 6 5 3 0 0
-0.0343 0.0803 -0.0848 -0.587 -0.761 0.276 44 24 16 0 0
-0.0351 0.0780 -0.0905 -0.509 -0.847 0.154 42 21 15 0 0
-0.0437 0.0569 -0.1067 0.247 -0.795 0.554 63 35 26 0 0
-0.0534 0.0329 -0.1252 -0.541 -0.841 -0.016 96 66 52 0 0
-0.0513 0.0366 -0.1683 -0.880 -0.470 0.065 58 41 34 0 0
-0.0517 0.0357 -0.1710 -0.757 -0.649 -0.078 57 40 33 0 0
-0.0336 0.0762 -0.2575 -0.586 -0.056 0.809 47 33 24 0 0
-0.0275 0.0895 -0.3014 -0.439 -0.845 0.307 35 18 11 0 0
-0.0216 0.1014 -0.3674 -0.561 -0.817 -0.131 26 13 10 0 0
-0.0215 0.1015 -0.3705 -0.420 -0.821 0.386 22 12 9 0 0
-0.0179 0.1066 -0.4801 -0.290 -0.957 -0.022 45 23 12 0 0
-0.0140 0.1157 -0.4888 -0.304 -0.942 -0.144 46 24 13 0 0
-0.0162 0.1098 -0.5030 -0.336 -0.910 0.244 46 24 13 0 0
-0.0166 0.1071 -0.5622 -0.402 -0.862 0.309 51 28 14 0 0
-0.0159 0.1060 -0.6416 -0.233 -0.934 0.270 71 36 14 0 0
-0.0394 0.0435 -0.8243 -0.676 -0.692 0.253 71 38 16 0 0
-0.0397 0.0427 -0.8272 -0.676 -0.692 0.253 71 36 16 0 0
-0.0395 0.0429 -0.8337 -0.462 -0.884 -0.073 71 34 13 0 0
-0.0410 0.0371 -0.9016 -0.665 -0.747 0.016 54 31 18 0 0
-0.0426 0.0315 -0.9569 -0.274 -0.953 0.128 67 40 25 0 0
-0.0537 0.0042 -0.9773 -0.403 -0.866 0.295 105 91 82 0 0
-0.0626 -0.0178 -0.9966 0.003 -0.994 0.113 70 48 36 0 0
-0.0614 -0.0153 -1.0076 -0.473 -0.870 0.135 55 26 12 0 0
-0.0708 -0.0381 -1.0131 -0.477 -0.784 0.398 56 27 11 0 0
-0.0701 -0.0368 -1.0266 -0.581 -0.771 0.260 65 34 13 0 0
-0.0694 -0.0359 -1.0462 -0.605 -0.796 0.010 77 56 39 0 0
-0.0682 -0.0353 -1.1139 -0.402 -0.906 -0.129 77 49 27 0 0
-0.0686 -0.0366 -1.1260 -0.492 -0.823 0.284 83 60 44 0 0
-0.0183 0.1324 0.1008 -0.902 -0.425 -0.077 120 93 81 0 0
-0.0447 0.0656 0.0042 -0.383 -0.883 0.270 49 22 10 0 0
-0.0449 0.0651 0.0013 -0.367 -0.917 0.159 46 20 8 0 0
-0.0451 0.0644 -0.0043 -0.390 -0.918 0.072 43 20 9 0 0
-0.0446 0.0653 -0.0100 -0.445 -0.893 0.064 38 15 8 0 0
-0.0433 0.0685 -0.0128 -0.057 -0.997 0.044 37 14 7 0 0
-0.0447 0.0651 -0.0157 -0.541 -0.835 0.100 38 16 7 0 0
-0.0437 0.0673 -0.0214 -0.375 -0.915 0.146 41 26 18 0 0
-0.0288 0.1017 -0.0652 -0.353 -0.518 0.780 7 6 4 0 0
-0.0367 0.0821 -0.0849 -0.587 -0.761 0.276 42 23 16 0 0
-0.0367 0.0819 -0.0877 -0.345 -0.831 0.437 42 22 14 0 0
-0.0384 0.0776 -0.0962 -0.226 -0.870 0.438 43 22 14 0 0
-0.0459 0.0591 -0.1068 -0.450 -0.442 0.776 58 31 23 0 0
-0.0546 0.0379 -0.1170 -0.474 -0.826 0.304 115 94 85 0 0
-0.0549 0.0370 -0.1197 -0.458 -0.848 0.266 122 104 99 0 0
-0.0552 0.0362 -0.1225 -0.406 -0.818 0.407 114 92 85 0 0
-0.0559 0.0343 -0.1252 -0.408 -0.910 0.079 88 61 45 0 0
-0.0590 0.0266 -0.1389 -0.405 -0.884 0.233 54 25 9 0 0
-0.0590 0.0263 -0.1417 -0.453 -0.880 0.139 52 24 9 0 0
-0.0579 0.0284 -0.1589 0.200 -0.939 -0.279 57 39 35 0 0
-0.0342 0.0814 -0.2910 -0.308 -0.939 -0.151 42 25 18 0 0
-0.0274 0.0957 -0.3569 -0.539 -0.818 -0.201 23 13 9 0 0
-0.0245 0.1025 -0.3613 -0.437 -0.874 -0.211 25 15 10 0 0
-0.0377 0.0694 -0.4001 0.114 -0.588 0.801 54 26 14 0 0
-0.0508 0.0373 -0.4168 -0.736 -0.575 0.358 73 35 14 0 0
-0.0228 0.1032 -0.4696 -0.249 -0.533 -0.809 49 29 17 0 0
-0.0160 0.1193 -0.4769 -0.845 -0.332 0.419 48 28 17 0 0
-0.0193 0.1084 -0.5623 -0.402 -0.862 0.309 52 29 15 0 0
-0.0180 0.1107 -0.5916 -0.548 -0.823 -0.149 57 29 15 0 0
-0.0173 0.1119 -0.6048 -0.168 -0.968 -0.184 55 27 13 0 0
-0.0155 0.1157 -0.6189 -0.713 -0.694 0.099 60 29 12 0 0
-0.0153 0.1162 -0.6222 -0.612 -0.780 -0.130 61 29 11 0 0
-0.0193 0.1056 -0.6539 -0.107 -0.963 0.246 72 37 15 0 0
-0.0195 0.1049 -0.6569 -0.107 -0.963 0.246 69 36 13 0 0
-0.0234 0.0946 -0.6820 -0.768 -0.627 0.134 58 26 11 0 0
-0.0413 0.0470 -0.8191 -0.630 -0.748 0.208 68 36 14 0 0
-0.0415 0.0464 -0.8220 -0.630 -0.748 0.208 69 37 14 0 0
-0.0418 0.0458 -0.8249 -0.630 -0.748 0.208 71 39 16 0 0
-0.0425 0.0439 -0.8273 -0.575 -0.804 0.151 69 36 15 0 0
-0.0425 0.0439 -0.8304 -0.607 -0.689 0.396 68 33 13 0 0
-0.0430 0.0424 -0.8330 -0.599 -0.784 0.164 70 34 13 0 0
-0.0446 0.0356 -0.9262 -0.064 -0.993 0.104 70 43 29 0 0
-0.0464 0.0305 -0.9493 -0.599 -0.795 0.096 57 28 11 0 0
-0.0570 0.0041 -0.9766 -0.271 -0.833 0.482 105 89 81 0 0
-0.0572 0.0034 -0.9794 -0.319 -0.903 0.288 110 95 87 0 0
-0.0594 -0.0020 -0.9828 -0.141 -0.835 0.532 107 93 83 0 0
-0.0600 -0.0035 -0.9851 -0.227 -0.756 0.614 103 89 80 0 0
-0.0645 -0.0146 -0.9946 -0.259 -0.960 -0.107 76 58 48 0 0
-0.0739 -0.0388 -1.0406 -0.594 -0.727 0.345 79 57 41 0 0
-0.0721 -0.0346 -1.0464 -0.302 -0.952 -0.045 77 56 39 0 0
-0.0689 -0.0288 -1.1014 -0.226 -0.814 0.535 46 28 21 0 0
-0.0710 -0.0341 -1.1140 -0.402 -0.906 -0.129 76 48 27 0 0
-0.0704 -0.0332 -1.1275 -0.241 -0.960 0.145 82 59 43 0 0
0.0024 0.1909 0.1190 -0.452 -0.019 0.892 183 183 182 0 0
-0.0196 0.1371 0.1009 -0.510 -0.606 0.611 117 88 77 0 0
-0.0209 0.1338 0.0978 -0.254 -0.965 0.071 125 97 85 0 0
-0.0317 0.1066 0.0677 -0.280 -0.721 0.634 57 25 9 0 0
-0.0451 0.0716 -0.0129 0.021 -0.955 -0.295 34 15 6 0 0
-0.0436 0.0749 -0.0243 -0.560 -0.827 0.048 44 26 21 0 0
-0.0303 0.1059 -0.0654 -0.323 -0.562 0.761 8 7 5 0 0
-0.0391 0.0838 -0.0849 -0.654 -0.661 0.368 46 25 18 0 0
-0.0396 0.0826 -0.0878 -0.510 -0.723 0.466 44 23 15 0 0
-0.0509 0.0546 -0.1065 -0.218 -0.565 0.796 59 33 23 0 0
-0.0571 0.0390 -0.1198 -0.404 -0.840 0.361 117 98 91 0 0
-0.0584 0.0357 -0.1253 -0.442 -0.894 0.081 83 57 43 0 0
-0.0619 0.0269 -0.1417 -0.144 -0.970 0.197 47 21 8 0 0
-0.0601 0.0311 -0.1448 -0.334 -0.922 0.198 50 24 10 0 0
-0.0616 0.0273 -0.1474 -0.047 -0.936 0.348 51 28 17 0 0
-0.0613 0.0276 -0.1588 0.200 -0.939 -0.279 57 40 33 0 0
-0.0391 0.0777 -0.2813 -0.674 -0.737 0.052 48 31 24 0 0
-0.0362 0.0834 -0.3182 -0.188 -0.957 0.220 59 28 14 0 0
-0.0395 0.0751 -0.3317 -0.079 -0.995 0.060 58 33 24 0 0
-0.0398 0.0742 -0.3345 0.037 -0.987 -0.160 41 22 16 0 0
-0.0301 0.0968 -0.3570 -0.694 -0.711 0.109 22 11 8 0 0
-0.0306 0.0957 -0.3598 -0.515 -0.847 -0.134 20 10 6 0 0
-0.0306 0.0956 -0.3628 -0.666 -0.639 0.386 21 10 6 0 0
-0.0408 0.0696 -0.4000 -0.037 -0.590 0.807 53 27 14 0 0
-0.0181 0.1222 -0.4774 -0.426 -0.759 0.491 49 27 16 0 0
-0.0190 0.1200 -0.4800 -0.730 -0.559 0.394 48 27 16 0 0
-0.0188 0.1191 -0.5208 0.181 -0.937 -0.297 51 29 16 0 0
-0.0195 0.1169 -0.5391 -0.841 -0.541 -0.005 52 30 17 0 0
-0.0195 0.1167 -0.5454 -0.483 -0.871 -0.096 56 34 21 0 0
-0.0201 0.1152 -0.5481 -0.679 -0.708 -0.194 59 35 23 0 0
-0.0177 0.1185 -0.6195 -0.744 -0.626 0.234 64 33 14 0 0
-0.0180 0.1178 -0.6256 -0.656 -0.754 -0.022 67 35 15 0 0
-0.0190 0.1151 -0.6280 -0.466 -0.881 0.083 69 37 16 0 0
-0.0240 0.1013 -0.6841 -0.918 -0.395 0.040 58 27 10 0 0
-0.0289 0.0881 -0.7208 -0.199 -0.966 0.165 56 27 11 0 0
-0.0264 0.0937 -0.7360 -0.203 -0.893 0.402 56 24 9 0 0
-0.0270 0.0919 -0.7482 -0.051 -0.989 0.137 55 23 8 0 0
-0.0457 0.0414 -0.9124 -0.482 -0.863 0.152 56 33 19 0 0
-0.0468 0.0384 -0.9238 -0.628 -0.775 0.072 70 44 28 0 0
-0.0746 -0.0330 -1.0499 -0.602 -0.740 0.300 77 56 41 0 0
-0.0759 -0.0369 -1.0666 -0.534 -0.836 0.125 75 56 42 0 0
-0.0753 -0.0354 -1.0707 -0.549 -0.820 -0.162 68 51 40 0 0
-0.0728 -0.0307 -1.1092 -0.507 -0.859 0.063 58 29 15 0 0
-0.0731 -0.0315 -1.1119 -0.439 -0.891 0.116 67 36 16 0 0
-0.0730 -0.0314 -1.1152 -0.312 -0.939 -0.146 76 47 26 0 0
-0.0503 0.0669 -0.0044 -0.080 -0.996 -0.045 42 18 6 0 0
-0.0336 0.1055 -0.0653 -0.719 -0.498 0.485 10 9 7 0 0
-0.0520 0.0595 -0.1067 -0.450 -0.849 0.276 60 37 26 0 0
-0.0594 0.0410 -0.1199 -0.325 -0.789 0.521 116 98 90 0 0
-0.0637 0.0298 -0.1390 -0.358 -0.933 0.044 46 20 7 0 0
-0.0643 0.0284 -0.1417 -0.267 -0.956 0.124 45 19 6 0 0
-0.0619 0.0341 -0.1450 -0.374 -0.916 0.148 47 22 8 0 0
-0.0652 0.0258 -0.1586 -0.091 -0.996 -0.022 56 40 33 0 0
-0.0413 0.0801 -0.2785 -0.341 -0.937 -0.070 48 31 24 0 0
-0.0415 0.0796 -0.2814 -0.395 -0.880 0.264 47 30 23 0 0
-0.0402 0.0812 -0.3266 -0.346 -0.932 -0.109 56 28 14 0 0
-0.0328 0.0981 -0.3631 -0.586 -0.682 0.438 21 9 5 0 0
-0.0428 0.0727 -0.3974 -0.423 -0.470 0.775 52 27 15 0 0
-0.0439 0.0700 -0.3998 -0.037 -0.590 0.807 52 27 15 0 0
-0.0536 0.0457 -0.4184 -0.572 -0.819 -0.051 68 33 13 0 0
-0.0549 0.0421 -0.4325 -0.286 -0.869 0.403 63 32 14 0 0
-0.0218 0.1211 -0.4831 -0.272 -0.590 0.760 49 29 18 0 0
-0.0216 0.1213 -0.4926 -0.748 -0.654 -0.112 51 29 16 0 0
-0.0197 0.1244 -0.5379 -0.186 -0.807 0.560 52 30 17 0 0
-0.0207 0.1220 -0.5403 -0.435 -0.878 0.199 53 31 18 0 0
-0.0195 0.1248 -0.5443 -0.347 -0.868 0.356 55 33 20 0 0
-0.0217 0.1194 -0.5459 -0.579 -0.790 0.204 56 33 21 0 0
-0.0224 0.1175 -0.5485 -0.722 -0.688 -0.071 58 34 22 0 0
-0.0236 0.1140 -0.5665 -0.632 -0.760 -0.151 60 37 23 0 0
-0.0231 0.1151 -0.5700 -0.572 -0.815 -0.090 58 35 21 0 0
-0.0220 0.1178 -0.5741 -0.243 -0.921 -0.306 57 34 20 0 0
-0.0217 0.1183 -0.5806 -0.172 -0.978 -0.114 61 36 22 0 0
-0.0298 0.0937 -0.7355 -0.079 -0.975 0.208 55 23 8 0 0
-0.0300 0.0930 -0.7385 -0.079 -0.975 0.208 54 22 8 0 0
-0.0300 0.0926 -0.7480 0.102 -0.972 0.211 55 23 8 0 0
-0.0467 0.0500 -0.8163 -0.487 -0.728 0.482 62 29 10 0 0
-0.0472 0.0488 -0.8189 -0.315 -0.944 0.093 65 32 13 0 0
-0.0476 0.0474 -0.8311 -0.001 -0.921 0.388 70 36 15 0 0
-0.0542 0.0301 -0.8644 -0.300 -0.913 0.275 84 52 31 0 0
-0.0477 0.0450 -0.8975 -0.453 -0.879 0.152 62 39 25 0 0
-0.0487 0.0421 -0.9122 -0.474 -0.876 0.092 55 32 18 0 0
-0.0492 0.0402 -0.9339 -0.183 -0.968 0.171 68 39 20 0 0
-0.0519 0.0332 -0.9464 -0.488 -0.841 -0.232 59 30 13 0 0
-0.0618 0.0080 -0.9776 -0.314 -0.814 0.489 105 91 82 0 0
-0.0697 -0.0120 -1.0014 -0.134 -0.944 0.301 59 35 21 0 0
-0.0686 -0.0094 -1.0061 -0.094 -0.993 0.073 53 26 12 0 0
-0.0783 -0.0349 -1.0672 -0.716 -0.695 -0.057 76 57 44 0 0
-0.0781 -0.0345 -1.0707 -0.734 -0.665 -0.137 69 52 42 0 0
-0.0748 -0.0273 -1.1010 -0.308 -0.865 0.396 46 27 19 0 0
-0.0754 -0.0289 -1.1032 -0.186 -0.940 0.287 43 25 14 0 0
-0.0744 -0.0277 -1.1428 -0.086 -0.992 0.090 77 56 39 0 0
-0.0278 0.1324 0.0918 -0.558 -0.792 0.247 121 96 79 0 0
-0.0280 0.1316 0.0802 -0.328 -0.784 0.527 90 65 49 0 0
-0.0465 0.0848 0.0298 -0.706 -0.703 -0.083 107 88 79 0 0
-0.0466 0.0844 0.0270 -0.565 -0.824 -0.036 109 90 79 0 0
-0.0530 0.0682 0.0125 -0.420 -0.758 0.499 62 31 13 0 0
-0.0541 0.0653 0.0041 -0.208 -0.884 0.418 54 28 13 0 0
-0.0506 0.0731 -0.0243 -0.553 -0.692 0.464 49 32 24 0 0
-0.0546 0.0607 -0.1068 -0.370 -0.819 0.439 61 39 30 0 0
-0.0559 0.0574 -0.1095 -0.025 -0.559 0.829 64 40 30 0 0
-0.0619 0.0424 -0.1228 -0.638 -0.765 0.093 109 90 78 0 0
-0.0640 0.0366 -0.1423 -0.359 -0.772 0.525 47 21 8 0 0
-0.0645 0.0352 -0.1451 -0.439 -0.871 0.220 48 23 10 0 0
-0.0418 0.0868 -0.2764 -0.535 -0.663 0.524 48 31 24 0 0
-0.0436 0.0822 -0.2787 -0.802 -0.594 0.060 48 31 24 0 0
-0.0366 0.0963 -0.3779 -0.698 -0.579 0.422 54 30 20 0 0
-0.0246 0.1223 -0.4832 -0.206 -0.939 0.275 47 27 16 0 0
-0.0248 0.1205 -0.5237 -0.076 -0.987 0.144 52 30 17 0 0
-0.0233 0.1240 -0.5311 -0.509 -0.774 0.376 55 33 20 0 0
-0.0268 0.1149 -0.5475 0.200 -0.979 0.040 57 33 21 0 0
-0.0263 0.1161 -0.5510 -0.002 -0.836 0.548 56 32 20 0 0
-0.0257 0.1150 -0.6304 -0.597 -0.775 0.209 68 36 15 0 0
-0.0259 0.1144 -0.6334 -0.597 -0.775 0.209 69 37 16 0 0
-0.0253 0.1158 -0.6403 -0.491 -0.826 0.277 75 43 20 0 0
-0.0256 0.1150 -0.6433 -0.491 -0.826 0.277 75 43 20 0 0
-0.0345 0.0918 -0.6830 -0.489 -0.662 0.568 60 29 11 0 0
-0.0331 0.0942 -0.7160 -0.567 -0.787 0.242 61 32 14 0 0
-0.0335 0.0924 -0.7475 0.102 -0.972 0.211 55 23 8 0 0
-0.0392 0.0778 -0.7704 -0.472 -0.880 0.055 61 28 10 0 0
-0.0381 0.0802 -0.7747 -0.484 -0.874 0.045 61 28 10 0 0
-0.0503 0.0490 -0.8218 -0.257 -0.959 0.118 66 33 14 0 0
-0.0496 0.0505 -0.8257 -0.581 -0.740 0.340 66 34 14 0 0
-0.0495 0.0508 -0.8290 -0.815 -0.430 0.388 66 34 13 0 0
-0.0498 0.0498 -0.8318 -0.671 -0.427 0.606 69 36 15 0 0
-0.0571 0.0312 -0.8644 -0.153 -0.984 0.094 86 54 33 0 0
-0.0511 0.0446 -0.9000 -0.261 -0.804 0.535 59 35 23 0 0
-0.0544 0.0354 -0.9373 0.003 -0.893 0.451 58 29 11 0 0
-0.0569 0.0289 -0.9467 -0.501 -0.865 0.028 60 30 10 0 0
-0.0684 -0.0003 -0.9883 0.041 -0.860 0.508 92 78 72 0 0
-0.0719 -0.0095 -1.0022 -0.098 -0.962 0.254 56 31 18 0 0
-0.0713 -0.0080 -1.0063 -0.063 -0.998 -0.025 53 25 11 0 0
-0.0812 -0.0325 -1.0140 -0.230 -0.954 -0.193 56 29 12 0 0
-0.0809 -0.0318 -1.0175 -0.230 -0.954 -0.193 59 31 12 0 0
-0.0796 -0.0298 -1.0506 -0.480 -0.866 0.138 76 54 39 0 0
-0.0775 -0.0263 -1.1042 -0.270 -0.952 0.142 46 26 15 0 0
-0.0775 -0.0264 -1.1106 -0.373 -0.924 -0.081 61 30 17 0 0
-0.0302 0.1338 0.0773 -0.205 -0.740 0.641 90 63 45 0 0
-0.0479 0.0890 0.0327 -0.588 -0.799 0.125 115 94 85 0 0
-0.0490 0.0861 0.0270 -0.565 -0.824 -0.036 102 81 67 0 0
-0.0487 0.0868 0.0241 -0.584 -0.791 -0.183 101 80 66 0 0
-0.0488 0.0864 0.0213 -0.617 -0.720 0.318 83 60 46 0 0
-0.0557 0.0688 -0.0016 -0.548 -0.832 -0.083 49 25 10 0 0
-0.0556 0.0690 -0.0044 -0.548 -0.832 -0.083 48 24 11 0 0
-0.0572 0.0650 -0.0073 -0.405 -0.903 -0.145 47 23 10 0 0
-0.0574 0.0645 -0.0101 -0.163 -0.980 -0.115 43 19 9 0 0
-0.0482 0.0844 -0.0936 -0.458 -0.630 0.627 42 22 14 0 0
-0.0575 0.0612 -0.1068 -0.397 -0.911 -0.117 59 38 30 0 0
-0.0646 0.0435 -0.1172 -0.539 -0.841 0.044 114 96 88 0 0
-0.0645 0.0437 -0.1200 -0.660 -0.750 -0.037 116 100 91 0 0
-0.0644 0.0439 -0.1229 -0.682 -0.716 -0.149 107 88 77 0 0
-0.0655 0.0405 -0.1397 -0.154 -0.892 0.426 50 24 11 0 0
-0.0711 0.0263 -0.1556 -0.365 -0.761 0.536 55 42 35 0 0
-0.0416 0.0943 -0.2984 -0.088 -0.960 -0.267 44 29 21 0 0
-0.0357 0.1083 -0.3129 -0.700 -0.313 0.641 73 55 46 0 0
-0.0446 0.0841 -0.3934 0.371 -0.839 0.399 51 29 18 0 0
-0.0581 0.0502 -0.4190 -0.540 -0.839 0.068 68 33 14 0 0
-0.0609 0.0431 -0.4263 -0.396 -0.916 -0.072 61 29 11 0 0
-0.0605 0.0439 -0.4295 -0.485 -0.710 0.511 63 30 12 0 0
-0.0600 0.0451 -0.4328 -0.598 -0.647 0.473 63 33 17 0 0
-0.0277 0.1227 -0.4862 -0.290 -0.921 0.259 48 28 17 0 0
-0.0278 0.1214 -0.5205 -0.527 -0.475 0.704 53 30 18 0 0
-0.0291 0.1168 -0.5667 -0.698 -0.715 0.032 62 39 25 0 0
-0.0292 0.1166 -0.5699 -0.698 -0.715 0.032 63 40 26 0 0
-0.0280 0.1175 -0.6341 -0.489 -0.700 0.521 66 34 13 0 0
-0.0279 0.1177 -0.6406 -0.080 -0.973 0.216 76 44 21 0 0
-0.0290 0.1146 -0.6460 -0.248 -0.969 0.023 78 46 23 0 0
-0.0301 0.1120 -0.6483 -0.117 -0.950 0.291 80 48 25 0 0
-0.0301 0.1114 -0.6609 -0.551 -0.834 0.035 73 39 18 0 0
-0.0365 0.0937 -0.7315 -0.599 -0.729 0.330 56 26 11 0 0
-0.0371 0.0921 -0.7340 0.123 -0.987 -0.100 54 23 9 0 0
-0.0369 0.0922 -0.7470 0.102 -0.972 0.211 52 21 6 0 0
-0.0389 0.0866 -0.7705 -0.797 -0.425 -0.428 58 26 10 0 0
-0.0393 0.0855 -0.7732 -0.752 -0.636 -0.171 59 27 10 0 0
-0.0393 0.0854 -0.7764 -0.750 -0.661 -0.027 61 28 11 0 0
-0.0485 0.0619 -0.8112 0.017 -0.996 0.087 61 28 13 0 0
-0.0496 0.0590 -0.8131 -0.331 -0.932 0.146 61 28 13 0 0
-0.0511 0.0552 -0.8145 -0.132 -0.861 0.490 61 28 13 0 0
-0.0513 0.0548 -0.8175 -0.554 -0.562 0.614 61 28 13 0 0
-0.0510 0.0553 -0.8210 -0.637 -0.707 0.306 60 27 10 0 0
-0.0511 0.0549 -0.8240 -0.635 -0.761 0.132 64 31 12 0 0
-0.0515 0.0540 -0.8268 -0.512 -0.784 0.352 64 32 12 0 0
-0.0512 0.0545 -0.8303 -0.691 -0.637 0.341 64 32 11 0 0
-0.0521 0.0524 -0.8324 -0.671 -0.427 0.606 67 33 12 0 0
-0.0550 0.0447 -0.8448 -0.554 -0.828 0.083 76 39 14 0 0
-0.0600 0.0320 -0.8642 -0.400 -0.905 -0.143 85 54 35 0 0
-0.0601 0.0313 -0.8735 -0.418 -0.871 0.256 76 48 34 0 0
-0.0608 0.0295 -0.8758 -0.028 -0.948 0.317 69 43 29 0 0
-0.0528 0.0485 -0.8983 -0.169 -0.986 0.012 60 37 23 0 0
-0.0566 0.0377 -0.9476 -0.311 -0.947 -0.080 57 29 12 0 0
-0.0566 0.0374 -0.9573 -0.513 -0.832 -0.210 76 53 33 0 0
-0.0754 -0.0101 -0.9980 -0.293 -0.697 0.655 70 47 35 0 0
-0.0750 -0.0090 -1.0019 -0.423 -0.904 0.068 59 32 18 0 0
-0.0744 -0.0077 -1.0058 -0.172 -0.983 -0.063 54 25 11 0 0
-0.0807 -0.0262 -1.1068 -0.048 -0.998 0.040 55 30 17 0 0
-0.0806 -0.0263 -1.1100 -0.197 -0.980 0.007 62 31 18 0 0
-0.0836 -0.0339 -1.1275 -0.665 -0.739 0.103 79 58 41 0 0
-0.0836 -0.0341 -1.1306 -0.676 -0.706 0.209 78 57 40 0 0
-0.0838 -0.0347 -1.1334 -0.581 -0.813 0.046 77 56 39 0 0
-0.0315 0.1388 0.0862 -0.669 -0.687 0.284 103 78 58 0 0
-0.0337 0.1332 0.0801 -0.351 -0.784 0.512 101 77 57 0 0
-0.0369 0.1251 0.0711 -0.660 -0.645 0.386 73 45 28 0 0
-0.0384 0.1213 0.0680 -0.674 -0.693 0.255 70 39 23 0 0
-0.0483 0.0956 0.0299 -0.876 -0.331 0.352 108 86 72 0 0
-0.0544 0.0765 -0.1047 0.085 -0.996 0.026 72 53 46 0 0
-0.0620 0.0578 -0.1094 -0.257 -0.421 0.870 78 59 49 0 0
-0.0680 0.0419 -0.1398 -0.430 -0.868 0.247 51 25 12 0 0
-0.0693 0.0386 -0.1452 -0.520 -0.723 0.455 49 25 12 0 0
-0.0549 0.0717 -0.2237 0.206 -0.963 -0.174 49 36 30 0 0
-0.0471 0.0896 -0.2676 -0.329 -0.641 -0.693 48 31 24 0 0
-0.0478 0.0878 -0.2703 -0.571 -0.643 -0.510 49 32 25 0 0
-0.0449 0.0949 -0.2774 -0.485 -0.805 -0.341 46 29 22 0 0
-0.0484 0.0827 -0.3929 0.371 -0.839 0.399 48 27 16 0 0
-0.0495 0.0799 -0.3953 0.385 -0.878 0.286 46 24 13 0 0
-0.0500 0.0785 -0.3980 0.199 -0.631 0.750 51 29 18 0 0
-0.0613 0.0503 -0.4128 -0.134 -0.935 0.329 94 68 54 0 0
-0.0614 0.0499 -0.4157 -0.218 -0.881 0.420 65 32 13 0 0
-0.0609 0.0510 -0.4189 -0.391 -0.920 -0.023 67 34 16 0 0
-0.0604 0.0519 -0.4372 -0.430 -0.903 -0.024 65 41 28 0 0
-0.0289 0.1255 -0.5691 -0.279 -0.881 0.382 63 40 26 0 0
-0.0281 0.1261 -0.6141 -0.119 -0.976 -0.182 66 37 19 0 0
-0.0267 0.1292 -0.6249 -0.514 -0.843 0.161 72 41 23 0 0
-0.0325 0.1144 -0.6455 -0.136 -0.985 0.109 78 46 23 0 0
-0.0319 0.1156 -0.6556 -0.281 -0.950 0.135 74 42 19 0 0
-0.0411 0.0891 -0.7743 -0.704 -0.625 -0.339 59 28 10 0 0
-0.0391 0.0940 -0.7797 -0.933 -0.349 -0.084 61 28 11 0 0
-0.0627 0.0332 -0.8643 -0.400 -0.905 -0.143 82 52 34 0 0
-0.0625 0.0337 -0.8677 -0.400 -0.905 -0.143 81 52 33 0 0
-0.0563 0.0477 -0.9070 -0.360 -0.812 0.460 54 30 17 0 0
-0.0576 0.0445 -0.9086 -0.345 -0.883 0.319 56 33 19 0 0
-0.0593 0.0391 -0.9478 -0.490 -0.871 -0.040 56 27 11 0 0
-0.0859 -0.0287 -1.0182 -0.187 -0.941 0.282 56 27 10 0 0
-0.0860 -0.0288 -1.0213 -0.266 -0.957 -0.112 59 30 12 0 0
-0.0846 -0.0259 -1.0390 -0.327 -0.945 0.012 81 55 40 0 0
-0.0832 -0.0245 -1.1040 -0.461 -0.825 0.328 50 28 15 0 0
-0.0837 -0.0258 -1.1063 -0.567 -0.823 0.040 55 31 17 0 0
-0.0867 -0.0337 -1.1269 -0.307 -0.936 0.174 79 58 41 0 0
-0.0868 -0.0342 -1.1298 -0.307 -0.936 0.174 77 56 39 0 0
-0.0867 -0.0340 -1.1331 -0.217 -0.975 0.055 77 56 39 0 0
-0.0411 0.1224 0.0651 -0.701 -0.706 0.100 68 39 24 0 0
-0.0604 0.0729 0.0097 -0.918 -0.279 0.281 65 34 18 0 0
-0.0610 0.0707 -0.0130 -0.772 -0.582 0.257 46 22 10 0 0
-0.0553 0.0848 -0.0159 -0.134 -0.958 -0.254 48 27 15 0 0
-0.0549 0.0855 -0.0188 -0.134 -0.958 -0.254 50 30 20 0 0
-0.0538 0.0884 -0.0216 0.185 -0.953 -0.239 52 33 23 0 0
-0.0704 0.0437 -0.1399 -0.513 -0.858 0.022 48 22 9 0 0
-0.0736 0.0354 -0.1506 -0.414 -0.762 0.498 48 34 26 0 0
-0.0568 0.0748 -0.2270 0.044 -0.758 -0.650 50 35 30 0 0
-0.0508 0.0883 -0.2673 0.257 -0.794 -0.551 48 31 24 0 0
-0.0471 0.0968 -0.2955 -0.182 -0.975 -0.127 41 24 17 0 0
-0.0411 0.1112 -0.3070 -0.229 -0.733 -0.641 46 31 24 0 0
-0.0425 0.1058 -0.3731 -0.768 -0.590 0.248 63 47 38 0 0
-0.0432 0.1041 -0.3758 -0.206 -0.978 0.047 62 43 32 0 0
-0.0448 0.1001 -0.3780 -0.032 -0.999 0.035 49 29 18 0 0
-0.0624 0.0556 -0.4048 -0.266 -0.735 0.624 66 41 31 0 0
-0.0632 0.0537 -0.4074 -0.194 -0.915 0.353 82 60 49 0 0
-0.0634 0.0531 -0.4102 -0.359 -0.835 0.417 94 72 61 0 0
-0.0640 0.0513 -0.4128 -0.261 -0.941 0.214 84 58 45 0 0
-0.0633 0.0531 -0.4162 -0.677 -0.644 0.356 71 39 20 0 0
-0.0636 0.0521 -0.4190 -0.391 -0.920 -0.023 59 25 8 0 0
-0.0644 0.0502 -0.4245 -0.345 -0.904 0.252 61 30 12 0 0
-0.0644 0.0501 -0.4275 -0.134 -0.920 0.369 60 29 11 0 0
-0.0630 0.0532 -0.4373 -0.430 -0.903 -0.024 65 42 30 0 0
-0.0292 0.1331 -0.5679 -0.922 -0.387 0.011 62 39 25 0 0
-0.0321 0.1246 -0.6069 -0.505 -0.782 -0.365 68 41 22 0 0
-0.0335 0.1203 -0.6408 -0.330 -0.919 0.218 77 45 22 0 0
-0.0342 0.1184 -0.6433 -0.693 -0.720 -0.029 78 46 23 0 0
-0.0350 0.1158 -0.6617 -0.568 -0.681 0.461 68 36 15 0 0
-0.0346 0.1167 -0.6653 -0.268 -0.953 -0.143 63 31 10 0 0
-0.0346 0.1159 -0.6908 -0.766 -0.643 -0.019 60 29 10 0 0
-0.0413 0.0968 -0.7804 -0.402 -0.845 -0.353 62 29 12 0 0
-0.0399 0.0997 -0.7980 0.771 -0.595 0.228 61 28 11 0 0
-0.0644 0.0373 -0.8626 -0.517 -0.856 -0.005 81 52 34 0 0
-0.0603 0.0459 -0.9087 -0.574 -0.697 0.430 56 33 19 0 0
-0.0653 0.0314 -0.9787 -0.420 -0.893 0.162 106 89 81 0 0
-0.0753 0.0063 -0.9903 -0.916 -0.401 -0.012 91 76 69 0 0
-0.0865 -0.0246 -1.1001 -0.499 -0.820 0.282 48 27 17 0 0
-0.0862 -0.0240 -1.1069 -0.279 -0.952 0.128 54 30 17 0 0
-0.0896 -0.0329 -1.1267 0.065 -0.987 0.144 79 58 41 0 0
-0.0896 -0.0333 -1.1297 -0.307 -0.927 0.215 77 56 39 0 0
-0.0617 0.0773 0.0097 -0.918 -0.279 0.281 83 58 42 0 0
-0.0627 0.0748 0.0068 -0.932 -0.286 0.222 79 53 38 0 0
-0.0592 0.0829 -0.0102 -0.235 -0.962 -0.140 53 30 16 0 0
-0.0540 0.0952 -0.0332 -0.363 -0.601 -0.712 38 24 18 0 0
-0.0732 0.0445 -0.1399 -0.414 -0.895 0.164 48 22 9 0 0
-0.0733 0.0441 -0.1427 -0.364 -0.931 0.019 48 22 9 0 0
-0.0730 0.0448 -0.1456 -0.285 -0.921 -0.264 51 27 14 0 0
-0.0733 0.0438 -0.1484 -0.119 -0.971 -0.210 52 33 23 0 0
-0.0517 0.0947 -0.2472 -0.733 -0.491 -0.471 49 34 29 0 0
-0.0441 0.1100 -0.3676 -0.761 -0.511 0.400 33 19 16 0 0
-0.0447 0.1086 -0.3704 -0.761 -0.511 0.400 43 28 25 0 0
-0.0448 0.1082 -0.3734 -0.686 -0.694 0.216 62 48 38 0 0
-0.0472 0.1021 -0.3783 -0.407 -0.913 -0.022 51 33 21 0 0
-0.0656 0.0554 -0.4075 -0.359 -0.835 0.417 92 71 60 0 0
-0.0661 0.0543 -0.4103 -0.359 -0.835 0.417 98 76 65 0 0
-0.0665 0.0531 -0.4130 -0.379 -0.923 -0.069 83 57 44 0 0
-0.0668 0.0519 -0.4247 -0.177 -0.983 0.042 60 29 11 0 0
-0.0672 0.0509 -0.4275 -0.428 -0.903 0.046 58 27 9 0 0
-0.0669 0.0515 -0.4336 -0.563 -0.763 0.318 62 34 21 0 0
-0.0317 0.1376 -0.4829 -0.303 -0.769 0.563 55 34 23 0 0
-0.0367 0.1251 -0.4860 -0.360 -0.933 0.013 53 33 22 0 0
-0.0356 0.1278 -0.4898 -0.756 -0.651 0.064 55 35 24 0 0
-0.0285 0.1439 -0.5420 -0.578 -0.730 0.365 63 39 27 0 0
-0.0288 0.1429 -0.5449 -0.243 -0.919 0.311 64 40 28 0 0
-0.0375 0.1180 -0.6621 -0.388 -0.746 0.541 70 38 17 0 0
-0.0332 0.1278 -0.6949 -0.083 -0.995 -0.056 62 31 11 0 0
-0.0363 0.1189 -0.7273 0.165 -0.643 0.748 59 30 12 0 0
-0.0367 0.1179 -0.7301 -0.328 -0.868 0.372 58 29 11 0 0
-0.0563 0.0668 -0.8152 -0.361 -0.880 -0.307 57 25 10 0 0
-0.0682 0.0360 -0.8583 -0.261 -0.925 -0.276 79 51 31 0 0
-0.0617 0.0495 -0.9490 -0.103 -0.914 0.392 53 24 8 0 0
-0.0628 0.0467 -0.9508 -0.604 -0.675 0.425 54 25 9 0 0
-0.0637 0.0444 -0.9528 -0.370 -0.872 -0.321 57 29 11 0 0
-0.0680 0.0330 -0.9758 -0.089 -0.912 0.402 97 80 71 0 0
-0.0685 0.0317 -0.9783 -0.050 -0.926 0.374 97 80 72 0 0
-0.0777 0.0083 -0.9909 -0.886 -0.361 0.290 91 77 69 0 0
-0.0894 -0.0217 -1.0275 -0.325 -0.898 0.297 62 32 12 0 0
-0.0905 -0.0250 -1.0446 -0.370 -0.923 -0.109 82 59 45 0 0
-0.0892 -0.0219 -1.0497 -0.243 -0.806 -0.540 78 55 41 0 0
-0.0890 -0.0231 -1.1068 -0.279 -0.952 0.128 54 29 16 0 0
-0.0869 -0.0185 -1.1325 -0.092 -0.965 0.246 82 60 44 0 0
-0.0920 -0.0310 -1.1273 -0.045 -0.996 -0.083 78 57 40 0 0
-0.0922 -0.0317 -1.1301 -0.138 -0.970 0.201 78 57 40 0 0
-0.0924 -0.0322 -1.1330 -0.383 -0.916 0.116 77 56 39 0 0
-0.0619 0.0842 0.0040 -0.047 -0.973 0.225 105 93 84 0 0
-0.0623 0.0832 0.0012 -0.631 -0.767 0.116 103 91 82 0 0
-0.0620 0.0836 -0.0102 -0.116 -0.987 -0.108 86 70 62 0 0
-0.0597 0.0891 -0.0245 0.426 -0.847 -0.317 72 59 52 0 0
-0.0586 0.0916 -0.0274 0.391 -0.824 -0.410 71 58 54 0 0
-0.0582 0.0925 -0.0303 0.172 -0.790 -0.588 70 57 53 0 0
-0.0570 0.0954 -0.0332 -0.051 -0.735 -0.676 67 54 51 0 0
-0.0554 0.0995 -0.0362 -0.269 -0.642 -0.718 61 51 48 0 0
-0.0759 0.0452 -0.1399 -0.295 -0.944 -0.146 48 22 9 0 0
-0.0755 0.0460 -0.1456 -0.307 -0.893 -0.329 50 25 14 0 0
-0.0772 0.0416 -0.1510 0.066 -0.775 0.629 49 36 28 0 0
-0.0567 0.0904 -0.2435 0.148 -0.716 -0.682 49 34 28 0 0
-0.0540 0.0970 -0.2473 0.176 -0.730 -0.661 49 34 29 0 0
-0.0530 0.0988 -0.2655 -0.513 -0.751 0.416 48 33 28 0 0
-0.0534 0.0978 -0.2684 -0.092 -0.947 0.308 48 33 27 0 0
-0.0443 0.1191 -0.3202 -0.740 -0.609 0.284 48 21 9 0 0
-0.0468 0.1115 -0.3708 -0.761 -0.511 0.400 46 33 27 0 0
-0.0480 0.1082 -0.3732 -0.508 -0.572 0.644 62 47 37 0 0
-0.0499 0.1033 -0.3783 -0.407 -0.913 -0.022 52 32 21 0 0
-0.0480 0.1081 -0.3824 -0.142 -0.943 0.301 50 29 18 0 0
-0.0551 0.0899 -0.3938 -0.763 -0.171 0.623 44 24 15 0 0
-0.0683 0.0567 -0.4076 -0.330 -0.712 0.620 87 69 59 0 0
-0.0687 0.0554 -0.4103 -0.342 -0.782 0.521 95 75 64 0 0
-0.0693 0.0541 -0.4130 -0.479 -0.868 -0.132 77 51 35 0 0
-0.0698 0.0524 -0.4246 -0.398 -0.915 0.068 61 29 11 0 0
-0.0701 0.0516 -0.4274 -0.324 -0.936 0.139 56 25 7 0 0
-0.0377 0.1309 -0.4809 -0.466 -0.869 -0.166 59 38 27 0 0
-0.0360 0.1347 -0.4977 -0.721 -0.618 -0.313 60 39 28 0 0
-0.0355 0.1360 -0.5012 -0.591 -0.764 -0.259 63 41 30 0 0
-0.0340 0.1396 -0.5054 -0.398 -0.895 -0.201 63 41 29 0 0
-0.0331 0.1416 -0.5123 -0.163 -0.979 -0.120 62 40 27 0 0
-0.0322 0.1437 -0.5161 -0.135 -0.976 0.173 62 40 27 0 0
-0.0338 0.1393 -0.5276 -0.458 -0.800 0.388 63 42 29 0 0
-0.0349 0.1321 -0.6863 -0.276 -0.902 0.332 69 38 17 0 0
-0.0355 0.1304 -0.6955 -0.250 -0.965 -0.085 68 38 20 0 0
-0.0355 0.1302 -0.6986 -0.427 -0.876 0.223 65 35 17 0 0
-0.0372 0.1255 -0.7197 -0.458 -0.863 -0.212 63 34 16 0 0
-0.0375 0.1245 -0.7225 -0.441 -0.869 0.226 63 34 16 0 0
-0.0404 0.1170 -0.7294 -0.565 -0.825 -0.019 64 34 16 0 0
-0.0408 0.1159 -0.7322 -0.577 -0.802 -0.155 62 33 15 0 0
-0.0407 0.1162 -0.7355 -0.470 -0.795 -0.385 59 29 11 0 0
-0.0438 0.1071 -0.7872 -0.950 0.054 -0.307 63 30 13 0 0
-0.0472 0.0984 -0.7899 -0.968 0.121 -0.221 62 29 10 0 0
-0.0612 0.0600 -0.9084 -0.556 -0.775 -0.300 52 29 15 0 0
-0.0648 0.0500 -0.9487 -0.103 -0.914 0.392 56 28 10 0 0
-0.0653 0.0486 -0.9512 -0.604 -0.675 0.425 56 28 10 0 0
-0.0649 0.0495 -0.9550 -0.343 -0.928 0.147 60 32 14 0 0
-0.0719 0.0315 -0.9776 0.129 -0.974 0.189 94 77 67 0 0
-0.0912 -0.0182 -1.0258 -0.344 -0.839 0.422 59 29 10 0 0
-0.0922 -0.0207 -1.0275 -0.325 -0.898 0.297 65 34 14 0 0
-0.0922 -0.0208 -1.0306 -0.260 -0.957 -0.130 71 40 19 0 0
-0.0899 -0.0181 -1.1320 -0.092 -0.965 0.246 80 59 42 0 0
-0.0950 -0.0306 -1.1301 -0.622 -0.783 0.014 78 57 39 0 0
-0.0645 0.0854 -0.0017 -0.754 -0.657 0.032 180 178 182 0 0
-0.0645 0.0852 -0.0046 -0.754 -0.657 0.032 179 177 181 0 0
-0.0651 0.0837 -0.0074 0.007 -0.999 -0.051 178 177 179 0 0
-0.0645 0.0853 -0.0103 -0.680 -0.723 -0.121 177 176 178 0 0
-0.0643 0.0855 -0.0131 -0.492 -0.854 -0.168 177 176 178 0 0
-0.0642 0.0859 -0.0160 -0.654 -0.738 -0.168 176 175 174 0 0
-0.0640 0.0863 -0.0188 -0.654 -0.738 -0.168 175 174 172 0 0
-0.0637 0.0868 -0.0217 -0.654 -0.738 -0.168 174 173 171 0 0
-0.0635 0.0873 -0.0246 0.514 -0.808 -0.289 174 173 171 0 0
-0.0621 0.0906 -0.0332 0.688 -0.700 -0.191 173 171 169 0 0
-0.0615 0.0919 -0.0361 0.688 -0.700 -0.191 174 173 172 0 0
-0.0722 0.0617 -0.1612 -0.506 -0.170 -0.846 54 41 35 0 0
-0.0613 0.0867 -0.2399 -0.775 -0.486 -0.404 49 34 27 0 0
-0.0590 0.0924 -0.2437 -0.240 -0.618 -0.748 49 34 28 0 0
-0.0518 0.1102 -0.2580 0.341 -0.432 0.835 50 35 30 0 0
-0.0551 0.1017 -0.2658 -0.708 -0.504 0.495 47 32 27 0 0
-0.0525 0.1050 -0.3785 -0.577 -0.814 -0.068 54 35 23 0 0
-0.0565 0.0946 -0.3946 -0.481 -0.356 0.801 44 24 15 0 0
-0.0725 0.0539 -0.4127 -0.444 -0.892 -0.086 80 54 37 0 0
-0.0723 0.0539 -0.4247 -0.389 -0.832 0.396 60 29 11 0 0
-0.0728 0.0526 -0.4274 -0.345 -0.904 0.252 57 26 8 0 0
-0.0378 0.1385 -0.5017 -0.367 -0.909 -0.196 67 45 34 0 0
-0.0368 0.1408 -0.5055 -0.398 -0.895 -0.201 69 48 36 0 0
-0.0359 0.1430 -0.5092 -0.281 -0.908 -0.311 68 47 34 0 0
-0.0354 0.1440 -0.5127 -0.281 -0.908 -0.311 66 45 32 0 0
-0.0355 0.1438 -0.5158 -0.100 -0.993 -0.056 65 45 31 0 0
-0.0354 0.1440 -0.5190 -0.100 -0.993 -0.056 65 46 30 0 0
-0.0351 0.1447 -0.5224 -0.318 -0.942 -0.107 65 46 30 0 0
-0.0355 0.1436 -0.5253 -0.434 -0.900 0.038 65 46 30 0 0
-0.0365 0.1409 -0.5278 -0.453 -0.792 0.410 69 49 34 0 0
-0.0340 0.1469 -0.5359 -0.150 -0.911 0.384 67 45 32 0 0
-0.0344 0.1458 -0.5387 -0.150 -0.911 0.384 67 44 31 0 0
-0.0361 0.1417 -0.5408 -0.252 -0.968 0.013 67 44 31 0 0
-0.0356 0.1427 -0.5442 -0.637 -0.742 -0.210 67 44 30 0 0
-0.0356 0.1425 -0.5474 -0.919 -0.311 -0.243 67 45 31 0 0
-0.0350 0.1440 -0.5510 -0.900 -0.430 -0.075 70 48 33 0 0
-0.0341 0.1461 -0.5549 -0.831 -0.514 0.213 72 51 34 0 0
-0.0335 0.1476 -0.5617 -0.914 -0.387 0.122 75 54 37 0 0
-0.0380 0.1358 -0.5806 -0.786 -0.403 0.470 72 48 32 0 0
-0.0348 0.1409 -0.6827 -0.658 -0.728 -0.193 70 39 19 0 0
-0.0384 0.1316 -0.6890 0.162 -0.987 -0.024 72 42 23 0 0
-0.0410 0.1246 -0.7059 -0.867 -0.478 0.142 69 40 22 0 0
-0.0412 0.1240 -0.7089 -0.867 -0.478 0.142 68 39 21 0 0
-0.0398 0.1274 -0.7134 -0.506 -0.792 -0.341 67 38 20 0 0
-0.0400 0.1268 -0.7198 0.112 -0.982 -0.150 64 35 17 0 0
-0.0414 0.1233 -0.7216 -0.553 -0.705 0.445 64 35 17 0 0
-0.0428 0.1195 -0.7332 -0.905 -0.245 0.347 65 37 20 0 0
-0.0415 0.1225 -0.7409 -0.548 -0.821 -0.160 61 32 16 0 0
-0.0661 0.0561 -0.9059 -0.684 -0.724 -0.091 54 31 17 0 0
-0.0747 0.0325 -0.9775 -0.098 -0.982 -0.164 98 81 71 0 0
-0.0749 0.0320 -0.9805 -0.366 -0.812 0.456 102 85 75 0 0
-0.0945 -0.0191 -1.0470 -0.460 -0.858 0.230 77 56 40 0 0
-0.0947 -0.0197 -1.0498 -0.460 -0.858 0.230 77 55 41 0 0
-0.0923 -0.0156 -1.1200 -0.378 -0.902 0.207 77 50 31 0 0
-0.0966 -0.0267 -1.1288 -0.545 -0.836 -0.064 79 58 41 0 0
-0.0965 -0.0266 -1.1321 -0.545 -0.836 -0.064 78 57 38 0 0
-0.0965 -0.0271 -1.1544 -0.609 -0.792 -0.030 113 105 96 0 0
-0.0794 0.0523 -0.1260 -0.476 -0.861 0.178 86 59 46 0 0
-0.0755 0.0613 -0.1554 -0.522 -0.808 -0.272 53 39 33 0 0
-0.0644 0.0869 -0.2399 -0.903 -0.413 -0.121 51 36 29 0 0
-0.0534 0.1136 -0.2825 -0.205 -0.866 0.456 48 30 26 0 0
-0.0562 0.1038 -0.3780 -0.915 -0.404 0.003 48 30 18 0 0
-0.0754 0.0541 -0.4275 -0.261 -0.927 0.270 60 31 13 0 0
-0.0383 0.1455 -0.5033 -0.949 -0.313 -0.035 69 49 38 0 0
-0.0385 0.1448 -0.5094 -0.889 -0.454 -0.062 71 52 38 0 0
-0.0383 0.1452 -0.5127 -0.860 -0.504 -0.082 69 50 36 0 0
-0.0393 0.1427 -0.5152 -0.815 -0.551 0.179 71 52 38 0 0
-0.0395 0.1422 -0.5183 -0.724 -0.681 0.112 69 52 35 0 0
-0.0393 0.1423 -0.5215 -0.799 -0.602 -0.017 67 49 33 0 0
-0.0391 0.1428 -0.5248 -0.692 -0.687 0.222 68 51 35 0 0
-0.0388 0.1435 -0.5282 -0.738 -0.545 0.397 69 51 36 0 0
-0.0385 0.1443 -0.5316 -0.241 -0.827 0.507 70 52 38 0 0
-0.0382 0.1449 -0.5350 0.090 -0.982 0.169 69 51 37 0 0
-0.0384 0.1444 -0.5380 0.090 -0.982 0.169 68 49 35 0 0
-0.0350 0.1521 -0.5628 -0.886 -0.457 0.084 78 58 42 0 0
-0.0359 0.1498 -0.5653 -0.887 -0.442 -0.135 80 59 45 0 0
-0.0354 0.1509 -0.5721 -0.909 -0.413 -0.061 82 60 47 0 0
-0.0332 0.1550 -0.6187 -0.278 -0.929 0.244 75 52 36 0 0
-0.0334 0.1545 -0.6218 -0.448 -0.874 0.187 73 50 34 0 0
-0.0340 0.1530 -0.6246 -0.595 -0.740 0.313 76 52 36 0 0
-0.0343 0.1521 -0.6275 -0.595 -0.740 0.313 78 53 35 0 0
-0.0347 0.1511 -0.6304 -0.595 -0.740 0.313 79 52 34 0 0
-0.0358 0.1474 -0.6618 -0.881 -0.460 0.107 76 45 24 0 0
-0.0443 0.1249 -0.6991 -0.501 -0.866 -0.007 71 42 24 0 0
-0.0443 0.1249 -0.7023 -0.501 -0.866 -0.007 72 43 25 0 0
-0.0468 0.1186 -0.7032 0.076 -0.964 0.256 72 43 25 0 0
-0.0648 0.0700 -0.8184 -0.888 -0.168 0.429 57 29 10 0 0
-0.0733 0.0471 -0.8750 -0.632 -0.753 0.183 72 50 38 0 0
-0.0732 0.0471 -0.8782 -0.218 -0.886 0.409 66 44 33 0 0
-0.0699 0.0554 -0.8856 -0.457 -0.855 0.245 65 43 32 0 0
-0.0702 0.0545 -0.8884 -0.398 -0.917 0.009 63 41 30 0 0
-0.0686 0.0572 -0.9417 -0.494 -0.869 -0.019 60 33 13 0 0
-0.0766 0.0362 -0.9693 -0.293 -0.941 0.169 93 76 66 0 0
-0.0779 0.0328 -0.9739 -0.300 -0.954 0.008 97 80 70 0 0
-0.0791 0.0297 -0.9786 -0.504 -0.845 0.181 94 77 67 0 0
-0.0794 0.0287 -0.9813 -0.505 -0.843 0.183 96 79 69 0 0
-0.0979 -0.0194 -1.0398 -0.359 -0.810 0.464 79 58 41 0 0
-0.0966 -0.0166 -1.0543 -0.269 -0.960 -0.076 75 56 41 0 0
-0.0958 -0.0147 -1.0587 -0.173 -0.985 -0.009 74 55 40 0 0
-0.0998 -0.0273 -1.1503 -0.597 -0.677 0.430 83 72 62 0 0
