ply
format ascii 1.0
element vertex 682
property float x
property float y
property float z
property uchar diffuse_red
property uchar diffuse_green
property uchar diffuse_blue
end_header
-0.04176869511387636 0.15821751508173842 -0.4814966629858905 64 38 23
-0.03536937157561472 0.1528668322685492 -0.48669172174795017 64 38 23
-0.03342585599597794 0.15116195384036027 -0.49054277174396455 67 39 24
-0.03328733750229574 0.15093414041135275 -0.493843936864059 66 38 22
-0.03132007295801955 0.14920927595435715 -0.4977179322902247 66 39 21
-0.035336792378206874 0.15238287189036678 -0.49972202794553605 67 40 22
-0.03559927939072682 0.1524833108345808 -0.5028981357476286 67 39 24
-0.038078470751487854 0.1543987635950759 -0.5053693060862468 64 36 22
-0.037491419618957626 0.15380366540094212 -0.5088139934290045 63 35 23
-0.037567551504015986 0.15375153443234676 -0.512048918063601 64 36 22
-0.038159284954608186 0.15412164379885984 -0.5151178457762586 64 36 22
-0.039457210695347064 0.15507021673429972 -0.5179553380086682 64 36 22
-0.03945617843951789 0.15495486592136692 -0.5212159027766489 67 39 25
-0.041608071014286006 0.1566032080491261 -0.5237661559987647 67 39 25
-0.03954767862447045 0.15480065223760475 -0.5277107464694151 69 41 27
-0.039590895735617276 0.15472139493344797 -0.5309611515143556 71 43 29
-0.03368261454737639 0.1497651139809063 -0.5362181043091493 72 44 28
-0.033891735286864656 0.14982128366445968 -0.5394275128230666 73 46 29
-0.03410076597532077 0.14987735307715225 -0.5426377055728582 72 45 28
-0.032292559083806203 0.1482799225425467 -0.5465408635253122 71 44 27
-0.03283074386752752 0.148605613959359 -0.5496431313583086 69 42 25
-0.033169377444881055 0.14876773116916478 -0.5528140923480646 68 41 24
-0.03411547829281746 0.14942789803987003 -0.5557730243735274 68 41 24
-0.03397629198424997 0.14919824893370856 -0.559111099153614 70 43 26
-0.033460955503016226 0.14866006471716325 -0.562584378924916 70 44 27
-0.03437618978191363 0.149294975004183 -0.5655526532953077 70 41 25
-0.033549907617716646 0.14850159701351656 -0.5691417519423596 70 41 25
-0.03493190339748716 0.14951939821333374 -0.5719413302779206 68 42 25
-0.03463054973672555 0.14915644032717007 -0.5753460062650467 67 41 24
-0.03367297737078319 0.1482550156883461 -0.5789924491227464 67 41 24
-0.03283323727681871 0.14745007167236956 -0.582601396656731 69 42 25
-0.03282103066751335 0.14732398080323791 -0.5859108034437503 70 43 26
-0.03250193785577546 0.14694599186597454 -0.5893355397326913 69 42 25
-0.030715096935073478 0.14536331880835454 -0.5933098246291358 70 43 26
-0.030120207661730822 0.14475864623950194 -0.5968468798892832 72 42 26
-0.030009624901506694 0.14455136940699015 -0.6002056975343778 71 41 24
-0.03003077027952105 0.14445215662891575 -0.6035167456305544 72 42 24
-0.02966527595421535 0.14403546022486838 -0.6069765788392425 71 41 22
-0.030397409030060257 0.14451987811222505 -0.6100193418077331 71 40 21
-0.03136710863429375 0.14519942170957775 -0.6129692226185661 72 41 21
-0.03192550300102194 0.14554128033814176 -0.6160758881284966 73 43 22
-0.033634201860317764 0.1468278958879642 -0.6187341767101519 74 43 23
-0.034051397015872335 0.14705391260722378 -0.6218922797268015 76 43 22
-0.03486786319042237 0.14760790890656952 -0.6248932082979975 81 47 23
-0.0371166097381819 0.14933860188311254 -0.6273258815483878 86 52 26
-0.03728619454236479 0.14936136167267977 -0.6305774255169243 85 51 24
-0.036531943829191324 0.14862501071313133 -0.6341991824437881 86 52 25
-0.03620266009917798 0.1482376992886541 -0.6376550132102312 87 53 26
-0.03517978404568374 0.1472802816389249 -0.6413940603869606 86 53 27
-0.03565572014166016 0.14755449986350333 -0.644530492054732 89 55 30
-0.03603428542882342 0.14774869590850356 -0.6477063166279304 90 57 30
-0.03619258463960731 0.1477618245106051 -0.6509725726495635 91 57 30
-0.04397614960281276 0.15404368106898297 -0.6510952119833829 91 57 29
-0.042759431080563265 0.15292679662021746 -0.6549172762550638 88 54 27
-0.0431022603957133 0.1530920157082476 -0.6580963997978524 81 47 22
-0.044470427937352085 0.1541003911091733 -0.6608463747191932 77 43 18
-0.044139170981658385 0.15371130230105082 -0.6643074377473026 76 44 18
-0.04323884185901344 0.1528540575646817 -0.6680122742479926 77 44 18
-0.046153229476158686 0.15513441814069195 -0.6701009322192316 77 44 18
-0.037797391138598826 0.148143982678893 -0.6769938468451437 72 40 18
-0.03926573104349243 0.14923459196133704 -0.6797058778119796 71 39 19
-0.04238270599750896 0.15168181641968567 -0.6817019932388447 71 39 18
-0.043866086892080866 0.15278524620917094 -0.6843948594891761 69 38 18
-0.04631142057459196 0.15468045279212728 -0.6866639345262564 69 38 20
-0.04252760818175241 0.15144938828176938 -0.6916517490317317 70 39 21
-0.04155574957510506 0.15053214339695029 -0.6954201213249661 70 39 21
-0.04109094035495403 0.15003207107860508 -0.6989701320786759 68 39 21
-0.04294990111568692 0.1514448510901222 -0.7014914711671426 68 39 21
-0.04321667704355633 0.15154700830152198 -0.7047172786891353 69 40 22
-0.04056167922649709 0.14924343774757837 -0.7092540761760712 67 38 20
-0.03905561487954509 0.14788549687545846 -0.7132861208713039 67 38 20
-0.04278621367739934 0.15083978199771475 -0.7149552126014715 67 38 20
-0.04181063427339382 0.14991857011965568 -0.7187509752996661 67 38 20
-0.042652947476914824 0.15049450139686443 -0.7217217119584234 68 37 19
-0.043575658009839105 0.15113672719135274 -0.7246536120134821 69 38 20
-0.04409225789158437 0.15144446918770355 -0.7277706005519189 68 37 19
-0.04692424235192923 0.15365987097415446 -0.7298139403233396 66 35 17
-0.04731283218249341 0.153862347292961 -0.7329845188611689 67 36 18
-0.0498597584690484 0.15584339736724848 -0.7351455342433674 68 37 19
-0.05587898807995689 0.16068638040324257 -0.7356656679059171 68 37 19
-0.06139610722552133 0.1651163721312077 -0.7363986825854776 68 37 17
-0.059723451020808484 0.16362078650994674 -0.7405190428563815 66 35 15
-0.07322297655758662 0.17405108239905978 -0.753963454255392 82 55 41
-0.06644879619031975 0.16834734032654966 -0.7605911624553459 65 39 20
-0.06175751214286081 0.16436065192892046 -0.7662261946032133 58 29 10
-0.06267116696713076 0.164997015395383 -0.7691167744040027 59 27 11
-0.060107529189131946 0.16276458552160822 -0.7737288391755952 68 37 19
-0.0622774423552084 0.16443739077599703 -0.775996951010523 73 42 24
-0.08791978836040859 0.18362267616380631 -0.8193884255930579 73 37 18
-0.09160208664336852 0.1865494606101873 -0.8207298641536346 75 40 20
-0.10850961866536053 0.2001778714333279 -0.8214830323432197 79 42 23
-0.10029984658315644 0.19304310478158357 -0.8358441488824284 86 50 28
-0.1004042643636966 0.19301344480310229 -0.8390897013373926 85 48 24
-0.09156869209437465 0.1853558954934287 -0.8539454902017238 88 47 22
-0.09824514175576121 0.19076254058157294 -0.8535295149602504 89 49 23
-0.11135317850501074 0.201491636021633 -0.8494642172461678 90 50 21
-0.11584391172617674 0.2050920876024234 -0.8502146055948466 90 51 23
-0.11822627929579209 0.20694839008146942 -0.8521434767541317 90 53 23
-0.11966373608290708 0.2080229655565753 -0.8546018760100609 92 57 25
-0.12112373926510497 0.20911636597291505 -0.8570427358165918 97 63 35
-0.11297090156151449 0.20225258369865518 -0.864997501960096 97 63 37
-0.1171319005915277 0.20558162359194554 -0.8658934324177633 90 59 34
-0.11114325706309394 0.20050797514857946 -0.8726441906686028 89 58 36
-0.10867164185688902 0.19834549476574165 -0.8773806734067072 84 55 34
-0.10672772307500032 0.19661955457462937 -0.8818221283775822 77 52 32
-0.10472282633252125 0.1948427544183587 -0.8863095073127081 74 53 35
-0.10459645993697961 0.19462147187186707 -0.8897041582430582 72 50 34
-0.10348219580689258 0.19358181048612713 -0.8936834227934827 71 44 31
-0.10660995508527747 0.19605601733859024 -0.8951592710814494 66 38 24
-0.10627167726125471 0.1956591090351381 -0.8986815296102675 66 38 24
-0.09675626176319471 0.1876583074990778 -0.9076776406337339 64 36 22
-0.10195708819693045 0.19185035637752965 -0.9079123471256311 64 36 21
-0.10194574147611787 0.19172376139649863 -0.9112558800870665 65 38 21
-0.10409608963220038 0.19338869555807872 -0.9132982066001577 71 44 25
-0.10195605830785029 0.19149774784330037 -0.9179282358880709 75 48 30
-0.10368786870731461 0.19281595242481125 -0.9202185575864428 78 52 35
-0.09918673350632065 0.18896711098992586 -0.9263012047161464 80 53 35
-0.09859705705141858 0.18836050288140638 -0.9300132368868086 81 53 33
-0.09950493171550727 0.1889954803159875 -0.9328103666054567 82 55 33
-0.0994025224836145 0.18879275438789872 -0.9362275581795221 82 54 31
-0.09581795419172515 0.18570207748063933 -0.941799793308859 83 53 30
-0.0958139719281938 0.18558056416108187 -0.9451679839129918 83 52 31
-0.09689575652571106 0.18635962309953957 -0.9478618065609397 82 50 28
-0.11491994182912663 0.20025679530016358 -0.966639933343323 103 81 68
-0.12768928456965867 0.2107414545790832 -0.961746093715162 106 84 71
-0.1310766802762696 0.21343774482572248 -0.962869005708458 106 84 71
-0.13234278051857234 0.2143729200400558 -0.9653561409836172 105 83 70
-0.13300905189178036 0.21481007156804546 -0.9682302091168407 104 82 70
-0.13512030364089395 0.21644745005283483 -0.9701580950037447 104 82 71
-0.13737493429931924 0.2182042007746655 -0.9719841485887579 97 74 63
-0.13866400436586343 0.21915911265347432 -0.9744375222352787 106 82 72
-0.1422962315452892 0.22206091658122284 -0.9753388386734037 105 81 70
-0.14686873810774748 0.22574451268094628 -0.9756022734674072 111 87 75
-0.1415064219480934 0.22117312601587188 -0.9824547581686695 108 84 72
-0.14144507668869077 0.2210062558629719 -0.9857953113565732 108 84 72
-0.1507055941362867 0.22858707227919195 -0.9828958090647376 108 84 72
-0.15144895933597666 0.22908968811968505 -0.9856787150611324 108 84 72
-0.15128786267040506 0.2288404864800609 -0.9890696710671989 108 83 70
-0.15142717927263408 0.22884095614472744 -0.9922598548455919 104 77 64
-0.15242084689806132 0.22955174203821793 -0.9948713357292239 96 69 53
-0.15342058641882939 0.2302676746237411 -0.9974759004947368 92 62 41
-0.15606352812701216 0.23235021291613805 -0.9989551689488838 95 61 34
-0.15760644958235137 0.23351823282975867 -1.001178129519908 89 51 22
-0.15929062041692932 0.2348039248045548 -1.0032986975818718 85 44 14
-0.15932858458382831 0.23472042769862667 -1.0065490291160561 86 45 15
-0.15972668640588017 0.23493648624909164 -1.0095516167366638 87 46 16
-0.16072122815602352 0.2356487915597006 -1.0121399366578387 84 43 15
-0.16135498172501278 0.23606098790576913 -1.0149767957304259 83 42 14
-0.163691206980528 0.23788996634218815 -1.0166226119448822 84 43 15
-0.16443917859809662 0.23839743796868818 -1.019373186234045 84 43 14
-0.16453306932138037 0.23836056059114252 -1.0225821670500261 84 43 14
-0.16784145191918082 0.24099939942245296 -1.0235239621875727 86 46 18
-0.16821216425492055 0.24119313867177677 -1.026532215797926 86 49 20
-0.1683797717538364 0.24121777968739255 -1.0296847292392466 85 48 21
-0.16887004768190372 0.24151105604452583 -1.0326082737637636 84 47 20
-0.169758523317624 0.24213594155223894 -1.035246667094754 83 48 21
-0.17064638843687716 0.24276040083869566 -1.0378831572202314 84 49 22
-0.171029154304233 0.2429642535106512 -1.0408806270192748 83 51 25
-0.1726449632559124 0.2441951873751193 -1.0429883163944882 84 52 27
-0.1722309288798285 0.24373537283488955 -1.046559653144142 85 55 31
-0.17331103857126734 0.24452023841401505 -1.04904963334549 85 56 32
-0.17408331733789928 0.24504873150323114 -1.0517606163690254 84 56 35
-0.17447562246887743 0.24526066305618066 -1.0547474153390728 84 57 36
-0.1718795857629924 0.24298222470780298 -1.0599244399458905 83 56 35
-0.18142454352481888 0.250822137044146 -1.0561885303387637 83 56 35
-0.1654704917957031 0.23729360914761463 -1.0745165473741305 78 52 34
-0.16261133549019166 0.23479401989610266 -1.0799398633247572 71 47 33
-0.1577368387102452 0.23061359439614457 -1.086878094994152 60 41 31
-0.15650723311320291 0.22947159605888112 -1.0911188734720623 45 30 22
-0.1576971465436273 0.23034703491505443 -1.093554939544399 45 28 20
-0.15833086538625746 0.23075873556405588 -1.096405113720008 52 32 22
-0.15703482288330523 0.22956089279519676 -1.100708208004691 61 35 24
-0.16067787943102754 0.23248280567212304 -1.1012859957660737 70 40 27
-0.1648204845866744 0.235821990355233 -1.1014701175680959 77 41 23
-0.16516272971533819 0.23599104137400015 -1.104526704038642 81 43 20
-0.16849258812749346 0.23865297175207778 -1.10530486193554 85 48 20
-0.1731845746761928 0.2424520570027568 -1.1050274740128472 86 50 19
-0.1751707860118637 0.24399368503202834 -1.1068063159815507 87 52 23
-0.17718727513583152 0.24556084452672508 -1.1085544502036246 88 53 25
-0.1757126572793436 0.24421413963995514 -1.1129896862044368 87 53 26
-0.17652775096206313 0.2447786107630993 -1.115660812438838 85 52 26
-0.1788468110284859 0.24659880117924352 -1.1171621337330246 84 52 27
-0.1797221110815827 0.24721380728051504 -1.1197788465707144 85 53 28
-0.17587672234699617 0.24388687078257726 -1.1260804205426993 86 55 32
-0.17768996191360065 0.2452849622707868 -1.127968626139065 84 55 34
-0.18536817081355414 0.2515817948039216 -1.1252422245486373 83 55 34
-0.1810233091625202 0.24748890007829488 -1.1418671043235624 83 57 37
-0.17361918884575328 0.24118571646402232 -1.151076945500857 70 47 31
-0.17581343038830832 0.24290263294471887 -1.152648535849645 76 59 46
-0.17633938323076526 0.24322551847221116 -1.1555494228267489 99 89 76
-0.1765377686754691 0.24327462684299572 -1.1587130271896053 140 133 124
-0.17159212110309754 0.23902357667099974 -1.1660260070539787 168 164 161
0.00011828403364648465 0.14929793174515787 0.11483693097723842 138 118 109
-0.008668018904290448 0.15624464515893996 0.11117549224385356 142 113 99
-0.017103280469530982 0.16291068109497975 0.10757032783163599 143 117 104
-0.020540481674359845 0.16556555146186996 0.10433745174960951 104 84 77
-0.02409554033393642 0.168315441277711 0.10110825169929442 119 93 79
-0.024162317007892592 0.16826505346583678 0.09811658323063475 89 54 29
-0.026703447797207944 0.17020141303920006 0.0949684203399472 72 36 11
-0.029430502354710175 0.17228735692233316 0.09181710035318374 67 34 11
-0.030426752476653662 0.1729836297645196 0.08877679093227069 66 34 10
-0.028448029133384137 0.17129063816463486 0.08590878613099885 65 34 10
-0.028023338846000556 0.17084555964171289 0.08294606660323396 64 32 9
-0.027778713833077118 0.1705450192051244 0.07997073031291946 64 31 9
-0.02806086728076901 0.17066758288580486 0.07696595072869916 64 29 8
-0.027421833178217003 0.17005004183074557 0.07400649821716383 67 32 12
-0.028138672742014842 0.17052178145003544 0.07097856109542372 69 34 14
-0.02711539816478624 0.16959530937738032 0.06803161632699622 69 34 14
-0.026960007999832225 0.16936609316256013 0.06504128289689529 71 38 16
-0.027857167398302976 0.16998271494830947 0.0620047252138083 70 38 15
-0.028088515280722537 0.17006426582131884 0.05899686252485466 67 35 13
-0.026638890768755294 0.16879462092613323 0.056052719824989036 67 35 14
-0.028551600797549967 0.17022762457790597 0.05297950581271005 66 31 11
-0.027919771312043012 0.16961517741533894 0.049999750725295736 66 31 11
-0.02904733549737569 0.17041715838080174 0.04695893088205358 66 31 11
-0.028421122120090125 0.1698090775097812 0.04397471069224562 66 31 11
-0.028581750649591176 0.16983359309401286 0.04096407680068703 66 31 11
-0.028648040145842157 0.16978221271758834 0.03795516475632778 66 31 11
-0.029085938579288192 0.17002966524943958 0.03493581357859375 65 31 11
-0.029698306418325576 0.1704174581429657 0.031912684585026725 61 30 9
-0.02917470276867043 0.16989150526978752 0.028914477111555155 61 30 9
-0.028875747329074317 0.1695461557232275 0.025908531399491647 62 31 10
-0.0292716070137629 0.16975971943580317 0.022887978382894164 67 35 14
-0.029986443637295926 0.17022993498747635 0.01986258548804269 66 35 14
-0.02975922185432507 0.1699421525603837 0.016851229711664226 63 32 11
-0.029762492799512374 0.16983977542333603 0.013834902449893266 62 31 10
-0.029801232231193103 0.16976589400574543 0.010816814592738477 62 31 10
-0.0305463804755053 0.17026053243191794 0.0077919343674506675 60 29 8
-0.029114187505689518 0.16900260735937656 0.004781296532901214 61 30 9
-0.028284463769980853 0.16822942912232342 0.0017613574943314662 61 30 9
-0.027554149529814456 0.167536121735317 -0.0012633920997491277 60 29 8
-0.027646005463493814 0.16750462277550698 -0.004292499531715153 60 29 8
-0.02731827225059115 0.16713523338521977 -0.00732342867974551 63 32 11
-0.029774748019113784 0.16900777728561056 -0.010346835500310656 64 32 11
-0.029190884933032124 0.16843211638586528 -0.013379250012208202 64 32 11
-0.02978126770743386 0.16880206364166506 -0.01640653350128241 64 32 11
-0.029360972162165197 0.1683579731276973 -0.01944250966305421 68 36 15
-0.029793736436460896 0.1686009435076181 -0.02247186963875726 68 36 16
-0.03020307439371013 0.1688250492988083 -0.025501320941097607 69 37 16
-0.030211710093875105 0.16872632749356042 -0.028536721923431728 67 35 14
-0.030594355262899844 0.16892890825589488 -0.03156714009662233 64 33 13
-0.030837263177065075 0.16901888973134777 -0.0346001883925185 58 28 9
-0.03023772834147391 0.16842995709771602 -0.03765138319262419 57 28 11
-0.029897238493220887 0.16804966688317424 -0.04070040780446438 54 26 12
-0.028702459986959014 0.16698072372825148 -0.04377335947770784 50 23 11
-0.030207944378517176 0.16808816384502812 -0.046780245536894735 49 23 10
-0.033378738283067436 0.17053821863749302 -0.04973510298260862 51 25 10
-0.03503125272894497 0.17176460915698225 -0.05272558838682827 52 26 11
-0.037002313321658944 0.1732480048055396 -0.055700802939343486 52 26 11
-0.037093806550907736 0.1732160524106673 -0.05873454665690671 50 24 11
-0.040984153570743156 0.17624746863954938 -0.061631319869684106 48 22 11
-0.044597567965983256 0.17905601946358735 -0.06452512098455485 71 51 43
-0.049563385640362535 0.18295576959394352 -0.06735203706854093 109 90 83
-0.0651207972086209 0.1953993658691901 -0.06971490576545267 76 51 37
-0.07155637173264967 0.20048667642629225 -0.07242106939938711 105 79 62
-0.07519611896221817 0.2030086307172672 -0.08415606272757778 61 30 11
-0.07691561555229455 0.2042926242681825 -0.08704103951211589 59 28 8
-0.07752778784486003 0.20468310516496369 -0.08998243594210421 60 29 11
-0.07845205153046944 0.20532552191359793 -0.09290489381245559 58 29 10
-0.08008388795659016 0.20653917485286932 -0.09578303759988 64 39 23
-0.08102233614543133 0.20719324110088866 -0.09869891703843707 97 74 62
-0.08662521803031781 0.21161319965219014 -0.10131660591926966 100 71 58
-0.10271348343873589 0.22419334822111153 -0.11203408278610136 111 83 73
-0.11353243399818122 0.23282936788012823 -0.11418046938174992 125 93 82
-0.11293689098038612 0.2322467140810206 -0.11714362880448567 159 133 118
-0.11097253670393427 0.23055817650761318 -0.12021600629584375 166 142 124
-0.11570350004217633 0.23427839541898265 -0.12276835416175247 142 113 95
-0.12358542251639575 0.24054504656795772 -0.12504849957811565 111 75 49
-0.12040963509502076 0.237877818289485 -0.1282162493525369 92 50 18
-0.11767835163567547 0.23556931015658666 -0.13136006395958225 89 47 15
-0.11668635073276501 0.23466600156446585 -0.13436492008406578 85 44 15
-0.11743878124847985 0.23517240870010536 -0.13722017133905806 80 41 15
-0.11506390301091034 0.2331510760876453 -0.14035765901036107 72 36 14
-0.11151508509268608 0.23018039964146286 -0.14361466227474948 69 35 16
-0.1174575877340157 0.23488228708316689 -0.14598855790117612 67 36 21
-0.11774418599680356 0.2350121305668773 -0.14888702665464093 66 40 27
-0.11729764934486231 0.23454917382777296 -0.1518580441466809 67 45 33
-0.12599021249658313 0.24147632677686937 -0.1539134389128395 68 48 37
-0.12575184279799329 0.24118211998659467 -0.15685151278238071 69 49 38
-0.127115370959845 0.24218340549442516 -0.15962459430970835 68 48 37
-0.11624070791303032 0.23328605952478898 -0.1636960945412347 66 47 37
-0.11355669210047523 0.23101268131320635 -0.1669239854321886 64 46 36
-0.11137050749556832 0.22914162188775308 -0.17010890091675532 64 46 36
-0.10928300298028569 0.22735005086234678 -0.17329274364548497 65 47 37
-0.09869803509347785 0.21868270962667286 -0.1774573021457014 65 45 36
-0.10312272065778073 0.22205605633592723 -0.18288999051781568 63 43 34
-0.09439551194550254 0.21374171732160727 -0.21987888787965995 61 42 35
-0.09751740104274688 0.2161662614455564 -0.22243550338731943 60 41 34
-0.0982230267198031 0.21663349021981992 -0.2253336690080938 59 40 33
-0.09620867311955966 0.2148968070727587 -0.22863265693587081 57 38 31
-0.07596147307788426 0.19795993700707362 -0.24687491024648242 59 40 33
-0.06926880755591497 0.19242786580415472 -0.2509983661466801 57 38 31
-0.07061345272608961 0.19341122101001165 -0.2538497750022168 55 36 29
-0.07224421745732709 0.19462670767399848 -0.2566504620372381 55 35 26
-0.08316728652159616 0.20327153931561456 -0.2609516582648978 56 36 25
-0.07880257703741787 0.19962547167507821 -0.26473965903029506 57 37 26
-0.07605742505829186 0.19729239580241775 -0.26826842327953654 58 38 27
-0.07096152457680069 0.19305199359273167 -0.27221800188385203 57 37 26
-0.0677889114794166 0.19037110809731195 -0.2758514534240488 54 34 23
-0.07553217343047347 0.19654604803694448 -0.2775591411593282 51 33 21
-0.07007078858053062 0.19200783917810038 -0.28161044387421613 52 34 22
-0.07075054393656441 0.19245213136273964 -0.2845691430491673 54 36 24
-0.07492956119490626 0.19573623427906545 -0.2868837549785406 51 33 22
-0.07394333702458271 0.19482874133795478 -0.29014239952495746 46 28 18
-0.07845936122374986 0.19838708444974967 -0.292373619150742 42 23 14
-0.07232019897321873 0.19329673702011813 -0.2966097459818995 49 31 21
-0.06838471727979878 0.18999445607366727 -0.300449471492147 49 30 20
-0.07333989331456006 0.19390973975223302 -0.3025840951588906 59 42 32
-0.0723945066873352 0.1930346897016028 -0.3058552907142434 75 57 47
-0.0729771985793174 0.19340028848120938 -0.30882961454098445 76 57 45
-0.0734770866189785 0.1936986721305067 -0.3118196398620457 58 30 16
-0.062409257258824756 0.18460221645515212 -0.31714305375943136 56 23 5
-0.0761017593047362 0.19561528482482704 -0.3174670665688999 59 26 8
-0.07639501171881878 0.195745984705587 -0.3204948252197174 60 26 9
-0.07831423847314346 0.19719756893543264 -0.3231850415442624 61 29 13
-0.0711863414157943 0.19129910832742808 -0.3277671657253715 66 36 20
-0.06897370264406907 0.1893933018114856 -0.33133835711843235 70 42 27
-0.06546088003182335 0.1864306262600009 -0.3351979979533147 63 36 24
-0.06131189615045409 0.1829504270943636 -0.33921062972214666 30 14 7
-0.06039933914503296 0.18209990919718178 -0.34253640691733783 26 12 3
-0.06019834650324624 0.18182756436796935 -0.3457109285286426 47 31 19
-0.05486481463653597 0.17738308712445577 -0.35002671126182716 42 26 14
-0.05459302680315664 0.1770526668616925 -0.35323212729010983 41 23 13
-0.06079409856160735 0.18198461333855548 -0.3549776765119993 40 20 13
-0.06264772148491435 0.18338258162765986 -0.35769075220049257 45 27 16
-0.06221764433476887 0.18292377972736135 -0.36092308126424677 49 31 20
-0.06551259682792815 0.18549411356066808 -0.3632944310599523 43 26 19
-0.06896847891662068 0.18819574030715325 -0.3656163054669357 35 18 13
-0.07265166367367776 0.19108267924474545 -0.36787204974473664 51 32 25
-0.07365544804024296 0.19179058965576984 -0.370752324406164 62 39 29
-0.07269828067129702 0.19090336031791072 -0.3741009072657928 64 37 26
-0.07276371559556043 0.19084789890331505 -0.37720727955710875 61 35 22
-0.07020749628737079 0.18855033578233849 -0.38408537851479385 61 35 19
-0.06529281460775385 0.18444183461394653 -0.38843723772630745 65 39 23
-0.06452781865064794 0.18370980841372522 -0.39177207030798583 75 45 30
-0.07121502624046679 0.1890431276121997 -0.39323134256900205 75 39 22
-0.07421413547589234 0.19137525749914824 -0.39560296261051664 73 36 17
-0.07295541650937606 0.19024161864899092 -0.39905549691051795 74 36 17
-0.07650658213941891 0.19302363811171214 -0.4012717717830692 77 38 20
-0.09456038227586802 0.20761422320636885 -0.3996979457798061 73 32 14
-0.09998754154300782 0.21192574930696423 -0.40136635126635706 72 32 15
-0.10950555088604302 0.219355867374959 -0.4080644827244742 114 90 77
-0.11229142099671673 0.2215182989940026 -0.41037898294915137 90 56 33
-0.11021894411142717 0.2197233136519234 -0.4140084390953659 79 43 17
-0.11128594402672838 0.22048572014310788 -0.41678534000643824 81 41 15
-0.10371739845142847 0.21421221183837985 -0.4219495559091635 77 37 12
-0.10378966717963355 0.21416365064797838 -0.42501576999463475 76 35 11
-0.10636451789755622 0.21615444142916795 -0.4273802840190585 78 36 14
-0.11028756038057425 0.2192443060696625 -0.42935432562593034 80 44 22
-0.10255780424033369 0.21283696188347015 -0.4346345632220116 79 48 27
-0.09360082895544014 0.20542811806712608 -0.44030025742775475 78 52 32
-0.04164540755555351 0.16217896877744342 -0.4810275766222256 64 37 20
-0.03845378920234412 0.15946274017412215 -0.4852366933479216 64 37 20
-0.03534809780614296 0.1568161013634042 -0.489434126113142 65 38 21
-0.034537172731069245 0.15604130179668285 -0.49293538858031277 65 38 21
-0.033627007967518906 0.15518535147363915 -0.49647253160891386 65 38 21
-0.03293496139116381 0.15450721240408677 -0.4999465940278795 66 38 22
-0.03369811986048462 0.15501655930527303 -0.5029655064050759 65 36 22
-0.03660738886267173 0.15727762671579695 -0.5053006103259824 63 34 19
-0.036804803402566214 0.1573254318597313 -0.5084930166202678 62 33 19
-0.03700231201919616 0.157373286330997 -0.5116861817275976 64 35 19
-0.039093523521916994 0.15896717253879494 -0.5142663682998525 63 34 18
-0.04031851025930274 0.15985403747151133 -0.5171220503305171 64 35 19
-0.042316369054980714 0.16137212366715353 -0.5197205695730877 65 36 20
-0.04387230832652396 0.16252955409324443 -0.522458392553913 66 37 21
-0.04205405158987519 0.16093141467872005 -0.5263129379824132 67 38 22
-0.038401781291845474 0.15783496777619363 -0.5307900521031214 71 42 26
-0.03723142364360602 0.156765297770914 -0.5344486574637668 71 44 25
-0.0352220251522704 0.15500996782338286 -0.5383978517613905 71 44 25
-0.03541851301206155 0.1550564973065256 -0.54160546901557 72 45 26
-0.036435427351096734 0.15577334557875067 -0.5445326664461715 72 46 27
-0.03608634981430498 0.1553740733870893 -0.5479283238406205 70 44 24
-0.03418209802322836 0.1537037811980424 -0.5518665974479491 69 43 23
-0.033906923939045285 0.15336458275809842 -0.5552458447816687 69 43 23
-0.03225968408900218 0.1519038151081631 -0.5591095923852647 70 41 26
-0.032616746824427466 0.15208113560436728 -0.5622739473029794 70 41 26
-0.032893728706989485 0.15219298463233133 -0.5654668929563618 68 39 23
-0.030789441684882315 0.15035794294909743 -0.56951126162373 66 37 19
-0.03076322902570985 0.15022167859306212 -0.5728191047311378 64 35 17
-0.03609905698768547 0.15447002158891032 -0.5741901833454451 65 36 18
-0.03795648525382252 0.15587446052171558 -0.5768054015656371 65 37 19
-0.03995040345463766 0.15739074379999266 -0.579364574563531 67 38 20
-0.039801319582159954 0.15715440915373113 -0.5827052220103685 69 40 22
-0.039590292751884436 0.1568673258039977 -0.5860710344822909 70 41 23
-0.0315856967210194 0.1502043321993883 -0.592338386160255 70 41 23
-0.031342615284989786 0.14989027987511713 -0.5957375358607991 73 42 24
-0.030797270766444975 0.1493288131659805 -0.5992530466102932 73 42 23
-0.031574700940536035 0.1498496446826437 -0.6022721333712059 71 40 20
-0.03207457995245902 0.15014339025845636 -0.6053951739312616 70 39 19
-0.03281213477097397 0.15063167789591664 -0.6084268627756109 69 38 18
-0.03241807903238253 0.15019376389214908 -0.611892266910613 67 36 15
-0.03410709006720072 0.15146093050156983 -0.6145555482440647 66 35 14
-0.03533269515663654 0.15234890942917823 -0.617393532373216 66 36 15
-0.03626960362224474 0.153000641456735 -0.6203408511301037 70 40 16
-0.03627456278219243 0.15288935630687756 -0.6236520951086704 76 44 19
-0.03830276409564137 0.15443483006633163 -0.6261656584944283 86 52 26
-0.03817304229367042 0.1542132808902503 -0.6295293903078925 89 53 26
-0.0382501076306863 0.15416102182197958 -0.6328127523189649 90 56 27
-0.039318630783215756 0.15492083096579518 -0.6356994869965944 93 59 29
-0.03953326002569868 0.15498124261692822 -0.6389279044993414 94 63 35
-0.03898282373200125 0.1544148421147828 -0.6424673771901 92 60 34
-0.03952158134934836 0.15474071424615934 -0.6455667512563835 89 57 31
-0.03930691308000988 0.15444924695295956 -0.6489742733848695 89 55 29
-0.04431671425801243 0.15843903181274221 -0.6502322284270856 88 55 24
-0.045018225540182616 0.15889862751756903 -0.6532544936559469 85 52 23
-0.044283897094640624 0.15818141760052068 -0.6568729838999275 84 50 22
-0.044750691697327497 0.158448601972725 -0.6599938328452655 79 45 18
-0.04535324650736964 0.15882709011710747 -0.6630572877573505 77 43 18
-0.04422977981507065 0.15779053604265117 -0.6668491076204887 75 41 16
-0.046168660606698886 0.15926464065889664 -0.6693469828301949 74 40 15
-0.04531769025606322 0.15845131114055247 -0.6730288616223494 73 39 14
-0.044831777327161024 0.1579371702835555 -0.6765594454864067 72 37 15
-0.046784771088514164 0.15942315014991654 -0.6790426034612319 72 37 17
-0.04491595119212513 0.1577746477421227 -0.6831744127806086 70 37 16
-0.04709018244280436 0.15944228577500552 -0.685556130809058 69 37 16
-0.04681229697583631 0.15909855922967592 -0.6890027379066126 70 38 17
-0.045083973133010755 0.15756473882120253 -0.6930896418371018 70 39 18
-0.04239196164629096 0.1552398871030026 -0.6976111435766319 65 34 16
-0.04047228014010658 0.15354834174122847 -0.7018030537937877 62 31 13
-0.03901678746066507 0.1522373949303082 -0.7057978409327473 63 32 14
-0.037264148810971696 0.15068229596166344 -0.7099336272025071 65 34 16
-0.03667970489620269 0.14996880456117095 -0.7169116522851822 65 34 16
-0.03994308445150689 0.15253090268152528 -0.718789384533228 64 33 15
-0.04122904424709267 0.15346990322672435 -0.721557633317028 64 33 15
-0.04216966717652684 0.1541254783193856 -0.7244804674343756 65 34 16
-0.04220969602096915 0.15404158470776957 -0.7278159655059804 65 34 16
-0.04640051359116319 0.1573664933119801 -0.7292313780008284 64 33 14
-0.04893718612392546 0.15933336987651728 -0.7313998657588728 65 34 14
-0.05090953162041524 0.16083702563138255 -0.733822844701455 67 36 16
-0.05878665437918429 0.1671915629225185 -0.7334675466663014 67 36 16
-0.06357467434500982 0.17100935567573677 -0.7345367191965447 65 36 17
-0.060752218119264595 0.16857482891421152 -0.7391917609912463 65 37 16
-0.06408657530651785 0.17119888904173314 -0.7409311801395672 67 39 17
-0.06654695986757983 0.17310517869998016 -0.7430756715785902 71 43 24
-0.06890932533906077 0.17493122085747156 -0.7452583269798885 76 50 33
-0.07147539917764203 0.17692499147939034 -0.7473342671645998 82 55 38
-0.07251019860177538 0.17766037882961433 -0.7501425724257692 81 53 37
-0.07258605278572691 0.17760753736806031 -0.7534146530394563 64 35 19
-0.06474469992603685 0.17104551145292662 -0.7605570965841308 53 24 8
-0.060392730992411194 0.16735131376994694 -0.7660222324943539 56 27 11
-0.06447762001184731 0.17059403906597417 -0.7673484927709266 57 28 11
-0.06412391872971908 0.17018712999469152 -0.770856579584999 64 33 13
-0.06660645294800689 0.17211277318457524 -0.7729574102797241 71 40 20
-0.06441100805074522 0.17019097244136597 -0.7773856586825151 76 45 25
-0.07986064711417068 0.18162991042967536 -0.8061139014791556 73 38 18
-0.08485726287361994 0.18562857724534443 -0.8068117950423211 75 40 20
-0.0865714535614572 0.1869248471030932 -0.809221438796682 73 38 18
-0.08816269103563174 0.1881200559466726 -0.8116904480410853 71 36 16
-0.0915121512351317 0.1907636183988291 -0.8132189663568015 69 34 15
-0.0912260414387806 0.19041289435305278 -0.8166763674571325 71 34 16
-0.09211082615729876 0.1910266606725162 -0.8195087591397947 71 34 16
-0.09548264269700558 0.19368952707179385 -0.8209998208871903 75 38 19
-0.10450308356426974 0.20054955818999615 -0.8325659765771005 86 48 26
-0.09698957788011711 0.1942413585265481 -0.8399995621217711 86 47 24
-0.09362716979803021 0.1912387153085677 -0.8484858368802363 87 45 21
-0.09660546652594426 0.1935789924322406 -0.8501421095613351 88 46 22
-0.10373549546470733 0.19934336156697893 -0.8494609323572154 89 49 22
-0.11585543331597467 0.2092240322205835 -0.8459436018090676 90 51 22
-0.11412348432429385 0.2076815189796812 -0.8501963606613789 92 53 24
-0.11512223358508335 0.20839115941159952 -0.8529104964552512 95 57 28
-0.11802151739148267 0.2106687363831477 -0.8545404543945014 95 59 30
-0.11996960169907896 0.21216193526744892 -0.8567027134778945 98 64 34
-0.1121608392518334 0.20560499294721435 -0.8644528469120708 98 64 36
-0.11048181715169689 0.20410492070026 -0.8687105588684191 93 61 34
-0.1116300860743959 0.20493776540193626 -0.8713436825209253 89 57 33
-0.10905700970656085 0.20269938946004754 -0.8761318395729731 87 56 34
-0.10485801824591431 0.199118520430634 -0.8818795985498935 77 51 34
-0.1040235843573855 0.19831433535326476 -0.8856812474261286 75 52 38
-0.10380188188599994 0.19801581010937835 -0.8891288237347079 75 52 37
-0.10369494513406183 0.19781194686052356 -0.8925114896576344 69 43 27
-0.10565286725819034 0.1993129892463041 -0.8946759689557396 66 40 25
-0.10549438077383538 0.19906656466502176 -0.8980889876234973 64 38 25
-0.1049570886019303 0.19850721398574495 -0.9017299423241024 62 36 23
-0.10096663144109051 0.19509560342577056 -0.90743864647074 60 34 20
-0.10091179172640644 0.19493421991700147 -0.9108059607019272 60 34 18
-0.1010866146978243 0.19496249247320316 -0.9140369509666127 67 41 23
-0.10135242465346161 0.1950659037876789 -0.9172138908827625 74 48 29
-0.10254447626547451 0.19593460474221464 -0.9198296318519396 79 52 35
-0.10275455559439318 0.19599199891437258 -0.9230394986021025 79 52 34
-0.09994566924132038 0.19355447814987597 -0.9280943675011231 80 53 32
-0.10669773677447478 0.19901842108388165 -0.9273016048012295 81 53 32
-0.09304501412690083 0.18761758128475653 -0.9390359075322647 83 55 32
-0.09412143397221351 0.18839021842036952 -0.9417367959979889 82 54 30
-0.09468018443208764 0.18873499766964946 -0.9447554519441551 81 52 28
-0.09619209830464633 0.18986786997785832 -0.9471805168910186 82 51 29
-0.09080722633558258 0.18518060201559297 -0.9572828892712583 82 50 26
-0.09495778265792285 0.18849556254407154 -0.9580529375540484 82 50 25
-0.09701057165878833 0.1900760420537248 -0.9601296296445972 81 51 26
-0.11777932720199645 0.20667491049461684 -0.9636580305559334 105 85 74
-0.12193048808550493 0.20999429483720417 -0.9643149907523849 106 86 75
-0.12494462113439035 0.21237321169788906 -0.9656901540959714 104 84 73
-0.1263769363834693 0.21344323470715587 -0.9680796429977847 106 86 75
-0.12830492282383932 0.21492373694513617 -0.9701418017349703 106 86 75
-0.13023836059086547 0.2164089929389249 -0.9721934851853596 104 81 69
-0.13304065857306735 0.2186138668441341 -0.9736687968487545 97 74 60
-0.13486531363288412 0.22000959868101536 -0.9757761791893914 103 78 65
-0.13861708950255106 0.22300142298456743 -0.9766054873309958 104 79 66
-0.13496540530247242 0.2198623196934152 -0.9823214181005796 106 84 71
-0.13498746714166032 0.21976542511913016 -0.985614836969616 109 87 74
-0.13539800136815966 0.2199902634543327 -0.9886509125252526 112 90 77
-0.1402217946339767 0.2238711458903005 -0.98873521801174 110 88 75
-0.14057594440933768 0.2240496242628941 -0.9917989467224505 111 88 75
-0.14356037519162718 0.226407491544504 -0.9930918205946205 111 86 73
-0.14916389017254292 0.23093608636920704 -0.9926036826575274 105 79 66
-0.1514320011809911 0.23270133526369424 -0.9943527621648118 101 72 57
-0.1552649481912817 0.23576383604692028 -0.9950291856612662 92 59 39
-0.15529678738456598 0.23567617486473963 -0.9982835032260765 87 51 25
-0.15678250192215837 0.23679367785497726 -1.0005441303875588 84 43 15
-0.1581681185467711 0.2378283691087577 -1.0028685001401925 86 42 12
-0.1577093434669039 0.2373339858792754 -1.0064591767893125 87 43 14
-0.1587799075932944 0.23810760685347915 -1.0089963815938519 87 43 14
-0.1601771222392191 0.2391522228733372 -1.0113038971737045 88 44 15
-0.1596517888041105 0.23860251223006773 -1.0149445184730848 87 43 14
-0.16130108174328883 0.23985638259545572 -1.0170711697377024 87 43 14
-0.161660289108606 0.24004030335261112 -1.02009553713025 85 41 12
-0.16571284897722768 0.24328821747243282 -1.0205250847041083 84 43 14
-0.16598585114884734 0.24340090197858572 -1.023601994210988 86 46 17
-0.16631768923587634 0.2435623901605985 -1.026637751801586 88 49 20
-0.16760924618116135 0.24452027889578276 -1.0289929002317544 86 48 19
-0.16747075954916102 0.2442915014697006 -1.0323615540624114 84 47 18
-0.16755543476728824 0.24424786583656152 -1.0355732085176341 83 47 20
-0.168976182795229 0.245313219062485 -1.0378293197783002 83 47 21
-0.16976040778801574 0.24585032867107945 -1.040537976860243 86 52 27
-0.17158997359752787 0.24725537476893586 -1.0424913861643654 86 54 29
-0.1731236740915074 0.24841499208695278 -1.0446520817034335 85 55 31
-0.17226078727839006 0.24758469980145353 -1.0485456096926817 85 55 31
-0.17306544972188864 0.24813905419246574 -1.051231579931049 84 56 33
-0.17262707802101673 0.24766108178089757 -1.0548227365639031 83 55 33
-0.1700974530333913 0.24544593627514394 -1.059948512778172 83 55 33
-0.17311861211474677 0.24784138408924317 -1.0610113304780764 82 54 33
-0.17410021280701854 0.24854282277210493 -1.0635644622595108 82 54 33
-0.1651339246513166 0.24097903889771072 -1.0734652779998435 79 52 35
-0.16259958075650066 0.23875833900545818 -1.0786414653152954 71 47 32
-0.15663611885858264 0.2336875101416895 -1.0863803230227835 62 42 31
-0.15616887221573322 0.23318357780640314 -1.090049368270927 46 30 20
-0.15593696714707322 0.2328751223379957 -1.0935462271954568 40 25 16
-0.15655606314386636 0.2332739721894046 -1.0964073567105475 46 26 19
-0.15719629967714405 0.2336904354727677 -1.0992514703978886 57 34 24
-0.1554596928507543 0.2321307901918469 -1.1038886092771742 62 33 20
-0.16221259554116874 0.23762981577108422 -1.1021074471780135 76 40 22
-0.16271984475404994 0.23793611328280634 -1.105040394898529 83 42 23
-0.16345197092951086 0.23842945225400153 -1.1078014422389597 85 45 22
-0.17968139763527 0.25181252465984805 -1.0987203403127097 86 49 22
-0.17070452713490297 0.24423110859602862 -1.108882887575025 87 50 23
-0.17202741998924498 0.24521653719955427 -1.1111716792878072 86 51 23
-0.1739039830923419 0.24666275802609272 -1.1130292814335931 86 51 23
-0.17522677299838127 0.24764844856019388 -1.1153081685905832 83 49 23
-0.1765964517314761 0.24867330884178507 -1.117546331187628 81 49 24
-0.17926349472884262 0.2507780164319888 -1.118770808734134 83 51 26
-0.1751654257334903 0.24725251246005384 -1.125262272753152 84 52 28
-0.17829162042489322 0.24973960021081343 -1.1261219596406256 84 53 32
-0.16836429581490264 0.24136063910571132 -1.1372122540773186 82 54 32
-0.16925767465020747 0.24187292393377463 -1.1431583542772148 81 54 32
-0.180203069121492 0.25087132825132713 -1.137819843681039 82 55 34
-0.17609003643588966 0.24733110732292246 -1.1443879756870354 83 56 35
-0.17010981972794925 0.2422350660997189 -1.1524635485130204 72 49 33
-0.16881360202380633 0.24103948627871913 -1.1568280504519153 74 56 42
-0.1724685823091604 0.24396807924767377 -1.1572350459324465 96 84 68
-0.17316365171315645 0.24443129993880036 -1.1600042072021703 133 126 114
-0.17169759135112522 0.24309396213641557 -1.1645126527768606 164 162 156
-0.16391388555285347 0.23649208308505482 -1.17413302829393 181 180 178
0.009199902853058495 0.14608466269756076 0.11833518650757244 161 156 152
0.0005559645036695288 0.1528958840887564 0.11465679301322919 134 108 98
-0.008318022533143482 0.15989225442719562 0.110992826917024 153 120 103
-0.01709901736998111 0.16681530912947373 0.10736727537155429 158 132 120
-0.021432212378410476 0.1701798602827141 0.1040770679884443 121 101 95
-0.023714767671055167 0.17190365627495655 0.10093793944050328 119 92 78
-0.023556406756764556 0.17167390799312432 0.09796352724206 82 46 21
-0.025412153449403174 0.1730563812930529 0.09486091033417733 69 33 8
-0.0289821126312675 0.1758113832357534 0.09165968164383101 62 29 8
-0.02868434926279409 0.17547019129457905 0.08869828848336545 65 32 9
-0.026965650067383967 0.1739911781728092 0.08581538757791841 66 34 10
-0.02694991540121168 0.17387555661299717 0.08283072241888363 66 33 10
-0.026166578163735216 0.17314517028814141 0.0798854652268221 69 35 13
-0.02630007403326684 0.1731489147427894 0.07688875873648607 71 35 14
-0.025772598706276406 0.17262322065137575 0.07392384951265249 73 38 16
-0.025928003064529456 0.17264440877083015 0.07092304461801405 72 37 16
-0.025461439710045233 0.1721673200872006 0.06794983985241414 72 37 15
-0.024994516967021235 0.17168983396967963 0.06497347727485961 69 37 14
-0.025842874697821136 0.17226605993150274 0.06193880168674944 69 37 14
-0.025636783259856064 0.17199743911967202 0.05894812897956016 69 37 15
-0.02465934368645248 0.1711106266602639 0.05598467935076664 67 34 14
-0.023958607479339686 0.170445390620865 0.053006085861075164 65 30 10
-0.03135846832989493 0.1762724452634929 0.049745163472743895 64 29 9
-0.030734960941033396 0.17566935982221377 0.046771265855950594 65 30 10
-0.026888810900198165 0.17248285305401445 0.043892077032510225 66 31 11
-0.025195900821073647 0.1710219859839573 0.040935166151076216 67 32 12
-0.026563108175719385 0.17201425862636988 0.03788850295275312 68 33 13
-0.027475094725620444 0.17264166399709666 0.03485692933570639 66 31 11
-0.027516695648854284 0.1725712051716619 0.03184739084887499 63 31 10
-0.027558077175301787 0.1725005268120287 0.02883659369238411 60 28 7
-0.02688212456969144 0.17185450319192166 0.02583828219397323 57 25 4
-0.02657708696370041 0.1715058397242657 0.022829571731098806 62 30 9
-0.026368479850416668 0.17123443689850681 0.01981679398161914 63 31 10
-0.026217311539734472 0.17100903465775405 0.016801022655383694 62 30 9
-0.026877201145510232 0.17143424437143387 0.013773874752998584 62 30 9
-0.026716001384244265 0.17120070864519404 0.010755737772495994 62 30 9
-0.028221191246422583 0.17230420291367698 0.007722650181600538 61 29 8
-0.026401313422691502 0.1707396138092696 0.004713286741715311 61 29 8
-0.02595051222062339 0.17027345439928643 0.0016901677906078147 61 29 8
-0.028725796644105836 0.1723964141127899 -0.0013426264024829077 60 28 7
-0.028592832525505096 0.1721853637852367 -0.0043659289777391135 64 32 11
-0.027086473777217526 0.17087179098879493 -0.007393642711844891 65 33 12
-0.027003476812219665 0.1707006291786804 -0.010423267651463428 65 33 12
-0.027139616703368466 0.1707053419845283 -0.013453413745985188 65 33 12
-0.028879212234379448 0.17199747142344995 -0.01647239143013737 64 32 11
-0.02737117373917508 0.17068197290691117 -0.019516839512857036 65 33 12
-0.027827842726681457 0.17094399003327274 -0.022546170466294146 67 35 14
-0.02962485792335061 0.17228247576507066 -0.025557388316987065 67 35 14
-0.029195811232713725 0.17183320904519384 -0.028596991062469733 67 35 14
-0.029090843938513966 0.17164415315459275 -0.03163413200314571 64 32 11
-0.029099222191801985 0.17154608613352748 -0.034670959283168795 60 30 9
-0.029107587579934077 0.17144796011801317 -0.037709196944718824 57 29 11
-0.028415469049287656 0.17078698134768616 -0.04076487045818367 53 25 9
-0.02870057903563332 0.17091108035756464 -0.04380041474673248 50 22 9
-0.030021907207218035 0.171867854632073 -0.04680862024834335 51 23 9
-0.03296383320917062 0.1741271468339856 -0.049766768832679234 53 26 11
-0.034775162956166006 0.1754781017665039 -0.0527496020399071 53 26 10
-0.034846994841016776 0.1754310700492661 -0.055783428455145 50 23 7
-0.036881869244485194 0.17696198720423112 -0.058750854552984406 46 19 5
-0.03904060329761222 0.17859269777412973 -0.06170738114862928 49 23 10
-0.03946390318860053 0.17882838839903104 -0.06472345192040391 71 51 42
-0.04734838022439842 0.18506323223739177 -0.06743936368544654 114 95 87
-0.06262913439697348 0.1972465328315084 -0.06981465382726852 82 55 40
-0.06756422672158051 0.201112030095398 -0.0725882526271703 123 96 78
-0.08212772134938144 0.21251769086070565 -0.08081520661532814 104 77 65
-0.07702146849693473 0.2083078663296194 -0.08403874342832772 69 36 18
-0.07885675574256912 0.20968188493605006 -0.08691047104285113 68 35 16
-0.0775852279283513 0.20855641268137137 -0.08994946019739637 64 32 15
-0.07844325686826323 0.20914426678699516 -0.09287211684974575 60 29 11
-0.0787299908668134 0.20927245674529904 -0.0958268829174909 69 42 27
-0.07911401245373628 0.20947893148453373 -0.09877597385952278 96 71 60
-0.08633518417178282 0.21518828556142627 -0.10129136068040183 108 77 63
-0.10678069274141769 0.2312403603964846 -0.11168740518864764 112 88 76
-0.1090031474902884 0.23292885577988276 -0.11445154499021343 119 88 77
-0.10957366754762489 0.23328737784627995 -0.11733246764566695 159 133 117
-0.10748634912141954 0.2315055204614293 -0.12041729828294725 171 148 130
-0.10925228268737121 0.23282669028384817 -0.1232073409074788 152 123 105
-0.11977275019116031 0.24119941866364988 -0.12528344408297507 111 75 49
-0.12143267513089087 0.24243616353071207 -0.12805424337564397 97 55 23
-0.11782236165461456 0.2394274429506808 -0.13126700516221998 91 48 16
-0.1166106286249856 0.23835061731395046 -0.1342871089321523 85 45 15
-0.11697839136455786 0.2385462158401867 -0.137173194496499 83 45 19
-0.11474474534425469 0.23664562631214292 -0.14029513918272252 80 44 22
-0.11107976291019023 0.2335912341117917 -0.14355980290541204 73 38 19
-0.11704620822847939 0.2382985071642999 -0.14592916522934427 67 36 21
-0.11554211212350109 0.23698533700869961 -0.14899784146399742 67 41 28
-0.1150804392935578 0.23651217104792477 -0.15197112477216773 69 47 35
-0.11635805811196587 0.23744098514748851 -0.15477289075770917 66 46 35
-0.11478500545476789 0.2360717260098557 -0.15786301912504405 66 46 35
-0.11451274438113866 0.23575098542708595 -0.1608249437154738 66 46 35
-0.11379064871524955 0.23506744412147038 -0.16383717853005672 64 45 35
-0.11219198221381724 0.23367689140388045 -0.16694858797959972 62 44 34
-0.11067814718979029 0.23235448717365975 -0.17005832900958237 63 44 35
-0.10770394300390182 0.22985399233094223 -0.17333931910154984 64 45 35
-0.09897281544432902 0.22270950339682272 -0.17729079400694997 63 43 34
-0.10238481592847162 0.22535926796952882 -0.17986751504360318 63 43 34
-0.08755328879748236 0.21204684933316215 -0.2206629833015121 60 41 34
-0.10217147209128004 0.22374875141892805 -0.2215770854960902 59 40 33
-0.07611735918887627 0.20197154508937193 -0.24663246719471754 58 39 32
-0.0701168110367151 0.19701683554188637 -0.25064045531537577 57 38 31
-0.07182249438248697 0.1982897208092324 -0.25342829709800163 57 38 30
-0.0715350077377351 0.1979516966948055 -0.2565369326272728 57 37 28
-0.08075255764328343 0.205192081853094 -0.26112099164333824 57 37 26
-0.07818649688938889 0.20301220297000042 -0.2646043995539313 58 38 27
-0.07497887927981678 0.2003131695757134 -0.26820957592642836 59 39 28
-0.07417116856542663 0.19955432883043644 -0.27141248437576715 57 37 26
-0.07343081213774777 0.1988497964706877 -0.27460827169688035 55 35 24
-0.07475463148062189 0.19981459092046452 -0.27744200238195466 52 34 22
-0.06913411255275079 0.1951625428827966 -0.28151876233858353 53 35 23
-0.06978023337178535 0.19557891348290624 -0.28448179132273427 50 32 20
-0.07363855181589633 0.1985939715544411 -0.2868541628561629 44 26 15
-0.07216189430159947 0.19729317671669053 -0.29020245066975764 45 27 17
-0.07383920907981428 0.19854410775052325 -0.29296664196845856 48 30 20
-0.06864672359604468 0.19423616683157674 -0.29702771285732976 50 32 22
-0.06675802080395046 0.19260111093121696 -0.30047825239039266 50 31 22
-0.08348262529270309 0.20603022861863687 -0.30033536613873185 63 45 36
-0.07071480715023049 0.19559018308954787 -0.30589412625514867 73 55 45
-0.06124691616421905 0.18781953803528584 -0.3108536528891808 85 66 54
-0.07780277688210771 0.20090251295343678 -0.3168167304384874 61 27 9
-0.07596575245022785 0.19930866079968418 -0.32027528154413193 66 31 15
-0.07705690234465584 0.2000858088061502 -0.3231348550810291 67 35 18
