ply
format ascii 1.0
element vertex 683
property float x
property float y
property float z
property uchar diffuse_red
property uchar diffuse_green
property uchar diffuse_blue
end_header
-0.11632555854536994 0.1529797150725155 -0.17230790508399904 57 44 39
-0.11156992741259131 0.15035176773483966 -0.1758082917406993 59 46 40
-0.11838938889579698 0.15388972413438798 -0.1779165035882376 59 46 40
-0.1166085941496191 0.152846223459691 -0.1810656108870123 59 46 40
-0.10975430108377437 0.14909905386076586 -0.18485836705127373 59 46 40
-0.10733603433264284 0.14771504531518648 -0.18811305371801504 59 46 40
-0.10671879593652783 0.14729058934052078 -0.19114593463541943 59 46 40
-0.11550679908648756 0.1517840286261815 -0.19589787383817128 59 46 40
-0.1137424452453193 0.1507481965169235 -0.199078693894312 58 45 39
-0.11444676494253346 0.15102837417677678 -0.20193232066467237 59 46 40
-0.10149989016238883 0.14335487032885086 -0.22751682996166256 62 49 41
-0.0964041904252801 0.14053876793091025 -0.23127476728007382 62 49 41
-0.08794909981358287 0.13592895410496725 -0.235566862222526 61 48 40
-0.08506413191165732 0.13429149933996948 -0.23902738925629194 61 48 40
-0.08146107818815423 0.13227029996035775 -0.24261230889631843 60 47 39
-0.08167511242318407 0.1322866571138676 -0.24560691725981124 59 46 38
-0.08245996343971367 0.1326077838739455 -0.24851113477197426 60 47 39
-0.08101774598212116 0.13173961093953646 -0.25177502991510464 60 47 39
-0.07997437464052151 0.1310842363628015 -0.25498049653498833 61 46 39
-0.07929487930667592 0.13062304869440064 -0.25813122471990435 62 46 39
-0.07592407754345495 0.12872401738979863 -0.2617361364906424 62 45 39
-0.0643304178540767 0.122431388662863 -0.26674405321340333 61 42 38
-0.0714127802742586 0.1261163230521135 -0.26860618662679536 60 42 38
-0.07264763337407808 0.12667724064769667 -0.27145379167107164 60 41 37
-0.07018292573802316 0.1252610758016974 -0.2749434859136754 57 39 35
-0.07064250716232565 0.125407572197552 -0.27792899293480466 56 39 33
-0.07170728390323156 0.12587756701863373 -0.2808071138459735 58 41 34
-0.07067374924943573 0.1252258602902192 -0.28406001777210654 59 42 35
-0.07237792844290167 0.1260377237507452 -0.2868220451694405 60 43 35
-0.07151591330371393 0.12547753388415223 -0.2900496617152805 57 40 32
-0.06894157372817292 0.12400147873323285 -0.2935986490335288 53 36 28
-0.066069329214622 0.12236574096124589 -0.29721416197106565 51 33 27
-0.06465644217835843 0.12151020961211001 -0.3005667689933645 57 39 34
-0.06016745023082791 0.119008905943622 -0.3045111244597635 61 44 38
-0.0576049276217399 0.11753769652425503 -0.3081035062759314 64 47 41
-0.053456094583859574 0.11521736075927067 -0.31201407547014914 66 48 42
-0.04699478668178393 0.11155785564127749 -0.3195227417967596 77 59 46
-0.04309262966253645 0.10936804561218016 -0.3234307179071955 75 50 38
-0.04156146380988625 0.10763176142897972 -0.35208918613800244 68 54 45
-0.0338620997401854 0.10340420364465527 -0.35691853806965895 59 42 35
-0.0355824106798924 0.10422338988344569 -0.3597179166157913 47 33 26
-0.036811495102986654 0.10477945314172746 -0.36262131252309393 63 46 40
-0.041465306470511554 0.10717119265453313 -0.36476120988291755 52 35 29
-0.042917405214764 0.10784716092461961 -0.36760351020423515 51 37 31
-0.04354692957666863 0.10808225502121543 -0.3706282301402469 60 45 39
-0.04519773189033315 0.10886492598191175 -0.37342016189135036 68 51 43
-0.050281288314383915 0.11148842093379008 -0.37542066722615003 72 55 45
-0.05531096693610857 0.11408355161129306 -0.3774172686641797 72 55 46
-0.05847236505820137 0.11567718867606687 -0.379832943932209 71 54 46
-0.06269744065120303 0.1178416772035669 -0.3819894243570328 67 50 42
-0.058834148829093914 0.11566761336070033 -0.38604603226622153 70 53 45
-0.05673356855737932 0.11443874334375292 -0.38969826015908104 68 51 43
-0.053061797305158455 0.11236652348423964 -0.39373729440313726 60 42 34
-0.09370759198109091 0.1337752715568435 -0.39635646347796855 67 50 43
-0.09451182993888366 0.13400656181976667 -0.40235625411826587 69 52 44
-0.09603797326608425 0.13472575703362275 -0.40507260511170584 66 48 39
-0.1235447846068207 0.14870518366479987 -0.42258218869910674 69 38 20
-0.12113994617367743 0.14721410253327444 -0.4293680808989909 70 42 23
-0.12009730400924548 0.14655415889992818 -0.4327267868763341 72 47 29
-0.11894574064250549 0.14583546806712366 -0.43612105551367036 71 51 38
-0.009246433276213079 0.07871227934348968 -0.7180140561153293 204 203 205
-0.008005167188824519 0.07792810496892176 -0.7219665483103733 202 202 204
-0.006639004689084932 0.07707597472918457 -0.7259781396837294 195 195 195
-0.0054365874840495015 0.07631241965441479 -0.7299282791125599 179 177 177
-0.003678249335886799 0.07513538541349332 -0.7375746451010408 132 128 126
-0.0002351604311860156 0.07315549907647378 -0.7424980265868933 119 113 109
-0.019637203807058565 0.08301627792882746 -0.7548382050887592 88 69 57
-0.03214745536007126 0.08969811330019317 -0.7527835110558214 86 67 53
-0.03717824527587595 0.09220928694911201 -0.7573949464486674 88 65 49
-0.11539549332721581 0.130310873169 -0.8582084041738008 84 52 28
-0.11575625834398094 0.130399522771536 -0.8613668886589384 90 60 38
-0.11612263450675453 0.13049121324435095 -0.8645230935640659 95 69 50
-0.11007081660753357 0.12707916251791737 -0.8710755544955143 94 71 55
-0.11071382742953645 0.12732143348558014 -0.8740988748591906 91 69 55
-0.11796739744735069 0.1311732978099746 -0.8735982117717129 89 68 52
-0.12035823512798596 0.13237050236275985 -0.8756724789787563 87 66 49
-0.1179923841509329 0.13097002933239174 -0.8802936412248087 87 64 49
-0.11528347355985334 0.12938179678832837 -0.8851112028224475 83 61 47
-0.11355778221918336 0.12833026982781046 -0.8894097614324125 78 55 42
-0.10592320655456562 0.1240501145154564 -0.8969254803347995 74 51 39
-0.10540033753134434 0.12365486996629972 -0.900598299851629 74 50 38
-0.10182668281178547 0.12159229006040066 -0.9059438719776293 70 47 34
-0.10283018256923387 0.1220308073976201 -0.9087933627669431 69 45 34
-0.0972453948190454 0.1188681566430904 -0.9152705081377096 72 49 38
-0.09247173225201266 0.1161481385213651 -0.9213235969577246 83 61 50
-0.08549174352637394 0.1122211491538147 -0.9286221552795755 86 62 52
-0.09213269491622235 0.11574117497279485 -0.9283654163193088 86 62 51
-0.09523696994486477 0.1173278906140286 -0.9300609176142802 85 62 49
-0.09705812307825579 0.11821315523428773 -0.9324658601597681 86 63 49
-0.0998922063228682 0.11965265601137727 -0.9342955249382086 86 62 50
-0.0936662048836723 0.1161360195430471 -0.941233903276481 84 61 43
-0.09686920301543468 0.11777737087908438 -0.9428542153493042 84 61 41
-0.10818171959553072 0.12385653184054003 -0.9398504522712812 85 59 43
-0.10487637941450471 0.12193736490137697 -0.9451487454508912 83 61 46
-0.11932448943457424 0.12896509740611545 -0.9640894865607087 91 72 59
-0.11698667822901204 0.12757414477688572 -0.9688747855478559 89 70 56
-0.11967810458223144 0.12871766794048922 -0.9775254326158459 88 69 55
-0.11546011271351407 0.1262953141546832 -0.9834601726920762 88 69 55
-0.1261532749153417 0.13182574759592086 -0.9872982072961034 89 70 56
-0.13747861343121598 0.13792585417473838 -0.9838563307467497 91 72 60
-0.14278237407437722 0.1407249568983249 -0.9840269827913374 92 74 64
-0.146321224040451 0.14255663857371345 -0.9852535013721729 94 76 66
-0.14003333046320318 0.13899813671513422 -0.9924744704006367 95 77 67
-0.14031970741903127 0.13893583045812963 -0.9990851725930627 94 76 66
-0.1439749686174706 0.14083188298680432 -1.0002246964694206 93 75 65
-0.15593214013811768 0.14728464297863864 -0.9962093727290031 90 72 62
-0.1534459420509744 0.14570192257480427 -1.004498894149901 87 66 56
-0.17801310965984007 0.15843358542144703 -1.0125222576933335 71 37 12
-0.17440014781518778 0.15634023198556177 -1.018176742438625 71 37 12
-0.17726904648265174 0.15780844854252205 -1.0196876762128613 72 38 13
-0.18190691895225988 0.16024923629621138 -1.0200499094777102 75 39 15
-0.17339139937767734 0.15546035475562858 -1.028891977301819 76 40 16
-0.17712512586906332 0.15740430696800117 -1.029833331641817 77 41 17
-0.1839785148443618 0.16106393027496452 -1.0287334582811036 77 41 17
-0.1877583917926327 0.16303432084744537 -1.029611902023188 79 44 21
-0.18603520289271389 0.16197873199472104 -1.0340770157491457 80 46 25
-0.18523213861803758 0.16142892859508115 -1.0379475309455728 80 48 26
-0.18446149923620697 0.1608967852241029 -1.0418021552451584 80 48 28
-0.1840768274711636 0.16057680980645558 -1.0454072218164512 81 51 32
-0.18445930417415363 0.16067881157358882 -1.0485078373976229 81 52 34
-0.17969998172183632 0.15795134657707255 -1.0550257775439196 82 54 35
-0.18057269970637896 0.15832277222607824 -1.057811385369825 82 55 35
-0.1788903173598751 0.15728787310904588 -1.0623039853806957 82 55 36
-0.1750371282118279 0.1550576841472053 -1.068261683212052 81 55 37
-0.1755972338958657 0.15525665366661862 -1.0712683436821226 81 55 39
-0.18664235478403501 0.16122886662353675 -1.0671990832698595 77 54 40
-0.18736913646941547 0.1615203339579262 -1.0700709018262844 72 51 38
-0.18411273821550966 0.159618083927569 -1.0756464221495343 67 48 38
-0.1828074473357586 0.15879003431634103 -1.0799087870663815 63 41 35
-0.18245443840969003 0.1584863383104887 -1.0835281997310853 51 33 23
-0.1832021514771963 0.1587889711572131 -1.086397017300119 49 31 19
-0.18407219763422733 0.1591590421314675 -1.089180825602642 56 36 24
-0.18593340190025362 0.16007537500761498 -1.0912799082922497 67 43 31
-0.1872892104691239 0.16071333636870536 -1.093722885944323 71 45 31
-0.18577048826909004 0.15976690328453474 -1.0981560167038493 71 44 30
-0.1871313187866046 0.1604076637945888 -1.1005945545696076 71 43 29
-0.1883467487433454 0.1609683694931025 -1.103131049613961 71 44 28
-0.1811722978581884 0.1569027785177824 -1.1115359276954342 73 44 26
-0.18352664249483616 0.1580912074309053 -1.1132847713989975 75 47 26
-0.18444751656652267 0.15848923827507339 -1.1160351105717754 80 52 30
-0.18588872968246625 0.1591743560435641 -1.1184163978903443 84 59 35
-0.18783621229927794 0.16013890430131777 -1.1204353288157556 86 63 40
-0.1885654015132235 0.1604314358719266 -1.1233136071186223 85 62 43
-0.1887071615287998 0.16039983364957042 -1.1266094856168096 82 57 40
-0.18722699096016762 0.15947303832563206 -1.1310657595743174 79 53 36
-0.18263093397416988 0.1568261063083342 -1.1377631323853428 79 54 37
-0.17994295665882887 0.155231804519356 -1.1431107679003918 78 55 37
-0.17928934638273625 0.15476024461784402 -1.147005640580032 80 57 39
-0.1947461658596446 0.16318422335515678 -1.1392600281938738 81 58 42
-0.1936540846230519 0.16225126082151728 -1.1502542080681424 79 64 51
-0.19464171326581556 0.16268674349735945 -1.1529379856017967 100 90 81
-0.19581345250864926 0.16322401243770962 -1.1554847852774197 133 126 118
-0.1972905017517318 0.1639300776232321 -1.1578042983570975 161 157 154
-0.19930592312963047 0.164933802809048 -1.1597226804394127 177 174 175
-0.20131752348407778 0.16593561989601108 -1.1616375845459572 184 184 185
-0.20427904605136615 0.1674627421809067 -1.1628415118039928 190 190 190
-0.005871652960959928 0.10688010172155715 0.10279272732137107 157 149 147
-0.013284526425767253 0.11068202646565561 0.09954723665727691 123 105 96
-0.01938389462893783 0.11379419905954545 0.09637436336369526 115 91 77
-0.026158967633951737 0.11726219262984725 0.0931951526559891 109 81 66
-0.033930103279985746 0.12125455116202435 0.09000178771538324 105 75 57
-0.03894428762344833 0.12379798205062395 0.08692370569939906 112 80 60
-0.04478778844561134 0.1267780097143196 0.08383425408625791 106 74 51
-0.0477230456456988 0.12822904883017164 0.08084926996463455 84 54 30
-0.04996938370126436 0.12931797999981431 0.07789173335314664 74 46 24
-0.05165711698141664 0.13011324543531794 0.07495478687596943 57 28 10
-0.05383521309879121 0.13116661216469366 0.07200949084248173 49 22 8
-0.05534330263342957 0.13186763383219047 0.06908533016263768 48 22 7
-0.05643385897539743 0.13234905590376603 0.06617352830309363 49 22 9
-0.0576399742617054 0.13289135301068636 0.06326134819184219 47 21 9
-0.04666492025982494 0.12702272254026925 0.06057537391498524 48 23 10
-0.047039018577043214 0.12712658726724252 0.05766166623847135 50 25 12
-0.047348622060264016 0.12719648737315933 0.054748496737857755 47 22 11
-0.04728813328343237 0.12707152697453095 0.05183964972337679 49 22 10
-0.045764461544987194 0.1261761180822151 0.04894616492914991 47 23 10
-0.04609718581945516 0.12625801407765103 0.046027174510477054 45 23 10
-0.04670218418083595 0.12648327702815182 0.043105302496115286 44 22 9
-0.04729014688386546 0.12669957815137312 0.040183872115079344 44 22 8
-0.04785979938562336 0.12690624341178117 0.037262805608882635 45 23 11
-0.048320403514211206 0.12705547081877722 0.034342330179621204 47 25 13
-0.04878081934243243 0.12720459414601137 0.03142170270699279 44 22 9
-0.047745273651680575 0.1265655106850054 0.02850120350977217 40 18 5
-0.04756575637775744 0.12637733867929585 0.02557684548111112 40 18 5
-0.0458060070307809 0.12535632291385046 0.022645258430805216 44 22 9
-0.042224798984678534 0.12337507376802498 0.019697407887074064 44 22 9
-0.04598207796286803 0.12526149934878503 0.016783336577033053 41 19 7
-0.0466825019592349 0.12553684255120984 0.01385525251670649 44 22 9
-0.04767491690958864 0.12596614549580182 0.01093066511837535 48 26 11
-0.04740610658535638 0.1257305078519255 0.007993251700580527 49 28 11
-0.04803828263605084 0.12596988847064186 0.005065065974877988 47 26 9
-0.04888268976260162 0.12632120567877364 0.0021404309148542223 47 26 9
-0.048512321423889594 0.1260318632187048 -0.0008030652475148128 49 27 10
-0.04858971820491213 0.12597861063609764 -0.0037413805838465396 49 28 11
-0.048372665088649604 0.1257699820820113 -0.00668696203527698 52 31 14
-0.04795295609970632 0.12545435890213566 -0.009639317032332055 53 31 13
-0.0474679287436269 0.12510417226706042 -0.012596287281929627 52 29 12
-0.04822900862097936 0.12541143293282786 -0.015525673285717623 51 28 12
-0.04820399024834332 0.12530386519370168 -0.018475031039653003 50 27 13
-0.04823055152057777 0.1252234635971491 -0.021424725804581525 50 27 13
-0.045454436164112634 0.1236636254730026 -0.024459641544688524 49 28 14
-0.045353623089996 0.12351572886926698 -0.02742128614844387 45 26 12
-0.0467818433143353 0.12417502658973434 -0.030334241546573167 41 21 9
-0.049060710514094406 0.12528357148296795 -0.03321445951375871 40 20 11
-0.04183154041169491 0.12137147387262327 -0.03643618691655659 39 20 11
-0.02969243335479634 0.11486552883035676 -0.03987160356656631 37 18 10
-0.032513144412374774 0.11568448675260519 -0.06072188581778062 28 14 8
-0.03543835799581715 0.11713456263206978 -0.06357160803405662 46 32 26
-0.046163117757372134 0.12270774861874559 -0.06599674041228315 52 36 31
-0.05163026982897931 0.12550257703315978 -0.06867696677433723 56 37 33
-0.05484142592747903 0.12710517550228762 -0.07146851708482728 68 48 43
-0.05307387649983519 0.12607550820378524 -0.07454202369910168 73 53 45
-0.056962239454666164 0.1280365411881622 -0.07728297404822246 85 66 55
-0.07030849705120164 0.13481114490459237 -0.08532741263107442 81 60 52
-0.08876579326671576 0.14448121039696082 -0.08704433912741089 64 40 32
-0.08768058368117108 0.14381349765311766 -0.09004176286384859 59 37 27
-0.08727083122198599 0.14350302621444905 -0.09299706390097073 63 43 33
-0.08494673040490433 0.14217938620833195 -0.09609338020752552 65 50 41
-0.08799111618151004 0.14369672336856232 -0.09880341340574919 78 63 56
-0.09335547681630318 0.14644231633142568 -0.10132975676217666 67 50 42
-0.09417659498526673 0.1467834218750775 -0.10419004885261768 72 54 46
-0.09911041175254451 0.14930189091921434 -0.10672494124060831 72 53 47
-0.10861073467109532 0.15423867458640425 -0.1088768337106092 76 57 50
-0.13369453697140637 0.166969864043585 -0.12404074853967362 103 86 75
-0.12633568820580215 0.16297890695244 -0.1275916029388747 80 52 34
-0.1270979848792646 0.1631982371199367 -0.13328866733931144 67 37 18
-0.14763263701230006 0.173989605458612 -0.13416941184844886 59 31 14
-0.12996518223452214 0.1645332695453488 -0.13877806149383365 53 26 11
-0.13170386378754936 0.16536267392282764 -0.14148706444830708 51 24 10
-0.13252203521490166 0.16570417665551201 -0.14428642919638102 54 28 15
-0.14773770211870352 0.17367981433560872 -0.14557956099455283 56 35 24
-0.15103318104811586 0.1753358806012671 -0.14808866984147698 54 39 31
-0.1213960678327739 0.15934033805556103 -0.15996194296110758 59 46 38
-0.12011857819683835 0.1585694406616985 -0.16301791700971485 59 46 38
-0.12076558099083094 0.15881942313345088 -0.16585892876207878 58 45 39
-0.11660501302517623 0.15651840966509095 -0.16925999688911095 57 43 40
-0.1250468776415527 0.16090473183599918 -0.1711858970436696 57 44 38
-0.1210998422094173 0.15871671449002078 -0.17457173388781722 57 44 38
-0.11735660728990693 0.1566363807416012 -0.17794811394114074 58 45 39
-0.11442648563344604 0.15498721486628114 -0.18123873098977866 58 45 39
-0.11338063101746482 0.1538671986430578 -0.19901764697149077 58 45 39
-0.11309153174050528 0.15361928701423544 -0.20200455358875324 58 45 39
-0.11053479015567239 0.15197725326047362 -0.21121974511295058 58 47 41
-0.10781304712122855 0.15043605117450054 -0.21456752528997652 60 48 41
-0.10530984040402651 0.14891552747571762 -0.2208671946544754 61 48 40
-0.10084567311034995 0.14635161679720746 -0.2274847044961531 61 48 40
-0.09581341033243744 0.14358024706674866 -0.23123158735260396 62 49 41
-0.08939649627199986 0.14007191170442485 -0.23520980684781062 61 48 40
-0.08647680656707575 0.1384227923958738 -0.23867072347477522 60 47 39
-0.08823520274460195 0.1392615807285826 -0.24141108472440273 59 46 38
-0.08447941913656459 0.1371671869711627 -0.24502020547188566 57 44 36
-0.08102641048699363 0.1352333960755873 -0.24859579691535455 59 46 38
-0.09046579221715043 0.14015884031377887 -0.2500986693953634 59 46 38
-0.0827909964791887 0.13597835173169448 -0.254370144554748 59 44 37
-0.08488673228076377 0.13699666727756268 -0.25705471271998764 60 44 37
-0.07284084966435593 0.13048841894772817 -0.2620969766821638 59 42 36
-0.07271175808135501 0.13032202729795528 -0.26517096728893397 55 38 32
-0.07555741947201114 0.13173918190676562 -0.26773964005810275 56 39 33
-0.0747884045685959 0.13123211173295582 -0.2709232399368979 59 42 36
-0.07167902879988057 0.12947873528634332 -0.27451892804285816 59 42 36
-0.07357585781022644 0.13039086452946777 -0.27724673731463595 56 39 32
-0.07335569488341975 0.13017568542577657 -0.2803458089536119 57 40 32
-0.07357202654705457 0.13019291558530427 -0.28336915000498186 58 41 33
-0.0737504476438193 0.1301899173745448 -0.2864004148156696 58 41 33
-0.0736292417577358 0.13002725548932498 -0.28948769047182865 55 38 30
-0.07220150677935293 0.12916839725472765 -0.2928185742301806 57 40 32
-0.07090541155405776 0.12837946484806603 -0.296131776970731 55 38 31
-0.0684505081576621 0.1269727781187196 -0.2996695583853599 51 34 27
-0.06767791954799982 0.12646238510486646 -0.30289815154445154 68 51 44
-0.06360947010791118 0.1241950504484028 -0.306763493302534 61 44 37
-0.059345188809844726 0.12182280014593028 -0.3106829973917803 64 47 40
-0.05089757327258419 0.11591692304689336 -0.3561453351936235 54 40 32
-0.05058693028289764 0.11565042593727974 -0.35935829735962677 55 38 31
-0.04416376506213329 0.1121197498600374 -0.36393169668235054 69 53 46
-0.04476085864379592 0.11233749388555375 -0.36695837282451743 48 34 27
-0.04544653610872976 0.11260255976316266 -0.3699648106595823 54 39 33
-0.0482776992851213 0.1140137007804293 -0.3724826927961294 69 52 44
-0.05907693510958635 0.1196818795971876 -0.37316569294355756 72 55 45
-0.0625646781260556 0.12144480865240405 -0.37550105446271675 73 56 48
-0.06597430154722887 0.12316633557507853 -0.3778439624866457 69 52 44
-0.06608300011122649 0.12312417651631939 -0.3809509900204949 66 49 41
-0.06572033176437939 0.12283004378994655 -0.38417094692767584 60 43 35
-0.0596864964102506 0.11950447867408683 -0.38874509690126213 70 53 45
-0.05346739809618372 0.11607912166681636 -0.39338731197924115 62 44 37
-0.09188246416928608 0.13621847078938085 -0.396551500445312 66 48 43
-0.09796290489898293 0.13937143584453845 -0.3981380669445032 63 44 39
-0.1263705983923705 0.153687835669288 -0.41849297747674574 73 42 22
-0.12328385720947244 0.15193723806484113 -0.42237449498235946 67 34 16
-0.12814129337205457 0.15444032913768588 -0.4241323643523671 65 34 16
-0.11846327260121806 0.14915934416645701 -0.42981037560638635 67 37 19
-0.11833043279522283 0.14898972835946162 -0.4329234025664548 70 43 26
-0.11782052113486247 0.14861804989196936 -0.4361422453188361 76 54 41
-0.1121546284447634 0.14538501308640717 -0.4438829938808724 81 67 61
-0.008602208616912757 0.08238812471334186 -0.7074871461039961 199 198 200
-0.00737381510713736 0.08161506451938946 -0.7114190360861476 198 196 197
-0.004339300126928666 0.07975623438599486 -0.7195424618591536 173 170 168
-0.02031444558151932 0.0872902382947147 -0.7471400044540969 87 66 53
-0.0227062609674141 0.08847391465190249 -0.7495321327231502 88 66 52
-0.025475871794216814 0.08986215910778791 -0.7517520688205626 85 63 49
-0.028305151636786027 0.09128295355188377 -0.7539372937415104 85 62 47
-0.048408495921038595 0.10183247923664032 -0.7552739386537579 83 57 41
-0.04897371136043031 0.10170390257355971 -0.7685975631042588 81 54 38
-0.04703224319231097 0.10054394715261719 -0.7728788529871472 78 52 38
-0.11639506258746668 0.13428968063589536 -0.8604047405196638 87 56 33
-0.11692002882731872 0.134468074182873 -0.8634735114664097 89 63 42
-0.11152750871377155 0.13142846949873657 -0.8696707954294299 91 66 50
-0.11440129099693314 0.13288394873419543 -0.8715048941098263 90 67 51
-0.11991085448844609 0.1357734264702325 -0.8719258005295274 89 67 51
-0.11796615238976735 0.13460840293623907 -0.8763122140008245 89 66 49
-0.1203841103166037 0.13581663590213947 -0.8783674178741615 89 65 49
-0.11731381679093485 0.13403879453302622 -0.8833710452403706 86 63 48
-0.11505127962596855 0.1327000702556852 -0.8879523154921112 76 53 39
-0.10881042937036137 0.1291957720968194 -0.8947031466326192 75 51 39
-0.10733077508777225 0.12828222223469984 -0.8988882151357045 73 49 37
-0.10377311418147109 0.12623718515730936 -0.9042169925022672 70 45 33
-0.10355609726028395 0.12601042823077796 -0.9077296437160142 68 42 31
-0.09990711059900834 0.12391483322512052 -0.9131346370465462 67 42 30
-0.09591245556745193 0.12163046257551202 -0.91874729073089 78 54 42
-0.0898874799980769 0.11823972480359149 -0.925503820382943 83 59 47
-0.09130219009284253 0.11890055601292142 -0.9281464227381282 85 61 49
-0.10195970094171611 0.12459665512028782 -0.9256235706913243 85 61 48
-0.09637173605472317 0.12144303850467439 -0.9321656300106522 86 63 49
-0.10043433036344825 0.12354716122012921 -0.933303920474768 87 63 51
-0.10314008119726623 0.12491231314343704 -0.9351940405103409 86 63 45
-0.1062961862088144 0.12652319491050484 -0.9368203778811379 83 60 40
-0.1071589321426002 0.12688433601464302 -0.9397399721477406 83 57 41
-0.10421932054955038 0.1251726663818346 -0.9448274561956921 84 58 43
-0.11407247956681962 0.12956271111153383 -0.969872996794185 89 69 58
-0.11955881356070067 0.13244772099224034 -0.9700510571519254 87 67 55
-0.12362505375906375 0.13455820152016398 -0.9710507062246411 87 68 56
-0.1225005883027191 0.13383541948038621 -0.9751226105172497 88 68 56
-0.1207482295690957 0.13276960179997044 -0.979575845199349 89 69 58
-0.11711613873982495 0.13067705866594526 -0.9851636518114772 89 69 58
-0.1257491073134037 0.13528211715537206 -0.9834008894304268 89 69 58
-0.13157181432529585 0.1383533142264526 -0.9832991318200555 90 70 59
-0.14084781999568796 0.14331154444597272 -0.9810876396524602 91 72 61
-0.14402768053888781 0.14483244909175683 -0.9859166924370144 95 77 67
-0.1376841140815587 0.14125792884792812 -0.9931706677953588 96 78 68
-0.13923791815367037 0.1419984666751251 -0.9956126883654832 97 79 69
-0.14114509205389783 0.14293227861204663 -0.9978332799550207 95 77 67
-0.14272385577388816 0.14368674901024617 -1.0002508796572973 95 77 67
-0.1524429169858878 0.14889165608770255 -0.9976258457328214 92 74 64
-0.15680961183437744 0.1511712728789445 -0.998287112266797 92 74 64
-0.1566020196117388 0.150842225358774 -1.0051513022122462 84 64 53
-0.1731490936239165 0.15924995084374666 -1.0148632660944283 71 37 12
-0.17540280427507254 0.16037632130643834 -1.016772287433963 72 38 13
-0.18031222195322957 0.16295670224170478 -1.016970848608565 74 39 14
-0.1822019307589267 0.16388441557706598 -1.0190944583691943 75 39 15
-0.1766426208859791 0.16073359925835895 -1.0260207987585708 76 40 16
-0.17813326845728625 0.16144265073040764 -1.0284068752190982 77 41 17
-0.18424829940888987 0.16468451758020294 -1.027784949523939 78 42 18
-0.18294942232246436 0.1638661738874216 -1.0319713922517197 81 46 22
-0.18346354627465555 0.16404077598712996 -1.034980127432994 81 48 24
-0.18104173371377708 0.16260684021076038 -1.0399142019124403 81 49 25
-0.17959988395434187 0.16170948193682194 -1.0442157417445002 81 49 27
-0.1810538643976658 0.16239880998995238 -1.0466144356275384 81 50 29
-0.17505487077573054 0.15900346147887387 -1.053942815624273 82 52 32
-0.17573734775833522 0.15926964964613252 -1.0568614905735376 81 53 32
-0.17804891480664803 0.16042893970116728 -1.0586944078967253 82 55 35
-0.17938705819232204 0.16105476254322798 -1.0611703320961394 82 56 36
-0.1766239289045478 0.1594317982767121 -1.066391614571664 81 56 37
-0.17725734806240823 0.15967108960336088 -1.0693430573672331 81 55 39
-0.1881116729420979 0.16551628742107974 -1.0654015851429948 79 55 40
-0.18929692398915637 0.1660589863875778 -1.0679576930600316 76 53 40
-0.18604054370097534 0.16416506917234325 -1.0735246618327563 71 49 37
-0.17743747265354912 0.15933707096300392 -1.082746067158353 65 42 33
-0.18070133146022435 0.1610197015650499 -1.083904492964167 52 34 24
-0.1820729925349813 0.16166424872465374 -1.0863471662949906 49 31 21
-0.1834492871886603 0.1623114517830597 -1.0887831369213925 53 34 24
-0.18485072871729458 0.16297257229878032 -1.0911982415123747 63 41 30
-0.18583983736863868 0.16340743708132568 -1.093894597201461 67 44 30
-0.18530590418886525 0.16300610573713217 -1.097644533214096 70 44 30
-0.18534948341613114 0.16292176728854638 -1.1009974349707985 69 41 27
-0.1857237316862052 0.1630189696896119 -1.1041217953066176 69 42 25
-0.18127695905883415 0.16046810462283423 -1.1106180478450005 70 42 22
-0.1835746944809006 0.1616215895113229 -1.1124046365885696 72 42 21
-0.18480080911693927 0.16218655774184834 -1.1149376664900774 76 48 24
-0.18626440534945415 0.16288210913165838 -1.1173002112371664 80 53 30
-0.18772261497133436 0.16357482601368392 -1.1196626417131763 83 57 36
-0.18977161468161008 0.16459236938059701 -1.1216018622220436 82 57 39
-0.18922437636121986 0.1641830366108722 -1.125382766381483 80 54 37
-0.1873107110038869 0.16302238140450373 -1.1301436766856128 79 53 36
-0.18296335115715245 0.1605233380082924 -1.1366573710976513 80 54 37
-0.1792708589676759 0.15838373502610723 -1.142721234219989 78 55 37
-0.19737368487734108 0.16812132910903274 -1.136491930575343 81 58 42
-0.19547914364836652 0.16697074687602914 -1.1412529466940264 80 57 42
-0.19500554128894837 0.1666015583730831 -1.14499179016755 76 56 41
-0.19390441304207157 0.1658869646726212 -1.1491920565549392 74 57 44
-0.19431576706360149 0.16600443675700505 -1.1522939514696497 91 81 70
-0.19551266141270782 0.16655421168354764 -1.1548206491115829 123 116 106
-0.1967572905186536 0.1671303512355992 -1.157309426143416 155 151 147
-0.1987719438782784 0.1681304709104854 -1.1592276123599226 174 172 173
-0.20388885150054792 0.1707301642554099 -1.1622388759623625 189 189 188
0.0002958344583567571 0.10714916573013607 0.10589617491478014 172 169 164
-0.009469517195817172 0.11216943016279968 0.10253547327377796 134 119 113
-0.01755824681915682 0.11631255045265673 0.09927152590198826 121 96 85
-0.024182522978614437 0.11968939746452756 0.09608806126296635 109 83 64
-0.030740828193610348 0.12303232017072172 0.09292700539323343 107 79 60
-0.036854776798613965 0.12614307704564812 0.0898012050264899 109 80 59
-0.04436454637009536 0.1299857423544214 0.08664753868502573 98 69 46
-0.04843174484259791 0.13202525495899564 0.083625222433373 77 48 26
-0.05388487385387737 0.13479142634065194 0.08057323140201741 57 31 11
-0.055200630002322656 0.13538973170403484 0.07765417370401384 52 27 12
-0.05220462023872123 0.13372811812779162 0.07485231164063344 48 24 11
-0.043215593796214896 0.12892460074030257 0.0721882852440759 44 17 7
-0.0434381913807482 0.12894930834594104 0.06927865982944535 46 20 8
-0.04405189432140956 0.12917904463499402 0.06635964363189188 50 24 11
-0.04431059700805052 0.12922264552145796 0.06344807613316014 50 24 12
-0.04004018118398311 0.12689111223964827 0.06061873807101131 49 23 11
-0.04383736676489716 0.1287902204483869 0.05763902945804707 49 24 11
-0.042955016464099806 0.12823519512011736 0.05474054417060588 49 23 11
-0.044299594060034246 0.1288481935378489 0.05180766052369415 49 22 11
-0.04526762711414219 0.1292637377138885 0.04888196289733665 49 24 12
-0.04623066085494114 0.12967670718769161 0.04595784027345068 47 25 11
-0.047026376930234315 0.13000192918379724 0.043036638158523835 45 23 10
-0.04779966626672749 0.13031541251943837 0.04011654542549002 42 20 9
-0.04810331576458369 0.13038244422685427 0.03719974391160101 42 20 9
-0.04796352453552194 0.13021670182965908 0.034283811022851565 41 19 8
-0.04803845931735433 0.13016360816956235 0.031365348746174776 40 18 5
-0.04828410988672395 0.13020009232664137 0.028445429773816523 42 20 7
-0.046552000715231946 0.1291981524059831 0.025521675560304623 41 19 6
-0.04526036181773692 0.12842726344970695 0.02259188461630711 42 20 8
-0.04447760778620753 0.12792342211142993 0.019658574245929577 42 20 9
-0.0456746963782944 0.12845924757507104 0.01673381094401931 43 21 10
-0.046463368708148996 0.1287806260816782 0.013808011748913945 42 20 9
-0.04745550863982752 0.12920891567917675 0.01088514216463678 43 21 9
-0.04601738529874222 0.12836051122499686 0.007936004831047505 46 24 11
-0.047229897540314196 0.12890455960342265 0.005015209212436913 44 22 10
-0.04751880335700738 0.12896336583873963 0.0020830882511628755 44 22 10
-0.04625929381766544 0.12820843981166985 -0.0008752653901372698 46 24 11
-0.04631665248560729 0.12814542518121647 -0.003815630258352725 46 24 11
-0.04647103965178159 0.12813336263763886 -0.006755579361493687 46 24 11
-0.046901619250198125 0.1282664485424001 -0.009690780116650699 46 23 10
-0.047462013980021985 0.12846777288723438 -0.012623237401053995 48 25 12
-0.046338744050487816 0.12778387336092017 -0.015597309333947085 49 26 12
-0.04667888074943641 0.12786930152629244 -0.018538073017226295 48 25 11
-0.04396601605576611 0.12634919537884048 -0.02156539238621268 49 26 12
-0.045121817489960685 0.12686341183530087 -0.024488062137954524 46 25 11
-0.045816922910616856 0.12713537650082407 -0.02742308775145808 43 24 10
-0.04525139235391762 0.12674421520482376 -0.03039933656088183 41 22 10
-0.0466516272237824 0.12738711633884375 -0.033310647680698795 42 22 11
-0.048259588274317464 0.12813940656197922 -0.036211379218271805 41 22 12
-0.04373427614758492 0.12566448514956402 -0.03934288648808414 38 20 10
-0.04558179752223052 0.12654275203164472 -0.04223698556490151 36 17 8
-0.0416633232910609 0.1243864803069881 -0.04536639904354606 35 16 9
-0.029979779075246703 0.11804762192695495 -0.05184287868517051 35 18 11
-0.03152474540636419 0.1187660457720067 -0.054768705788482 34 20 13
-0.033720800409666934 0.11982739058369712 -0.05765959949897262 29 16 8
-0.03611373633296147 0.12099258713581437 -0.060534978780170084 39 24 17
-0.04838846500045152 0.12736200008191587 -0.06289313797599393 61 45 38
-0.06051418330726064 0.1336541899208038 -0.06521954263155971 59 42 35
-0.059166005643011825 0.1328504681645653 -0.06824880795079255 60 39 34
-0.06618769645167208 0.1364556871695459 -0.07080921257251449 66 44 39
-0.058283857667557865 0.13219822673230558 -0.07422010962277212 77 57 49
-0.057484359501784404 0.131683101705575 -0.077232139235095 90 71 59
-0.07072248332198286 0.1383782471678207 -0.08527479682153753 76 55 46
-0.08951755874296968 0.1481918771397745 -0.0869665932922585 69 45 35
-0.0863047998768182 0.14640576179267148 -0.09010663458362433 61 39 27
-0.08501355471489531 0.14563230091505772 -0.09312415683406174 51 31 22
-0.08646315389385775 0.14630381316793561 -0.09595036487059987 67 51 42
-0.09013036312518531 0.1481448270114128 -0.0986098596420196 83 68 62
-0.09309119147537546 0.1496136521281795 -0.10131186372269727 66 49 42
-0.095358974005116 0.1507172079132178 -0.10405894621124293 81 62 55
-0.10709853321214896 0.15681718372041425 -0.10605334352415555 83 64 58
-0.11192453026117341 0.15927119262414313 -0.10856621332159268 84 65 59
-0.13054516557000018 0.1685494186060939 -0.12427115804830138 103 86 75
-0.12474997918752179 0.16539902884386426 -0.12768045030694453 70 42 24
-0.1253996040607027 0.16555925430051943 -0.13338960878662076 65 35 15
-0.14656119459912248 0.17664285472164248 -0.134210749046765 61 33 15
-0.1283230317586416 0.16692028347758509 -0.1388751732636163 55 29 13
-0.13060279083461498 0.16803303948169657 -0.14153029254924687 53 26 12
-0.13626250367777556 0.17093143179105263 -0.14383188524182253 56 29 16
-0.1476199915424659 0.17684051469490886 -0.1455203202888734 58 38 26
-0.15160145838944214 0.1788536358419872 -0.1479548394706427 56 40 33
-0.12330135819534327 0.16362538850848074 -0.15966861111331196 59 46 38
-0.12051038976988045 0.1620581227023445 -0.16289029881156694 59 46 38
-0.11406272156592848 0.15744204224137187 -0.2017613177592704 58 45 39
-0.09500221438679479 0.14707038624546154 -0.21328866913280184 57 46 43
-0.09416660709507775 0.14653340484812397 -0.21639224538334353 58 46 40
-0.0999893891789203 0.14952228743415502 -0.21853973748879854 60 47 39
-0.09594484925613529 0.14728588041958118 -0.222109670825623 60 47 39
-0.10032572879276003 0.1495116603642253 -0.22445037131256423 61 48 40
-0.09767454953162175 0.1480128116433481 -0.22782900266538242 62 49 41
-0.09427550899113951 0.14611741190985358 -0.23133177759369633 61 48 40
-0.0908430921521017 0.14420389628335145 -0.2348532976116368 60 47 39
-0.0929423838112011 0.14522114661838423 -0.23753248276490685 59 46 38
-0.08828131935661787 0.142655947695514 -0.24126417257149635 58 45 37
-0.08706066595536516 0.14191359968572026 -0.24446946454998825 56 43 35
-0.08064126704102201 0.13841542769863513 -0.24851267122666956 57 44 36
-0.08477720305873403 0.14041623978339463 -0.253896282287861 58 43 36
-0.0866437230768006 0.14131009278037368 -0.2566131893162579 61 44 37
-0.08268155842230426 0.13911326588371817 -0.26029887187979756 59 42 35
-0.07829845433269214 0.13669270272446432 -0.26407130554567926 54 39 32
-0.08183400585299369 0.1384715748550307 -0.26651050590895764 52 37 30
-0.08276121621313268 0.1388671989400924 -0.2693884836774927 53 38 31
-0.07430739637426814 0.1342862147511236 -0.2738978140312977 56 40 33
-0.0745802214521046 0.13433421941604134 -0.276904428341206 56 39 32
-0.07126455089174291 0.13247809311267944 -0.28054912388129377 56 39 31
-0.0715847697049889 0.1325509940347696 -0.28355526283642907 59 42 34
-0.0706652017365362 0.13196588719360317 -0.2867866171717398 60 43 35
-0.07256339169312624 0.13287623231123855 -0.28950776316770904 54 37 29
-0.07524312475574088 0.13420160392439193 -0.29207973132379333 48 31 23
-0.07322982658851318 0.13303572102715178 -0.2955188228114521 47 30 22
-0.07093593412692498 0.13172057389242262 -0.29901964854394114 55 38 30
-0.07436244986890643 0.13344267641405172 -0.3014439145041459 61 44 36
-0.05206474739107766 0.12101055313636704 -0.32436853278242433 69 41 27
-0.06296108347228549 0.12670198105275335 -0.32528515922923235 64 39 24
-0.07289839748095335 0.13188490031662306 -0.32636067577858524 59 33 22
-0.052855612127339115 0.12053929650223942 -0.35235702018758186 60 43 36
-0.05048845136535533 0.11918084205159202 -0.35601073306269015 51 37 29
-0.05059967655226468 0.11914046786920071 -0.35912913817801173 44 27 19
-0.046032984771573096 0.11661130733349692 -0.36328726903534325 61 44 36
-0.04671976258628839 0.11687681178314696 -0.36628823019109685 46 33 25
-0.05159226017765385 0.11936969011144934 -0.3683446360008786 54 39 33
-0.05918098054985894 0.12330860470249128 -0.36976803857015356 66 49 41
-0.05679345985400273 0.12193851119949971 -0.3734517560259333 73 56 46
-0.058859086947621216 0.12293850802880982 -0.37611767933944307 73 56 47
-0.07108350143081055 0.12924795530570463 -0.379535172802227 57 40 32
-0.06384917407113275 0.12529696500541487 -0.38436739238656303 57 40 32
-0.061597425910070475 0.12399846380151942 -0.38804122169863614 65 48 40
-0.055583398043810045 0.12069590625122044 -0.3926275261336568 67 49 42
-0.08389979771189393 0.1353830728298962 -0.3982678003321788 58 39 34
-0.08828317039487568 0.13762025871408323 -0.4002897001123762 61 42 37
-0.09880130345932044 0.14302942247739162 -0.4038494044647275 64 44 36
-0.11668309797451604 0.15188070484381855 -0.42078761853503704 70 38 17
-0.12288128020316187 0.1550897943528933 -0.422204943232429 66 33 14
-0.12817271206392472 0.15781578438185667 -0.4238453443493707 65 33 16
-0.11814821129886764 0.15237035261692772 -0.4296131028752206 64 33 15
-0.11904673359678994 0.1527524276999638 -0.4324433438088084 72 43 26
-0.12400745051976053 0.1553024409541205 -0.43415810034553054 76 53 40
-0.027667378790132174 0.0950378342432188 -0.7400148918912545 86 65 49
-0.02641939749644355 0.0942574147124633 -0.7439692572193759 84 63 47
-0.04327934545498209 0.10248005917607317 -0.7638179084319244 79 52 34
-0.05048319971881661 0.10625695685422643 -0.7639773041854119 79 52 36
-0.04826554316647558 0.10484593231708768 -0.7717689963230847 77 49 37
-0.050578223792478984 0.1056627854905757 -0.784312535234734 76 54 40
-0.11699235963608812 0.13814923698736342 -0.8594657943919995 88 57 34
-0.1167708465004642 0.1379234258025075 -0.862923709174758 89 62 40
-0.11554046129840026 0.1371509922974297 -0.8669175962335723 90 65 46
-0.11836657188330066 0.1385760850619048 -0.8687673332066748 88 65 47
-0.12032570528128489 0.13953169606223317 -0.8710694586242226 88 65 48
-0.11992466562657057 0.13920848497643884 -0.8746268431351065 90 64 47
-0.12084499087840092 0.1396013005862429 -0.8774793683927055 90 64 48
-0.11840423347249458 0.13817233948351507 -0.8821393068968751 89 64 49
-0.1152495865326259 0.13635600701478717 -0.8871966633922573 76 51 38
-0.10980515717069496 0.1332977806601655 -0.8935101038201414 73 49 37
-0.1086653659654993 0.13257288010198098 -0.897504872660194 72 48 36
-0.10571223373878733 0.13086441804651228 -0.9024966395846766 70 44 32
-0.10168508788456772 0.12857302583079205 -0.9080909744786464 68 42 29
-0.09955702432145498 0.127311145017171 -0.9126587375638034 66 40 27
-0.09620140464700173 0.12538300876284825 -0.917914858096596 72 47 33
-0.09322630115459747 0.12366082606917711 -0.9229756436497546 81 57 44
-0.09596840223797193 0.12504036571930188 -0.9248711316876299 82 58 46
-0.10030267313697219 0.12728419824836654 -0.9258692714781095 83 60 46
-0.09591993589686121 0.12479754387151401 -0.931734523839833 84 61 47
-0.09882345289175838 0.12626518362341285 -0.9335239724669427 85 61 49
-0.10216438804324723 0.12797057686734886 -0.9350572435821463 85 62 44
-0.10616278705296266 0.13003327374215623 -0.9362071425962033 79 55 36
-0.10614188694911719 0.1299140043215987 -0.9396264719507327 78 51 33
-0.10584158752071869 0.12964293770445492 -0.9432073177784781 81 54 34
-0.10416421369009787 0.1286238643268468 -0.9475793191486773 85 60 44
-0.13240914923629798 0.14311035064441452 -0.9583712171018847 90 71 61
-0.1364619319318767 0.1452067704140927 -0.9593578160426425 87 67 56
-0.12598494546780004 0.13940315486254645 -0.9689344137953433 88 68 57
-0.12922769723244842 0.14105904431859156 -0.9704032294531285 88 68 57
-0.12558580974469563 0.13897091423619487 -0.9759658129368788 89 69 59
-0.12712819295109576 0.13970216383681347 -0.9784438673602519 90 70 60
-0.13134504796216911 0.141888456234938 -0.9793124938636579 90 70 60
-0.13179470719698808 0.1420256229607947 -0.9824351086738068 90 70 61
-0.1425756272382099 0.14778431277460077 -0.9793149212114972 92 72 62
-0.14739649148087489 0.1503008981639562 -0.9797669455067608 93 75 65
-0.1456598049172714 0.1492490425370267 -0.9841908444705962 96 78 68
-0.1341018598245872 0.14285097884723938 -0.9946185552930009 99 81 71
-0.13894743092106193 0.1452737953756263 -0.9984407363086203 94 76 66
-0.14131271320640293 0.14645425699200754 -1.0003757612749886 95 77 67
-0.14864488692300948 0.1503398154047328 -0.9992313440026034 94 76 66
-0.1561172222644741 0.15430258780977482 -0.9979722941652317 92 74 64
-0.1748788146444522 0.163676207702838 -1.0130017859474847 72 38 13
-0.17779722887249316 0.16516150098656707 -1.0144807825587825 75 41 16
-0.18065340585823605 0.1666131676265602 -1.0159898612496399 77 43 18
-0.1787700659968901 0.16548042392484816 -1.0205367921137316 77 41 17
-0.17793081679560346 0.16491683470897117 -1.0244201054925388 76 40 16
-0.18123949437805104 0.16661569468216292 -1.0256249604187127 78 42 18
-0.18380030837851136 0.1679069209515216 -1.0273038412456479 80 45 18
-0.18318496929516478 0.1674654602854526 -1.0310426061111475 83 49 23
-0.18338253225502954 0.16746743512777493 -1.0342550177829508 84 50 25
-0.18303381696313215 0.16717123997668887 -1.0378267301868949 81 49 24
-0.18263436360922297 0.1668472382643779 -1.0414353718340883 83 49 27
-0.1813350422037058 0.16603190191641226 -1.0456411833469557 83 50 29
-0.1746044599118124 0.16225118929299995 -1.053447101789626 84 52 32
-0.17569174920296038 0.1627381235342154 -1.0560955256399325 82 54 33
-0.17805131802724014 0.16391988487265757 -1.0578948084969926 82 55 35
-0.17568985777438045 0.16252356579307364 -1.0628385346487375 84 58 39
-0.17706488526843925 0.16316774137890816 -1.0652917742556165 83 58 38
-0.17782001312267207 0.16347339815971995 -1.0681579383853044 83 58 40
-0.1827653945718077 0.16606835298066389 -1.068199529948756 82 56 41
-0.19131091646927142 0.1706309934504434 -1.0657894120949825 80 56 42
-0.18902005673966907 0.16927300818618038 -1.0706930618914938 73 51 37
-0.17533831230977753 0.16168921375077472 -1.0833548867434486 69 46 35
-0.17815124594029585 0.16311944501362752 -1.084823964217971 54 36 26
-0.18102684798103133 0.16458423510486972 -1.0862406741388684 48 31 23
-0.18255731747489237 0.16531391622676447 -1.088570771743498 51 33 24
-0.18367971135504027 0.1658205976419694 -1.091177592886633 57 37 27
-0.18638447888316445 0.1671926898704181 -1.0926893892304004 63 41 28
-0.18449874277800257 0.16605441837529633 -1.097371132785785 67 42 28
-0.1851706497963929 0.16631483129654456 -1.1002863564587873 66 39 24
-0.18391259371192073 0.165519468518218 -1.1045455362143515 66 39 22
-0.18020068335893993 0.16338131632528122 -1.110526812792456 68 40 20
-0.18133825067047424 0.16389617421247651 -1.1131269850529162 71 41 19
-0.18209035896965017 0.1642001694972041 -1.1159955570528948 77 47 23
-0.18366062922229248 0.16495199024776638 -1.1182863563177199 80 52 28
-0.18509130087364425 0.16562753510800537 -1.120671501454879 85 58 36
-0.19077288809421256 0.16863036880178403 -1.120038088686126 85 60 40
-0.19056407249838797 0.16840878737231474 -1.123572926760294 86 60 41
-0.18838591333860996 0.16710872841442487 -1.1285157367135135 84 58 41
-0.1879977001549475 0.16678857516085147 -1.1321891834916211 84 58 41
-0.18519391152331577 0.16514525040674688 -1.1375998210205767 82 59 41
-0.18270358027088682 0.1636731901621511 -1.1427988284449269 81 58 41
-0.1962093885457391 0.1709642033724581 -1.136464878862535 81 59 43
-0.1953939267777128 0.17041009235334154 -1.1404432272093181 81 58 42
-0.194281683791306 0.16969317243994733 -1.1446426521661472 77 58 41
-0.194727109167746 0.16982971334628844 -1.147714846753929 73 55 41
-0.19382717602487234 0.1692288319192956 -1.151769724587243 84 73 61
-0.1949378091427115 0.1697299175141875 -1.1543582818691862 115 107 95
-0.19640306065535856 0.17042550062554068 -1.1566839361628947 146 143 136
-0.004960432232079051 0.11330261108434991 0.10555989406564056 150 139 133
-0.013360007289239695 0.11759311852769216 0.10226673409159295 125 106 94
-0.02180551941175886 0.12190840552374518 0.09899751588504034 115 88 74
-0.03045554851777181 0.1263312424246206 0.09574646407972828 110 84 64
-0.03608481487399446 0.12917822782049013 0.09263182196507472 112 84 61
-0.04183638201851193 0.13208957967809543 0.08952969642524744 103 73 48
-0.04822192891033967 0.13533244042114329 0.08642378154391156 73 45 23
-0.05129963848319877 0.13684887135554896 0.08344110455364259 58 32 14
-0.05363856481005905 0.13797980748543467 0.08048887755967289 51 25 10
-0.04350059686532658 0.13259541878303555 0.0778939233211615 50 25 11
-0.044694729234262986 0.13312821334022376 0.07496362285334546 49 24 10
-0.04163723131444024 0.13144041291419495 0.07214131826097231 47 21 7
-0.04233512861882311 0.13171391671719135 0.06922008567046449 48 21 8
-0.042580199443961346 0.13175087818787337 0.06630925718903552 48 22 9
-0.04282531171970155 0.1317878344269482 0.06339756999989526 48 22 9
-0.043010080379860975 0.1317932332891623 0.06048612808805438 48 22 9
-0.05139083268307798 0.13608154989399546 0.05743721025476334 47 21 8
-0.05058225526887461 0.13556816445608105 0.05455205297703558 46 19 7
-0.049673695151901745 0.13500238539338053 0.05166390291194717 45 20 9
-0.048666531457801775 0.13438491798072502 0.04877224541358635 47 22 10
-0.04645081575624477 0.1331354948454826 0.04588774104271609 46 22 10
-0.04837271688144168 0.1340490418356381 0.04295950832366299 44 21 9
-0.04827797192805422 0.13390827697005006 0.040049556075500065 41 19 8
-0.04786351047411116 0.1336002608215441 0.03713924683709578 39 18 8
-0.04757455350578823 0.13335778572528476 0.034225462174827505 38 18 9
-0.04734379224675531 0.1331456664288171 0.03130894258685625 38 18 8
-0.046835160464952466 0.13278812078597999 0.02839001695374889 41 19 8
-0.04474788001692927 0.13160462059547395 0.025465308650195917 44 21 10
-0.043878725248665804 0.13105816040249568 0.022535884652577505 44 21 8
-0.043829917755372 0.13094079614590892 0.01960587145472112 43 21 8
-0.04491147145077868 0.13141488377912286 0.016681368563621537 43 21 8
-0.04623935420411419 0.13201794617281148 0.013760783997902724 41 19 8
-0.0475391874030623 0.13260641296016773 0.010842649758537428 41 19 8
-0.04282903807942227 0.13004904295411468 0.007858064035279496 42 20 9
-0.04490409658121322 0.13104319292451544 0.004945403986732003 42 20 9
-0.0458055583362744 0.13142306585955468 0.0020205617402821677 42 20 9
-0.04616145156989416 0.13151731714335985 -0.0009119670128575619 39 18 7
-0.0458102352814198 0.1312412691077005 -0.0038578421319838962 37 17 6
-0.04584107671676083 0.13116521869628353 -0.0067990098950111155 37 17 7
-0.04674250860418427 0.131545100828756 -0.009723060215257259 38 17 8
-0.04672258305279234 0.13144240351488073 -0.012667139834236459 42 18 10
-0.045744316614164365 0.1308376076525337 -0.015636783670189548 45 22 13
-0.045403966584397264 0.13056687279310666 -0.018594490724468553 45 22 12
-0.04640331855173594 0.13099801502030475 -0.021517290157822878 44 21 12
-0.0467747866454989 0.1311001822378747 -0.024457192307275718 43 20 10
-0.04809446591496708 0.13169927046805796 -0.02736766320987463 43 21 11
-0.04791114772761654 0.13151067880556555 -0.030325318832211342 42 19 11
-0.045773230638737006 0.1302974491339996 -0.03335346614873354 40 20 11
-0.04743644390322472 0.13107662448387913 -0.036251546064969636 39 20 10
-0.04696167264622794 0.13073500362892554 -0.03922749577174209 38 20 10
-0.04433817517607171 0.12926661679145957 -0.04229251160727596 36 19 10
-0.04048235598256325 0.12696516192966592 -0.05137029333345276 30 15 6
-0.03767238565404928 0.1253978505933881 -0.05447942357001945 36 22 14
-0.0363109426341173 0.12459009068256147 -0.05752974735820991 31 18 10
-0.04260445586458133 0.12779835217768618 -0.06020357894300262 35 22 14
-0.04851163123330562 0.13080450961587714 -0.06287789168494944 57 40 33
-0.051380145072680836 0.13221666404966614 -0.065696208916772 61 44 37
-0.06017190193680194 0.13673767316032415 -0.06818037533228331 62 42 38
-0.06647761482121023 0.13995471503050305 -0.07077766923255861 65 41 38
