ply
format ascii 1.0
element vertex 693
property float x
property float y
property float z
property uchar diffuse_red
property uchar diffuse_green
property uchar diffuse_blue
end_header
0.03637026573514174 0.31656453750454383 -0.8605653959531671 89 59 33
0.03630436424103694 0.31406499482287054 -0.8650106380920166 88 59 35
0.036241532195681714 0.3110340630823348 -0.8697236809821901 82 54 32
0.03617028775587298 0.30930120319429183 -0.8738187990413417 82 54 33
0.03609093248187484 0.3088453582871845 -0.8772994697158082 80 52 31
0.03604101532488527 0.3035879676981797 -0.8831324156875685 79 51 32
0.0359673961976312 0.3021287180013359 -0.8871211367808248 79 52 33
0.035899597772322475 0.29967980895619006 -0.8916044801625462 76 49 30
0.03584366583366403 0.29521469943291206 -0.8970951776577465 73 46 28
0.03573849505360205 0.29891873296403804 -0.8985502741342943 72 45 28
0.03563821679379791 0.30184439734680457 -0.9003819207248407 71 42 26
0.035510618295132204 0.3094481673367928 -0.8998677970801141 69 40 24
0.035438416059332366 0.3076737425123782 -0.9040313600572898 67 38 22
0.035409810758327866 0.2983420868466929 -0.9120057010046658 68 39 23
0.03527236086026045 0.3077812511042527 -0.9105368534818706 76 47 31
0.03520488615332447 0.30509831218956335 -0.9151789049486032 79 50 33
0.03512495905364774 0.30456340109197066 -0.9187402047575538 85 57 34
0.03504542138214323 0.30394189292203927 -0.9223495389156943 86 59 32
0.034968551632299574 0.3028229709484105 -0.9262176910121098 90 62 37
0.03487339454619526 0.3049839280515072 -0.9284068071689088 88 60 36
0.03479041421409745 0.30495106992604576 -0.9317211665841696 84 54 29
0.03470738035138746 0.30491834652969263 -0.9350375497989925 70 39 19
0.03462429531412858 0.30488531581713296 -0.9383561874117841 54 25 10
0.03456425374160255 0.30053696874765135 -0.9439242501582473 49 21 9
0.0344614455719773 0.30416376395201217 -0.9453422818668121 48 20 10
0.03437284861223382 0.30514228127910603 -0.9481380092840024 48 20 9
0.03428486178302307 0.3060110034248784 -0.950990024141483 55 26 12
0.03417868884232365 0.31040004583533043 -0.9519827459476073 61 32 18
0.03407597724086846 0.31418090076952004 -0.9532840228047096 68 42 29
0.033961925493816686 0.32024870414187223 -0.9533586171740931 75 53 40
0.03388905232530001 0.3182435168920307 -0.957717932364464 81 60 49
0.033785624706438235 0.3223093859293852 -0.9588386848360959 83 64 55
0.0337077116168719 0.32128451362800436 -0.9626792682410077 89 71 63
0.033604550418268805 0.3253776674998534 -0.963769457027443 90 73 65
0.03350777201375003 0.32822285900328585 -0.9655213165906448 101 84 76
0.03340892649953266 0.3315399011586989 -0.9670092730601142 104 87 79
0.033304810373271716 0.3360136087867788 -0.9678583799743978 101 84 76
0.03320874321358552 0.3388586559148187 -0.9695821436137257 101 83 73
0.03311535808462104 0.34117472655094744 -0.9715873012039526 97 79 69
0.03302517012058782 0.34283536089504574 -0.9739461220766817 99 80 69
0.032937906044180974 0.34388084787503137 -0.9766399102308762 98 80 70
0.03284296681649419 0.34662436098061633 -0.9783933744013592 96 79 71
0.0327477985418159 0.34946260283372277 -0.9800864843883933 96 79 71
0.0326530755041091 0.35224716923025584 -0.9818012842869382 97 80 72
0.03255082437873152 0.35678406628772025 -0.9825301237133964 96 79 71
0.03245257992345317 0.3604856260588951 -0.9837123959780096 96 79 69
0.0323855062004697 0.35703880293403917 -0.9888984751537756 93 75 65
0.03229011734960234 0.360130139972364 -0.9904148124597563 88 67 56
0.03220219766158568 0.3615101750392977 -0.9928893726461341 80 53 40
0.03211422261983056 0.36292140090765146 -0.9953432648162347 75 40 18
0.03202927338665848 0.3636205902494436 -0.9981991027426486 73 35 8
0.03193856619415332 0.3657293547103042 -1.0002500322420418 71 30 7
0.0318508671910681 0.367130144418915 -1.0027006288385933 69 28 6
0.031765393924742445 0.3679943633258811 -1.0054562786448573 73 32 7
0.031676342866956225 0.3697696479994251 -1.0076859810501944 76 34 8
0.03158815453397782 0.37135295068199103 -1.0100221981577933 78 36 8
0.031496645754035824 0.37381908209862447 -1.0118429615804339 80 38 9
0.031406546528295415 0.3759620850124623 -1.0138446876433633 84 40 11
0.03131982096543313 0.37725029033535495 -1.016339210481799 85 41 12
0.031232758320725987 0.3786469420211429 -1.0187676078405592 86 42 13
0.031149510829299606 0.37902953067511025 -1.0217880379148694 89 45 16
0.031067085450103976 0.3791822095731591 -1.0249443940878258 90 46 17
0.03097900638566781 0.38089772644299347 -1.0271793655438197 91 49 19
0.030921152892140393 0.37412682388311425 -1.0344364017022645 96 57 26
0.03084607569288376 0.3720815613071996 -1.0389124846993887 98 62 32
0.030747203955209405 0.37684931769773405 -1.039338107236849 102 68 38
0.030648821534167797 0.38158668853264055 -1.0397666003714259 105 74 45
0.03056872968155934 0.38100452220269027 -1.0433690709326058 107 76 47
0.03048748782075469 0.380737609128646 -1.0467860600853545 108 77 49
0.030400377865502527 0.38223986276236466 -1.0491389271249414 112 81 53
0.030319613135757102 0.38180417122754234 -1.0526607120657685 109 78 49
0.030237499868863493 0.3817638612912764 -1.055946153434802 104 73 44
0.030150912985642212 0.38313234918913275 -1.0583763303132667 98 67 40
0.03006424425674108 0.3845517228085395 -1.0607724532351648 98 66 43
0.029978225146979225 0.38578412735028395 -1.06327986630066 98 67 45
0.02989716026122346 0.38538591245405013 -1.0667860824233328 94 64 45
0.029818296848935964 0.38421295882391876 -1.0707728909513414 86 57 42
0.02974372854426462 0.3815084046350653 -1.0757120564778404 71 44 31
0.02966812242517263 0.3790619398111509 -1.0805031931113656 55 35 27
0.029586581530998145 0.3786254279467896 -1.084056355248458 35 20 13
0.029503862396048124 0.37858159008402137 -1.0873684060175908 29 16 8
0.029422519713112365 0.3780122514506652 -1.0910110708692125 33 16 9
0.029360538436191134 0.3701722549251456 -1.0992154248417465 43 20 12
0.029282720826260412 0.3680570137174223 -1.1038514629108303 54 21 12
0.02920216630555628 0.36690529818330153 -1.1078897584847092 65 26 12
0.029090173392748313 0.37807592865643147 -1.1041423445545173 69 31 12
0.029005422001302433 0.3787103562112015 -1.107037808206364 72 34 13
0.028918441154200985 0.38025945677625456 -1.109351217138768 78 41 17
0.02883223778056637 0.3815231436102151 -1.111843006573979 85 50 24
0.028741389719593773 0.38478860776275126 -1.1130516606590302 87 53 26
0.028658704715674457 0.3846248516975614 -1.116450258148058 88 55 30
0.028575737501668228 0.3845567034872741 -1.1197899650513248 93 61 37
0.02849362696886587 0.3840757825873082 -1.1233982659045105 98 66 41
0.028411760451591595 0.38343816053253976 -1.1271117532025487 91 59 34
0.02832853059627006 0.38339124284171244 -1.1304463121903352 89 57 32
0.028245121782719422 0.3834038434493161 -1.1337443401761342 91 60 35
0.028163940639882507 0.38229343435085095 -1.137777204481956 95 65 39
0.028087140461184802 0.3788941769401683 -1.1433140841701208 95 66 42
0.028005633927678856 0.3777369170951478 -1.1473941922280984 83 59 40
0.027929679372485198 0.3735552020037092 -1.1534710834649184 64 46 31
0.027855145448486045 0.368362299588025 -1.1602328453319029 71 56 41
0.02772279661236234 0.3950785915183186 -1.145897597440296 101 91 79
0.027652692921835816 0.38759022622028805 -1.154166269579435 143 139 130
0.02758595660773244 0.3776814515270478 -1.1640755814182215 169 166 161
0.02749653883552398 0.38088779489553837 -1.1652708582995666 182 181 177
0.02742094116635029 0.3756541231762668 -1.1721046829038526 190 188 189
0.027334921662773133 0.37674891158432294 -1.1747129842287003 194 192 193
0.027248617247437063 0.37806531586359216 -1.1771701381999593 198 196 197
0.026837139604133458 0.5490021659292362 -1.0681890100769507 201 199 200
0.026759746218098138 0.5497392739837248 -1.0707174547515825 201 201 201
0.026715646825428086 0.5253964516289447 -1.0903093430528046 201 201 201
0.02662899127066731 0.5324852030716187 -1.0885492889138737 202 202 202
0.02655220619891394 0.5320682258941559 -1.0918995577897894 203 203 203
0.02647186437005663 0.5345780248760317 -1.093245529243285 203 203 203
0.025755348939722526 0.5597263584692918 -1.10322253429108 207 207 207
0.025676872703092483 0.5624459229470973 -1.1043407745331781 208 208 208
0.0670235724613941 0.16400639782877155 0.12488872620062975 183 183 183
0.06678163119009971 0.17204708248184084 0.12162954355234369 183 183 183
0.06662521752952234 0.1760501256342668 0.11856504431399555 183 183 183
0.06650732159966978 0.17823197646259814 0.11558596020041784 180 176 173
0.06629384143370383 0.18497611698182717 0.11242926571074795 136 122 113
0.06606709375753479 0.19237519131317724 0.10926527585217136 128 104 90
0.06589311955858308 0.19727346137119156 0.10621384971688894 119 90 73
0.06571230048454182 0.20251481404493085 0.1031628206248513 129 96 76
0.06543826535514205 0.21224703498561542 0.09997191689147127 133 102 78
0.06538662112572684 0.21131746021332376 0.09715663781141012 136 105 83
0.06534013393205267 0.2101343778029772 0.09434504587090595 135 105 83
0.06531902810502749 0.20772056593834945 0.09156518578086623 119 88 67
0.06533276752776995 0.2036120968003553 0.08882486072225233 109 78 56
0.06516640554853302 0.2082082936489906 0.08583665501686139 106 75 54
0.06508561451936729 0.20866792212747895 0.08296562251156002 91 61 41
0.0649180645853757 0.21334316368565734 0.07999310778839434 81 47 28
0.06471220853917181 0.21989772502167862 0.07699022701463683 73 36 18
0.06465699373565614 0.21912757250109008 0.07415949880581088 70 33 14
0.06446018779357097 0.22526974444452458 0.07118911734051359 68 31 12
0.06425261693534963 0.2319586838052403 0.06822512991602744 67 30 11
0.06417327557459816 0.2323830374136766 0.06538396248606333 62 27 8
0.06397039653303532 0.238874351163826 0.062449775444551346 57 21 5
0.0638348398532338 0.24207467470671679 0.05957847571090595 61 28 9
0.06383898386878106 0.23839881031300586 0.056799982018741216 72 35 16
0.06378377552292046 0.23763853305667587 0.05397742355123086 104 68 50
0.06360594547471896 0.2429393651472851 0.051093883717909884 112 76 55
0.0633947387902055 0.24991148375873695 0.04821096960204036 112 71 50
0.06332054236498734 0.25010488049320656 0.045391069023042734 114 75 55
0.06320438921116871 0.2523838554415965 0.04255966335761828 143 109 94
0.06306220038323893 0.2559664968582229 0.03972872011534036 141 112 98
0.06295097008553692 0.258014904012558 0.03690998894769157 134 105 90
0.06270209304485697 0.2669525186288497 0.03409123236839573 121 92 77
0.06263228765499149 0.26694929610709756 0.03128987883475125 123 95 79
0.06247716277019067 0.27122660058921816 0.028496755605269146 116 88 73
0.062341939719356705 0.27451696403814174 0.02571096109561399 106 76 59
0.06226818943660379 0.274720647500083 0.02291718856059253 82 47 27
0.06218621828062474 0.27533808032163976 0.020125253273917208 79 39 17
0.06214236172721586 0.2740285909257168 0.017317872534218376 75 35 13
0.06199872788493528 0.2777669610611581 0.014553743398595692 70 32 11
0.061900175697194706 0.27922925675228066 0.011773808102853417 68 30 11
0.06186788872478394 0.2773255663860273 0.008954297655220836 63 26 7
0.06180682189620673 0.27687895797601725 0.0061481219334827975 61 25 6
0.06167721545572775 0.2799269626941777 0.003393371825729248 59 23 6
0.06157974023573784 0.2813414256743014 0.0006182987989019131 54 21 6
0.06150747685585895 0.28146760205835775 -0.002177946956449961 56 23 7
0.061369866265757265 0.2849465153356985 -0.00490842470801077 57 25 9
0.06124821208906918 0.2876160672370687 -0.0076475064880433125 54 25 11
0.061124332883596234 0.2904084390455206 -0.010377410432053008 55 26 12
0.06175199796534642 0.25441279331870353 -0.014047070357005441 55 27 13
0.06144951509086971 0.26638603741774924 -0.01658332792857703 56 28 16
0.06143355857790111 0.2635552389019852 -0.019490769443033434 57 30 18
0.06141075362950737 0.2610671241426997 -0.0223982761782954 56 30 21
0.061427565813381754 0.25650653471686685 -0.025377584500642265 51 31 21
0.06130772309638255 0.2590487818254607 -0.028146018455312942 43 24 17
0.061252716388410365 0.25821302497024184 -0.031020957297832608 33 16 9
0.061145344350980735 0.2601118499497504 -0.03380482222812947 31 15 11
0.06066732710273056 0.281446673936889 -0.03587961297331834 27 12 8
0.060895749153463394 0.265756119296319 -0.03929058951729853 22 11 8
0.06076246573736993 0.26903830107248583 -0.04200517059208721 15 8 6
0.060533172146422225 0.27739406541187445 -0.04450485559564661 9 5 4
0.06028291918663901 0.28688797530376353 -0.04693314386286394 9 5 4
0.06024598326828707 0.2851243437943685 -0.04982685113275055 8 4 3
0.061468158907821854 0.20879219326114432 -0.061972820216188565 8 4 3
0.06065015254255074 0.24852893250516755 -0.06293779242996524 9 5 4
0.06049694013210798 0.25287778098434466 -0.0655969249397581 10 5 2
0.0603111149187788 0.2589890620174805 -0.06815179183203027 12 6 5
0.06018914185693655 0.2616950814094383 -0.07087444576976104 21 10 8
0.06008083669444204 0.2636746701146156 -0.07363102553435327 46 30 24
0.06002970677595378 0.2625785382363032 -0.07655910862581941 73 56 48
0.059914901233826624 0.2649146893261296 -0.07929068086460977 59 41 30
0.059840203723909025 0.26508771183402463 -0.08214699318202526 44 20 9
0.05948405385497971 0.2805209985767594 -0.0840632170893684 43 18 6
0.05940865919389946 0.2807600625113345 -0.08689457678873674 45 17 6
0.059664091456415734 0.26298574732532154 -0.09089185667850616 47 18 4
0.05960443527278547 0.2623269787254676 -0.09381143035907286 56 26 12
0.05954679817063159 0.2615529540848746 -0.09674237988636192 69 42 29
0.05925190677589673 0.27377076395782196 -0.0987783496814295 64 36 22
0.058718545814932126 0.2991274689518795 -0.09985025823951726 67 35 20
0.05879648568198437 0.29096031052054594 -0.10326785055746782 67 32 17
0.05872633102749893 0.2909204286425033 -0.1061125743790537 70 33 17
0.058489204038259544 0.3001012044128981 -0.10826543492688404 83 45 27
0.05829568267191419 0.3069044095024419 -0.1105745876473194 85 47 29
0.05811069982527866 0.3132602543700267 -0.11289976674772961 125 92 78
0.05799294853077242 0.315903583129745 -0.1155033733696322 155 129 117
0.057950606721880384 0.31435551395473216 -0.11844114238367257 133 104 89
0.057883999335636836 0.3141531962933183 -0.12127376556510014 124 90 71
0.05778106502729059 0.31597980260468383 -0.12393755709809287 110 69 43
0.05760727530000171 0.32178366903197264 -0.12625613631292465 94 47 16
0.05761862091314304 0.31721041211701506 -0.12946476852160776 86 41 13
0.05740843203053067 0.32508618982362314 -0.1315829761392364 77 35 11
0.05739604559169459 0.3218348530615807 -0.13468416209939305 71 30 9
0.05729984246763934 0.3233058227065284 -0.13736296572372314 68 31 10
0.05721172342968485 0.324322891911937 -0.1400812549606097 65 28 9
0.05718030235522755 0.3221230163986891 -0.14310331471536933 63 31 14
0.057143157673734485 0.32023709321090926 -0.14610335694085774 62 39 27
0.057155619046780404 0.3155121476562509 -0.14938876795230768 63 43 32
0.05710080230407359 0.31460911081512055 -0.15230998666509293 64 46 34
0.05710431640337284 0.3103592931200427 -0.15557351588631937 64 46 34
0.05700082678953823 0.3122301289440948 -0.15822414063326254 64 46 34
0.05695557527254923 0.3107570025617758 -0.16121853645766704 63 44 33
0.056971913058468174 0.30572473572013414 -0.164594714302229 63 43 32
0.05690370863475507 0.3055523210562523 -0.16746741443628027 63 43 34
0.05671804443389791 0.3121778303913709 -0.16960389020375244 62 42 34
0.05664625122719814 0.3122225608735488 -0.17244652915729683 61 41 34
0.056591968125829104 0.3112468441557396 -0.17540457413593366 60 40 33
0.056605451805330664 0.3063145847047709 -0.17881507087526516 61 41 32
0.05648689613681077 0.3090712843297096 -0.18136010942800596 61 41 32
0.05644826293855777 0.3071587475242654 -0.18444115163970337 60 40 31
0.05639641461423363 0.30601073773469556 -0.18743959654512998 59 39 30
0.05642675324724076 0.30002177826737353 -0.19102080814707562 59 39 30
0.05639767881065829 0.2975054330820779 -0.19420229796241634 59 39 30
0.056393156473423335 0.29352489271605164 -0.19757232809482222 59 39 30
0.056098959675130955 0.3066755775801561 -0.19883314583937 57 37 28
0.056283012624811606 0.29150205906720345 -0.20360886900206643 57 37 28
0.05622405190164013 0.29071142633401026 -0.20660619202079955 56 36 27
0.056170775872442534 0.28957586550704173 -0.20965190666374334 57 37 28
0.05536028843657652 0.2768297011331785 -0.2523581642233188 57 36 26
0.055417264689390254 0.26877533487129485 -0.2565259151124141 58 35 25
0.055385496037270686 0.26617237806626204 -0.25988480901725475 59 35 25
0.055310183303136466 0.26625582025114314 -0.2628375486568733 60 36 25
0.055221730377133085 0.267154259996617 -0.2656642558858892 63 37 24
0.05539485965460047 0.2517473990580452 -0.2710648767542814 63 37 22
0.05518863307118496 0.2599696248917826 -0.2727466892680904 63 36 22
0.054757092172652164 0.2823435905834884 -0.27212563016887437 62 34 20
0.054863750080906645 0.27102738293737566 -0.27691442850552644 61 34 17
0.054855697044071894 0.2668741994608863 -0.28056431834398404 60 33 16
0.05480674093450132 0.26527914701622024 -0.28380491776076033 61 33 19
0.054758071985873194 0.2636554295690003 -0.28705696658889757 61 33 19
0.05475025221707744 0.2594305699170453 -0.2907549217975819 62 34 20
0.05468402464802162 0.25889524239410966 -0.29383908253470775 61 33 18
0.05457572390727802 0.2610359050080303 -0.29646645271187977 64 33 19
0.0544905428315163 0.2617074442083933 -0.2993437430065919 61 33 17
0.05439962186897225 0.2627472699968222 -0.3021561426645988 52 29 20
0.05429585136696448 0.26461465720517363 -0.30482079192109746 77 62 56
0.05418077952164767 0.267216191285482 -0.3073504495868646 80 65 59
0.05405490575321961 0.27052520307242367 -0.3097464559510756 50 27 19
0.05400660288230145 0.2688296843525455 -0.31304134550072793 46 16 5
0.05394828360071388 0.26777249526376157 -0.3162264822755214 58 25 8
0.05379693269500263 0.27275660373255173 -0.3183020887770799 68 33 11
0.053640548556236865 0.2780915323272391 -0.32029846406893314 66 34 12
0.05350464604093681 0.2821123838603903 -0.32252632514018453 66 34 12
0.053429688273419505 0.28215764689100475 -0.3254954171458512 70 38 18
0.05342525504115009 0.27756724886563205 -0.329350416513021 70 39 23
0.053598707472064175 0.2612338716886066 -0.335480290005779 51 22 12
0.05356683269881427 0.25837196274577223 -0.33905087884018553 29 10 3
0.053555206821364866 0.25415170190763786 -0.3428977518876247 37 17 9
0.05354522358458785 0.2497975323506016 -0.34678603596761837 54 31 20
0.053459304941693965 0.2504715466400461 -0.34969091549115633 48 26 12
0.053386099471469994 0.2502978912142219 -0.35276512115144765 48 26 13
0.05331919777003309 0.2496986870822255 -0.35592748046434525 44 21 11
0.053148902322429754 0.2560292895877762 -0.35768400512090925 42 21 12
0.05308715102097201 0.25508989772744617 -0.3609123806124082 36 20 14
0.053008927755785536 0.25525345768997154 -0.3639176345061666 19 8 5
0.052924734513449236 0.25581866226333927 -0.36684050070674473 22 10 5
0.05284125038197237 0.2563358941089645 -0.36977336562887114 40 23 16
0.05273884076659622 0.25813957051557973 -0.3724344887377641 37 18 11
0.05261615676095341 0.2613320438815949 -0.37479596102321255 36 16 9
0.05249224917957463 0.2646224675707395 -0.37712802569455667 34 16 9
0.05222463963372715 0.2777764540962605 -0.37732021126020515 35 16 9
0.05256836118519207 0.24898726286779227 -0.38660137027469677 38 16 9
0.05240622878673338 0.25489605180608566 -0.38836851061015054 41 17 10
0.05227595068945171 0.25863313676947586 -0.39059818502955834 61 36 29
0.05192389740440618 0.2777542192737382 -0.38939595934887256 53 26 15
0.05182839748816802 0.279152566938652 -0.3921047442738229 49 21 9
0.05166479678487352 0.2853003721936104 -0.3937392846864638 38 14 5
0.05154820605883995 0.2881949523556906 -0.39609508831398454 43 14 4
0.05143157621227675 0.291105401308693 -0.39843974834335744 50 18 7
0.05129008164505098 0.29577600890620526 -0.40037131330151754 57 20 8
0.051150241445891365 0.30035325007487995 -0.402311341674784 66 32 19
0.0510514036335873 0.302056366759054 -0.40490981307244933 100 75 60
0.05098980928994063 0.30112734854964124 -0.408123585435539 104 81 70
0.050947613293085496 0.29881174840464736 -0.41167035824279286 90 58 45
0.05080795115398991 0.3034247576630208 -0.4135745945622086 70 32 11
0.05072375995240334 0.30409724523795295 -0.41641143719690443 65 27 8
0.05067542093098096 0.30220129540858365 -0.4198683365388548 64 26 6
0.05060378555388566 0.30196562836112933 -0.42292926697106026 70 32 8
0.05044710195735164 0.30785533850997404 -0.42449322699561876 75 38 12
0.05029146186024742 0.3137005986627317 -0.4260509568188219 77 41 17
0.05018045316289471 0.3163412286616933 -0.42838638816764013 82 48 25
0.05021214611449752 0.30861912597349306 -0.4333016777492471 85 54 30
0.05024195275759977 0.3009863062996999 -0.4382210744398197 86 58 35
0.05039032213526525 0.2846349930383963 -0.4453709941341903 87 59 37
0.05044036372247376 0.2753961917928871 -0.4507656043907171 71 39 18
0.05047142590187327 0.26749577659005996 -0.4558490258260932 73 42 22
0.050733617973630685 0.24249234703617906 -0.4653663421504111 67 38 19
0.05076769713190928 0.23421729677096015 -0.47062891189207423 65 36 18
0.050741218808918666 0.23038417085768823 -0.47476115361457305 59 32 16
0.05064120430620382 0.23199903718322412 -0.4774774983164234 58 32 17
0.05055957755485208 0.23224729197882604 -0.4805513644042846 69 43 27
0.05047041074265824 0.2330583755075408 -0.4834766730250594 63 38 20
0.05038388321292503 0.23367273103820674 -0.48645375635957044 56 30 13
0.05030868554506933 0.23343374717592943 -0.4896601700274838 57 31 14
0.05025540839360207 0.23153319338385153 -0.49331874650410185 58 32 15
0.050136910549973795 0.23456192503045067 -0.4956435485434031 58 32 15
0.050058753781433846 0.23453820726090333 -0.49879615985881676 54 28 12
0.04998152237277486 0.23444031742902915 -0.5019710872590796 56 30 16
0.04989781029287186 0.23483422182169378 -0.5050118860834334 53 27 14
0.049831769539788795 0.23387081547030195 -0.5084314799373162 52 26 11
0.04976143014525197 0.23322887030958653 -0.5117659086338879 46 20 7
0.04968724040534976 0.23287677448070088 -0.515022521697369 45 19 6
0.04961298187451241 0.23252428195414376 -0.518282210644068 43 17 5
0.04954501876964429 0.2316767686758039 -0.5216860400675183 48 21 10
0.049439050632371105 0.233783378172181 -0.5242471661220655 52 25 13
0.04937946114689373 0.2322724523536102 -0.5278467075650047 56 28 15
0.0493186002311459 0.23084807723745104 -0.5314278920225745 52 24 10
0.049211537135182185 0.2330476860976135 -0.5339584197912619 50 23 8
0.04913460336128956 0.23287865105979422 -0.5371784065005488 49 22 7
0.04905761358261947 0.23270934718570527 -0.5404008540192202 52 24 9
0.048989861029459 0.23180117222923202 -0.5438448361599155 55 26 11
0.04888721792194234 0.23366544848238813 -0.5464667758553036 53 24 9
0.0488208895107688 0.23263322584794174 -0.5499530300637927 52 23 9
0.04872017734395771 0.23435011336499806 -0.5526156202183893 51 22 7
0.0486435908028195 0.234131977180143 -0.5558610187113829 52 23 7
0.04857735686106417 0.233072342550807 -0.5593654443374378 57 27 9
0.04850303414660134 0.23265759876964237 -0.5626775745893459 60 29 11
0.04842001480767087 0.23294360583156118 -0.5657770325772865 57 26 7
0.048339505467178676 0.23302296430759994 -0.5689413959190001 55 24 5
0.04827180665806745 0.2320502942146676 -0.5724348886995243 58 27 8
0.048213929802557495 0.23026046582655232 -0.5761891859969572 59 28 10
0.04814454005981316 0.22940366101103213 -0.5796576581514626 61 28 9
0.04803457545569159 0.23189285738892618 -0.5820725374121791 63 29 10
0.04793307842159265 0.23369249863789793 -0.5847003040203994 65 30 10
0.04787032194464206 0.23227475256651295 -0.5883521786033877 63 30 10
0.04787153580507709 0.2254984373896511 -0.5937318477223756 65 33 12
0.047655421090631284 0.2368927561737068 -0.5932690294517364 68 36 14
0.04761478021376523 0.23359905610379508 -0.5975369829176955 71 37 14
0.04756401708453834 0.23113311829359967 -0.6015476774503814 72 37 15
0.04749493865179784 0.23019769415591324 -0.6050666479485767 73 37 15
0.047436927890564175 0.22831082998203284 -0.6089040470065332 73 36 14
0.04736593817843625 0.22751401550606512 -0.6123886114442423 73 35 13
0.04729572561431306 0.22664103866304655 -0.6159030287462315 72 34 11
0.047225097561428744 0.2257935521913166 -0.6194136849209194 73 36 10
0.04714322699320844 0.2259053948803681 -0.6226066029296944 74 37 11
0.04710526372535778 0.2222144734147496 -0.6270854047215852 78 41 15
0.04704503471983271 0.22042664691744435 -0.630932405279896 80 43 17
0.04690709279859033 0.2253951976561866 -0.6324828558771596 80 43 17
0.04681779030060681 0.226140907791962 -0.6354659736729013 80 43 16
0.046728682859528546 0.22687079016267847 -0.6384539501006751 80 43 16
0.04664507899633483 0.22711692005937067 -0.6416087885657077 82 45 18
0.04644939474674777 0.2372727178922757 -0.6413189811030053 82 44 17
0.04636428924535311 0.23768391244515666 -0.6444017969465453 77 38 12
0.04628431046695968 0.23763722668864384 -0.6476458588711018 77 38 12
0.04620441430738822 0.23757860939557973 -0.6508961663399937 80 41 15
0.046133102383938494 0.2367448541421684 -0.6544232418322286 82 42 17
0.0460525876127325 0.23672971749021932 -0.6576635206093244 76 38 13
0.045966298653549606 0.23723237683200835 -0.6607205157529393 74 36 13
0.045895347980034744 0.23634225509725182 -0.6642782611037136 71 33 12
0.04578115046688227 0.23938163715001842 -0.6664221142408361 65 30 9
0.04576723545804986 0.2332675064469436 -0.671877899594352 64 29 9
0.04566549698265099 0.23516578021433765 -0.6744363344745701 62 27 9
0.04557791777445856 0.235769249995641 -0.6774643040291985 60 25 7
0.045499061928771616 0.23556587032902784 -0.6807888667683673 59 25 7
0.045372093721529935 0.23982540425231355 -0.682467313837983 59 25 7
0.045244277744755756 0.24419278857726423 -0.6840933550411553 59 25 7
0.045156277534704165 0.24486271963717104 -0.6870849637353964 58 27 9
0.04506798043274227 0.24556137897681726 -0.690065462481191 58 27 9
0.044961986126305156 0.24793086042897694 -0.6924170575745912 59 28 10
0.044883472312807364 0.24771154128865885 -0.6957406756168295 57 25 9
0.044808136305929 0.2471837465138355 -0.6991839950778631 55 23 8
0.044745011346230615 0.24548121814194876 -0.7030787755982697 54 22 7
0.0446518920528582 0.24663598853073415 -0.7058872357067372 55 23 8
0.04455429567063831 0.24822647941488074 -0.7085261550271469 56 24 9
0.04445588350913925 0.24990414515016518 -0.7111279485355877 55 23 8
0.04439056693954666 0.24837918629364564 -0.7149683527760146 54 22 7
0.04429200683516004 0.25007638253107295 -0.7175604324959587 54 22 8
0.044209934413770254 0.250169703290462 -0.7207762810477072 56 24 10
0.04410882912125809 0.2521290603685573 -0.723260396819942 56 25 9
0.04400052265123034 0.2548104617064336 -0.72545482436407 57 26 8
0.04390049272689666 0.2566896071382669 -0.7279600799602289 57 26 8
0.04380999692801881 0.2576312937676116 -0.7308340499776073 57 26 8
0.04357145768098609 0.257155937280076 -0.7407788208681443 58 27 9
0.04344950068409085 0.2612799143410342 -0.7423649400778394 58 27 9
0.043365295122799775 0.2615981116371878 -0.7454861715798857 58 27 9
0.043281811516361304 0.2618405054686499 -0.7486391813485508 57 26 8
0.043195417411848624 0.262378453428852 -0.7516721233465964 55 23 8
0.04311471339916802 0.2623303644669911 -0.754946386833026 55 23 8
0.04304683826979249 0.26095033437170084 -0.7587732749510168 55 23 8
0.043118673274534544 0.2450426807987778 -0.7686363532960079 56 24 9
0.042878723082936096 0.2615149617899948 -0.7650613636284893 56 24 9
0.042817810461334205 0.25936822922956826 -0.7692232837588445 55 23 8
0.04271742432414808 0.26135202863660173 -0.7716589856297367 58 27 10
0.04256356207080004 0.26900259051048275 -0.7716992524116699 62 31 13
0.04250409058624087 0.2666922417396464 -0.7759344605785183 58 27 10
0.042441845767996166 0.2646516565207998 -0.7800647617056358 55 23 8
0.0423805654802336 0.26248389316371784 -0.7842582702635112 55 22 7
0.042271038894999884 0.2654857275702218 -0.7862449260534687 55 22 7
0.04214402759451666 0.27040134665617044 -0.7873995273945812 55 22 7
0.04203468791586568 0.27343699257740095 -0.7893516038025775 55 22 7
0.041919900916432336 0.27709043562412056 -0.7910271827689541 56 23 8
0.04180156896815474 0.281161721470473 -0.792510169173479 56 23 8
0.0416963280439491 0.28382339960846376 -0.794597486718831 54 21 6
0.041596586524743934 0.2858960606871978 -0.7969361584498361 53 21 6
0.0414958002947928 0.28809937536555885 -0.7992120533858731 53 21 6
0.04139450437375415 0.2903754251856908 -0.8014501175250345 55 23 8
0.04131011754652042 0.29076865310069866 -0.8045185115275474 55 23 8
0.04122060568043806 0.2917387574480297 -0.8073302670903449 56 23 8
0.04113358044031438 0.2924308343448805 -0.8102650449344533 56 23 8
0.04103222159009372 0.2947579346804079 -0.812464736853348 57 24 9
0.040955107638771374 0.2943254704396986 -0.8159029741653878 56 24 9
0.040860623274738085 0.29588264258650887 -0.8184438112744378 53 21 8
0.040769523373875904 0.2970582534279467 -0.8211546112431898 47 17 6
0.040671174374530474 0.29908282341361514 -0.8234759759661976 42 13 3
0.040577263861146684 0.30060355815925754 -0.8260229942462692 48 17 8
0.040478882962098756 0.3026590368710086 -0.8283208777418453 52 20 9
0.04038801354802495 0.3038431716939165 -0.8310156082410894 53 20 6
0.04028874044633867 0.30603073885945453 -0.8332434508671199 56 22 6
0.040192895289992876 0.3078263337081605 -0.8356478529843607 59 23 5
0.04009171453685607 0.31027434259216524 -0.8377435474612156 67 29 8
0.03999203501064947 0.31256119309518043 -0.839908151829117 70 30 5
0.039892540606548565 0.31484378023285353 -0.8420687492011717 76 35 8
0.03979735818155908 0.31661955666354547 -0.8444624558590008 82 38 10
0.03971973977017976 0.31625831651083114 -0.8478638631092167 85 42 11
0.039629774703307814 0.3174067133991107 -0.8505509635503189 85 42 11
0.039538428530445806 0.31873236799870974 -0.8531514412073294 84 43 18
0.03945402449802475 0.31920283028558427 -0.8561586544989972 86 51 25
0.03937108825287052 0.3194888245304706 -0.8592547911987284 87 56 33
0.03928812751709379 0.31977497802957344 -0.8623517822490447 87 57 35
0.03920514317034117 0.32006117956012325 -0.8654496814792544 83 55 33
0.03920280511906687 0.3100910776568332 -0.8735302237900231 82 54 33
0.03912488490835477 0.3096668103239482 -0.8769942208664163 80 52 31
0.039073403209832186 0.30583253265620325 -0.8821298686890015 79 50 31
0.03901658121206563 0.30263919980513165 -0.8869661851167758 78 50 32
0.03895372272417298 0.30018819036608846 -0.8914498713033551 76 48 30
0.038912503328193175 0.294873232895966 -0.8973601989018407 74 47 28
0.03878281848818977 0.30112523217777887 -0.8975514519988941 72 45 28
0.03867316141578756 0.30479384830167966 -0.89900919728193 71 42 26
0.03855090705048656 0.3101746084660839 -0.8996004614726035 69 40 24
0.038483741918406845 0.30823965928266417 -0.9038434148919896 66 37 21
0.03846506350623189 0.2997485091692567 -0.9113943549093937 64 35 19
0.03838872937384848 0.2989571178888851 -0.9150888537437977 76 47 31
0.03824448652563448 0.30739991111419906 -0.9141088039884143 81 52 34
0.03822608241077375 0.2986930178109539 -0.9218215728533546 87 59 36
0.038118944769388284 0.3021072367801726 -0.9233820954919377 91 64 37
0.038039367798869246 0.30173341181951235 -0.9268721104416472 90 62 38
0.03793193096113255 0.3052360885961209 -0.9283737676868536 90 62 38
0.037853209581077615 0.30474296808257073 -0.9319250433571454 91 61 36
0.03778639990723455 0.30255376696615405 -0.9363574199605047 75 44 24
0.03771627265464242 0.3008018196783698 -0.9405725381499729 58 29 14
0.037650225736645344 0.2984369552093275 -0.9451150524205016 49 21 8
0.037513392768864014 0.3062264008602905 -0.9443612919680855 49 21 11
0.03743206689350286 0.30606545864075313 -0.9477508923079054 51 23 12
0.03736501351151466 0.30381390762411936 -0.9522429870816072 57 28 14
0.037244671099608516 0.3093472412664374 -0.9526353707382981 64 36 22
0.03713277988195802 0.31369695149949267 -0.9536370841221995 70 47 33
0.037020185295913305 0.3182010493690496 -0.954543322209924 75 55 41
0.0369344744079645 0.31873328857082406 -0.957553444518827 79 58 46
0.03681455791084752 0.3244193636510802 -0.9578063942130371 82 62 52
0.036722590171840666 0.32593463937883826 -0.9602798921267944 87 69 58
0.03663102426321561 0.3274015139569523 -0.9627760520405925 90 72 62
0.036533495105839926 0.32979771402653135 -0.9647668424642658 89 71 61
0.03642077625660358 0.33457080786580934 -0.9654625767701625 90 72 63
0.036322988156852726 0.33707472198904104 -0.9673774621606306 93 75 66
0.036213567093802364 0.34143189675184726 -0.9682741577026336 96 78 68
0.03611716718482124 0.3437841442561437 -0.9702548814329619 93 75 65
0.03602511291502295 0.3454700530578679 -0.9725951587941879 102 84 74
0.03596689971346406 0.3417463312978174 -0.9779121354053618 100 82 72
0.0358614173258004 0.34559437519857455 -0.9790587660631226 103 86 78
0.03575264285826825 0.3500256283922523 -0.9798701946645503 100 83 75
0.03565984872596573 0.3518952808915523 -0.9820929435113166 109 92 84
0.03555702302249674 0.3554400313866187 -0.983376018076569 100 83 75
0.03545373448135537 0.35910616561622766 -0.9845804121299601 100 83 73
0.03538768917744296 0.3565800824867238 -0.9892520099445729 91 73 63
0.03528830162191391 0.3596350987970678 -0.9907895495396187 89 67 56
0.0351973467278627 0.36129412972129504 -0.9931072798114764 80 52 40
0.035105391788538116 0.36314155029976536 -0.9953141915569217 78 43 23
0.035017675872564 0.36427700976577165 -0.9979214785582762 75 37 13
0.03492216988871765 0.3667773728544897 -0.9997477096107213 73 32 8
0.034830597826461904 0.36861840011232233 -1.0019443918419102 71 31 6
0.034746090015775014 0.36923101638902267 -1.0048418899859621 74 32 8
0.034657805185086654 0.37051777362759 -1.0073507861285573 75 33 8
0.03456958438185122 0.37180495853913886 -1.0098567725610808 75 33 9
0.03448028027315059 0.37330038151650774 -1.0122393786262167 77 35 9
0.03437647310089898 0.3774595263776277 -1.0130696280815727 81 37 10
0.03428742017128967 0.3789621782514542 -1.0154363725019553 84 40 11
0.034197340489668174 0.3806714344104595 -1.0176787778860938 83 39 10
0.03412366736583195 0.37932889570231876 -1.021708096940198 87 43 14
0.03404026773459869 0.3797906111515001 -1.0246820467203022 90 46 17
0.033957653656413796 0.38010130814607723 -1.0277454777234214 91 50 20
0.03391287001838847 0.37314184615126744 -1.0351160814471205 95 59 27
0.033794384808278996 0.3803307846223667 -1.0341077387444357 99 64 34
0.03373737709095398 0.3756205807249176 -1.0401666290659257 102 69 38
0.03363005657879228 0.38073848632275104 -1.0403697027274914 105 74 44
0.033550209771635905 0.380472024246535 -1.0437845307506408 108 77 48
0.033470659529770984 0.38013125883704063 -1.0472469908595188 109 78 50
0.03339069872396969 0.3798574143455037 -1.0506723034050631 105 74 46
0.03330831614037438 0.38006363534911436 -1.0538101459993585 107 76 47
0.033222117801849714 0.38105112345566394 -1.0564751235403065 105 74 45
0.03314344495492577 0.3804788768116404 -1.0600878393019946 99 68 41
0.03305327832801171 0.38230306330089026 -1.0622416628351383 95 63 40
0.0329705992462679 0.38256164263426035 -1.0653494502481848 92 61 39
0.03288931018624601 0.382516514015139 -1.0686447991217791 88 58 39
0.03281292126088334 0.38139852608850744 -1.0726031232719946 84 55 40
0.03273745153570625 0.3800463585193249 -1.0767121885662396 71 45 31
0.03266887031146185 0.3771341672194869 -1.0817947630319218 51 31 23
0.032597949945452 0.37467365134117303 -1.0866092969255017 34 18 11
0.032517585404711405 0.3742805765530983 -1.0901463092144068 24 11 3
0.03244138199410855 0.37291999205084647 -1.0942915334326728 27 11 4
0.03238062973937076 0.3679624680926361 -1.1006986789049287 41 19 12
0.03232123174537647 0.36257286090102847 -1.1073976578803004 55 23 13
0.03222204559955956 0.3664114022875363 -1.1082994597187799 67 28 13
0.03210493426272839 0.3745820775191822 -1.1064495881430336 72 34 14
0.03200950743844122 0.3777092450661462 -1.1077705279164163 74 37 13
0.03191899671384225 0.3796991983305784 -1.1098053560356063 78 41 15
0.03182606080540211 0.38231747056790355 -1.111434088591676 83 48 21
0.03174504244299981 0.3820211732507589 -1.1149197891321982 83 49 22
0.03164874579553582 0.3855460450910785 -1.1159570125128946 86 53 28
0.03156889044257954 0.3849591213051295 -1.119628897075861 93 61 38
0.03148911953139013 0.3843236446828763 -1.123336290506537 96 64 39
0.03140810718076942 0.383983102631155 -1.1268571933675566 89 57 32
0.03132700194485438 0.38364548564097856 -1.1303794771705291 88 56 31
0.031245279246966556 0.38345083088623527 -1.1338119939563478 91 59 34
0.03116546432942048 0.38272237601303016 -1.1375956343388656 91 59 34
0.031091121592031784 0.3804650518299847 -1.1423846127198283 90 59 36
0.031020628387227387 0.3770697471897798 -1.147930856071289 81 55 36
0.030951814320623234 0.3731011941559479 -1.153868991212354 63 44 29
0.03078562231371686 0.39669468903270644 -1.1416321191095031 71 56 41
0.0307134300372212 0.3938252861803733 -1.1468251980715174 101 91 79
0.03066184532810499 0.3848478929721804 -1.1560849979332155 145 141 132
0.03060290427588791 0.37778678883876426 -1.1641046509460238 170 167 162
0.03050233732767616 0.38300320697899404 -1.1639580317749607 182 181 178
0.03036137195584174 0.4006421445081424 -1.1554797726523713 189 187 187
0.03035712095022287 0.37657982252184224 -1.1749259398182152 194 192 193
0.030238994947690487 0.38745480047250613 -1.1709504005258746 197 195 196
0.029614353701923852 0.5595466016050441 -1.0581362580302278 200 198 199
0.029566797734879684 0.5506964118157277 -1.0671326303152024 201 199 200
0.029499899577916672 0.5478935492069862 -1.0720601435126589 200 200 200
0.029585145536045805 0.4944170519578082 -1.111480990359593 201 201 201
0.029395305595860025 0.5321179008023191 -1.0888912063291225 201 201 201
0.02930043619166311 0.5384306855255616 -1.0876378782559355 202 202 202
0.029217517606087512 0.540766271887873 -1.0890914296459413 203 203 203
0.028386621957025716 0.5994863730219844 -1.075366084777854 207 207 207
0.02838104904196979 0.5710688432311128 -1.0983541011309679 208 208 208
0.07038854223840815 0.14689038718490577 0.12559172177112027 183 183 183
0.06982996051133859 0.1684444206972157 0.12170997477514614 183 183 183
0.06971001084253818 0.17059585988282583 0.1187196566482956 182 182 184
0.06956706724346463 0.17377460539983608 0.11569147631760876 182 181 178
0.06938499132252691 0.17870413846855865 0.11260100342786561 146 135 127
0.06911536032650252 0.18755234392270584 0.10937241169278648 128 104 91
0.06896919339520154 0.1909120831412766 0.10637112527295799 121 92 75
0.06886630454447312 0.19234457963339238 0.10344659039450799 125 92 72
0.06869309694006041 0.1969310137815764 0.10041696540271142 129 97 74
0.06840161283446716 0.20683906340082642 0.09722509816099104 137 106 85
0.06840598933833286 0.20347671306385712 0.09447499220664601 134 105 84
0.06842216609303182 0.19957046551383759 0.09172978142544275 117 87 66
0.06847794911601887 0.19386361121612106 0.08902270313763201 110 77 56
0.06823322749667883 0.201711385098423 0.0859330379666555 109 77 55
0.06809478001598657 0.20477430471888672 0.08298631169812445 100 69 49
0.06793051234064301 0.2090156094100448 0.08001867028516507 89 55 36
0.06769643557869809 0.21643789593411683 0.07699015106495952 75 40 21
0.06757078484907061 0.21895273357274886 0.07408508103175476 70 35 15
0.06730836049421586 0.22770306210320448 0.07106347378234526 70 34 15
0.06720493372687478 0.22922731483617864 0.06819701928037675 69 33 14
0.06709277351365979 0.23115388026405276 0.06532674215211975 64 28 9
0.06693420445218456 0.23520904938691262 0.06242809410625575 59 24 6
0.06675571068410431 0.24018925485325676 0.05952698516573137 61 28 9
0.06675780512372155 0.23689181966693834 0.05674087012501116 71 34 16
0.06669135252497854 0.2367345061380683 0.053909472568015177 102 67 49
0.0665045205746938 0.24212092213979067 0.05102396139990788 111 75 53
0.06630740226509382 0.24799820077409318 0.04814876162771286 110 69 47
0.06620313098257291 0.249601493729234 0.04531688428898088 112 73 54
0.06606314647793063 0.2528619831733709 0.042479858620058625 141 107 92
0.06589563700223615 0.2574082345932499 0.03964628671876246 147 118 104
0.06577356362498804 0.2598571412863554 0.036828860853515444 126 97 82
0.06542175496995094 0.27300342770187397 0.03401053269540568 117 88 72
0.06535429281288345 0.2729377032869711 0.03121794653446857 119 91 75
0.0652547212046468 0.274369285085544 0.028427118128029113 108 80 66
0.06534598114470247 0.2668783477064035 0.02560512816480557 99 69 53
0.06522063174131064 0.26950869507603775 0.02281284882734922 83 47 29
0.06510904331907535 0.2715003963740529 0.020022468900019238 81 41 20
0.06503123595725181 0.2719090167082973 0.017223426228970676 74 35 13
0.06485628156033289 0.2768920792682822 0.0144683143715061 70 32 11
0.06481156393667678 0.2757468389302953 0.011658019953173684 65 28 9
0.0647930795572632 0.27335626383594747 0.008827096141683421 59 23 4
0.06471988068290001 0.27354556814748865 0.006023956099418873 58 22 5
0.0645689113640637 0.27742133065162133 0.003277244533212903 58 22 6
0.06442878572558068 0.2807936345642256 0.0005318518899748853 55 22 7
0.0643417813338586 0.2816482685972192 -0.0022517602185225527 56 23 9
0.06417752926178182 0.2861859614649463 -0.004960707326742794 57 25 10
0.0640307231034985 0.2899046642787398 -0.007675366908478316 53 24 10
0.06430223483711292 0.2736264588549729 -0.010839729902849947 54 25 12
0.06441456457684182 0.26491646014874903 -0.013868833389122794 56 27 13
0.06428846906627528 0.26761790512617445 -0.01662946099337887 56 28 15
0.06420789354998009 0.2681383133695816 -0.019443410502754943 56 29 17
0.06419165168568684 0.265559977633991 -0.022346888911763375 55 29 19
0.06415229541494284 0.26408599270337235 -0.02522603272032089 50 30 20
0.06409215417139894 0.26360961433148766 -0.028079332268062245 41 21 14
0.0640789013855772 0.2608592151918734 -0.031011427276473567 32 14 7
0.06398941187734528 0.2617953161022505 -0.033824870158181995 31 15 10
0.0635782616232772 0.27836404800312103 -0.036069415635815325 28 13 10
0.06378945144162229 0.2646933175739415 -0.03940932950696872 23 12 9
0.06363986919508 0.26856631987468044 -0.04210220329204899 15 8 5
0.06342781439450089 0.2755035343423257 -0.04466015343013047 10 5 4
0.06322509057661059 0.28200711324678285 -0.04721732530655876 9 5 4
0.06302578049350244 0.28836486950449514 -0.049763047901387455 8 4 3
0.06322753874488239 0.2750426741355108 -0.05318191437557098 8 4 3
0.06433172052287814 0.21370489299961842 -0.06181717748601467 8 4 3
0.06421190092073645 0.21605099013000692 -0.06463273550523813 9 5 4
0.06337982190078248 0.25364597083151297 -0.06563720508370494 10 5 3
0.06318542883077355 0.2597663388878279 -0.06819025061605212 12 5 5
0.06308008824948823 0.2614847694217043 -0.07096523546307126 21 10 8
0.06294988055827289 0.2644447630939262 -0.07366748272627338 56 39 33
0.06288541139490149 0.26413705253963743 -0.07654940762814799 84 66 58
0.0627689482319526 0.2664226195711828 -0.0792815763040114 66 48 37
0.06269725182803879 0.26647508683841076 -0.08214293866702568 41 17 5
0.0625046072995337 0.2725878403965692 -0.08463171664939867 44 17 6
0.062263272998926235 0.2811662874638565 -0.08694784916738661 46 18 7
0.0625826736767428 0.2615653557657099 -0.0910635366626367 50 21 8
0.06252642921468421 0.26082244018044776 -0.0939909057615954 57 28 13
0.062479794140108645 0.2595895170550083 -0.09695529063980474 67 41 28
0.062151172159021426 0.27261601270441843 -0.09893777853070379 63 35 21
0.06149274958707479 0.3024059485875521 -0.09969682990728007 66 34 19
0.061642426882943545 0.29126937529275726 -0.10332440670754017 67 32 17
0.06154342637152169 0.29274095532089456 -0.10605725310249296 72 36 19
0.06121998805921008 0.3056567520015181 -0.10792594514972811 91 54 35
0.06108680722416018 0.30890294056052353 -0.11049955679936604 82 44 26
0.06086692396894588 0.3165959800595228 -0.11271683628217992 110 78 64
0.060767343017117156 0.31814895176850116 -0.1154023507942897 142 114 104
0.06068506122857532 0.31881732879372193 -0.1181566491807731 134 104 89
0.06059777124434758 0.31974403018683245 -0.12088909290295193 128 95 75
0.0605699094053049 0.31760805942063003 -0.12387855981581296 103 62 36
0.06038540325998565 0.3235543870013876 -0.12618225918955256 96 47 16
0.06033765402215122 0.32244294400224893 -0.12908604829808074 86 40 13
0.06024459709822677 0.3236749463082393 -0.13178649992471136 77 35 11
0.06024068971628186 0.3202772660025641 -0.13490325061614933 73 32 10
0.06008926501477879 0.3245447020197211 -0.1373274009486692 70 33 12
0.06000681948371898 0.32522843623510567 -0.14007496721450338 67 31 12
0.06008764267294644 0.317379096449589 -0.1436321885716328 67 36 19
0.060063311755644874 0.31500390103781883 -0.14668677867566257 66 43 31
0.05990585155889404 0.31960310915089596 -0.14906677778263433 63 43 32
0.05990784952062806 0.31583454687680174 -0.152267009401324 64 46 34
0.059906446252850326 0.3122282091701355 -0.15546390229905083 64 46 34
0.059847089592846764 0.31166462569923414 -0.15836131809464218 63 45 33
0.059811688070919654 0.30982973042577533 -0.1613943506332272 62 43 32
0.05982486135996135 0.3054111681515898 -0.16470740802872785 63 43 33
0.059741927006576524 0.3060763815600125 -0.16749092022036638 63 43 34
0.05958026001637664 0.3109314152254942 -0.16981874622064588 63 43 35
0.0595198266843952 0.31040654757242403 -0.17272610799769217 62 42 35
0.05947351587558459 0.30912300506061435 -0.17572141869869645 61 41 34
0.05947588478435335 0.3052263198712163 -0.1790181647706609 61 41 32
0.05942527200161963 0.30415363212234175 -0.1820043171382992 61 41 32
0.05942415243384844 0.30041431397501056 -0.18530549144845204 60 40 31
0.05934944172897484 0.3006210648812412 -0.1881547405271066 59 39 30
0.05942153306961706 0.29290403613497246 -0.19195080696271088 59 39 30
0.0595007507579005 0.28476791646849803 -0.1958228217320834 59 39 30
0.05947394683641916 0.2823414086716578 -0.19902236081355987 57 37 28
0.05918248956893861 0.2942733836951074 -0.20045093218460922 55 35 26
0.05917392075908166 0.2908599037377441 -0.20377044446941608 56 36 27
0.05914154383218713 0.28872825522713536 -0.20693921948028432 56 36 27
0.05832605027071437 0.2820960170644377 -0.24577931644185755 56 36 27
0.05827397780312723 0.28095614279637027 -0.24888315255853777 56 36 27
0.058199617136548615 0.2810633872816003 -0.25180484782884266 57 36 26
0.058282641362286676 0.27229253085405386 -0.2560751781860849 59 36 26
0.058216916961402666 0.2718887627155938 -0.25909163488511816 60 36 26
0.058230308896323496 0.26699952799364546 -0.2628056358136846 60 36 25
0.05813367376676922 0.2683325197558456 -0.2655632411781442 63 37 25
0.0583892298351016 0.2496327947902459 -0.27148294019942826 62 36 21
0.05817971079808322 0.25736495439418805 -0.2732459245260327 62 35 21
0.05777490400593466 0.2762873053714158 -0.2731839962089533 63 35 21
0.05778767960602643 0.2713775622571979 -0.276940843827853 61 34 17
0.057774361852169574 0.2679413403865388 -0.28047271072958346 62 34 18
0.05774403951199977 0.2654656235876454 -0.28385775539575564 63 35 21
0.057703566676975133 0.26356167618613136 -0.28715653527109186 64 36 22
0.057711005645049315 0.2588788007277472 -0.290932234183791 65 37 23
0.05758894479575272 0.26167106152678526 -0.29345019776409914 65 36 21
0.05749174029946671 0.2630309156807785 -0.29620750024660597 66 34 19
0.057428856697412274 0.2623982526924906 -0.2993080682405863 61 33 18
0.057330124743677546 0.26385003827841824 -0.3020472603204307 56 36 27
0.057227375119451064 0.26554066664609755 -0.30474139769737724 76 62 58
0.057126094296014715 0.26715049040833916 -0.30744633580977465 81 64 60
0.05700375661622056 0.2700009907845141 -0.30992481541966826 47 23 15
0.05699132652894257 0.26639687676842355 -0.31356687215075485 47 17 6
0.05686194230345919 0.2696691831928293 -0.3159638036999843 57 24 7
0.056806549286649334 0.26858167699706426 -0.3191566805230013 67 32 10
0.05657149258926076 0.2781278058743012 -0.3203757286171461 67 34 13
0.0566535962375597 0.26888742552451106 -0.32509219412544516 67 36 13
0.056618789326369275 0.26655823519988353 -0.32853149402128046 71 38 19
0.056553084796790165 0.2660584638202437 -0.33163073388205777 73 42 27
