ply
format ascii 1.0
element vertex 886
property float x
property float y
property float z
property float nx
property float ny
property float nz
property uchar diffuse_red
property uchar diffuse_green
property uchar diffuse_blue
property uchar class
property uchar detection
end_header
0.1063 0.2430 -0.3907 0.284 0.301 0.910 81 64 57 0 0
0.1129 0.2405 -0.3924 0.267 0.275 0.924 78 61 54 0 0
0.1291 0.2343 -0.3951 0.443 -0.254 0.860 83 64 58 0 0
0.1812 0.2154 -0.4344 0.828 0.119 -0.549 88 60 43 0 0
0.1778 0.2169 -0.4382 0.683 0.143 -0.717 92 69 56 0 0
0.0813 0.2679 -0.8027 0.898 -0.438 0.035 84 65 58 0 0
0.1031 0.2603 -0.8261 0.310 0.790 0.529 80 57 50 0 0
0.1631 0.2416 -0.9534 0.510 0.317 0.800 80 61 52 0 0
0.1769 0.2365 -0.9622 0.753 0.026 0.657 84 65 58 0 0
0.1788 0.2359 -0.9644 0.711 -0.057 0.701 86 67 60 0 0
0.1966 0.2294 -0.9771 0.905 0.214 0.369 89 69 61 0 0
0.2451 0.2118 -1.0127 0.948 -0.296 -0.117 76 35 10 0 0
0.2473 0.2110 -1.0146 0.999 0.028 -0.023 79 36 11 0 0
0.2435 0.2128 -1.0232 0.954 -0.288 0.087 82 40 10 0 0
0.2437 0.2128 -1.0262 0.954 -0.288 0.087 86 45 12 0 0
0.2440 0.2128 -1.0292 0.954 -0.288 0.087 89 50 16 0 0
0.2535 0.2117 -1.0992 0.946 -0.100 0.308 74 38 13 0 0
0.2509 0.2129 -1.1040 0.836 0.244 0.491 76 39 12 0 0
0.2523 0.2137 -1.1414 0.934 0.021 -0.357 97 71 45 0 0
0.2485 0.2158 -1.1568 0.980 0.091 0.180 128 119 108 0 0
0.2483 0.2160 -1.1602 0.873 0.028 0.487 156 150 144 0 0
0.0706 0.2363 0.0838 0.954 -0.300 0.027 166 159 155 0 0
0.0709 0.2365 0.0751 0.954 -0.300 0.027 121 103 95 0 0
0.0718 0.2367 0.0605 0.661 0.619 0.424 115 96 85 0 0
0.1099 0.2235 0.0160 0.904 -0.364 0.223 59 24 5 0 0
0.1101 0.2235 0.0131 0.791 -0.516 0.329 59 24 5 0 0
0.1142 0.2224 0.0016 0.889 -0.457 -0.030 61 26 7 0 0
0.1206 0.2234 -0.0936 0.761 0.328 -0.559 88 59 42 0 0
0.1188 0.2242 -0.0965 0.834 0.537 -0.125 83 54 39 0 0
0.2009 0.1938 -0.1375 0.973 -0.139 -0.185 76 40 16 0 0
0.1337 0.2236 -0.2388 0.812 0.583 0.029 71 51 40 0 0
0.1341 0.2236 -0.2417 0.870 0.491 -0.036 72 52 39 0 0
0.1350 0.2236 -0.2534 0.770 -0.188 -0.609 77 58 44 0 0
0.0993 0.2397 -0.3156 0.517 -0.341 0.785 84 55 37 0 0
0.1012 0.2393 -0.3244 0.653 -0.744 0.138 98 68 43 0 0
0.1814 0.2122 -0.4342 0.797 0.016 -0.604 85 57 40 0 0
0.1829 0.2312 -0.9682 0.785 0.233 0.574 84 65 58 0 0
0.2107 0.2210 -0.9848 0.972 0.218 0.085 101 79 63 0 0
0.2064 0.2229 -0.9904 0.849 -0.407 -0.336 104 79 64 0 0
0.2484 0.2072 -1.0072 0.940 -0.338 0.049 78 37 11 0 0
0.2448 0.2091 -1.0219 0.995 -0.095 -0.009 84 43 14 0 0
0.2458 0.2088 -1.0245 0.966 -0.072 0.250 90 50 18 0 0
0.2518 0.2092 -1.0998 0.857 -0.123 0.501 67 34 12 0 0
0.1106 0.2207 0.0016 0.965 0.052 0.258 63 27 9 0 0
0.1120 0.2202 -0.0013 0.940 -0.294 0.176 65 30 10 0 0
0.1119 0.2203 -0.0042 0.887 -0.462 0.008 64 29 10 0 0
0.1119 0.2204 -0.0071 0.931 -0.362 -0.050 62 27 8 0 0
0.1118 0.2207 -0.0128 0.860 -0.502 0.087 58 22 5 0 0
0.1127 0.2206 -0.0186 0.865 -0.478 0.155 58 23 8 0 0
0.1120 0.2210 -0.0215 0.916 -0.397 -0.054 58 24 8 0 0
0.1120 0.2211 -0.0272 0.853 -0.521 0.033 57 24 7 0 0
0.1161 0.2197 -0.0301 0.929 -0.334 0.162 59 24 7 0 0
0.1362 0.2197 -0.2443 0.929 0.370 0.006 73 50 38 0 0
0.1148 0.2299 -0.2979 0.797 0.472 0.377 86 61 46 0 0
0.1142 0.2302 -0.3010 0.810 0.269 0.521 79 53 38 0 0
0.0939 0.2386 -0.3164 0.228 -0.779 0.584 84 57 42 0 0
0.0975 0.2373 -0.3188 0.333 -0.761 0.557 84 56 37 0 0
0.0986 0.2370 -0.3217 0.495 -0.851 0.176 88 56 35 0 0
0.1057 0.2344 -0.3236 0.942 0.321 0.097 94 60 37 0 0
0.1247 0.2297 -0.3958 0.565 -0.256 0.784 81 59 53 0 0
0.1434 0.2224 -0.3949 0.425 0.055 0.904 81 58 52 0 0
0.1524 0.2190 -0.3960 0.482 0.231 0.845 80 57 51 0 0
0.1835 0.2083 -0.4336 0.733 0.276 -0.621 89 61 42 0 0
0.0925 0.2561 -0.7809 0.862 0.416 0.291 82 65 55 0 0
0.2098 0.2181 -0.9848 0.987 0.026 0.158 102 80 66 0 0
0.2477 0.2043 -1.0071 0.846 -0.349 0.403 75 35 8 0 0
0.2479 0.2044 -1.0102 0.931 -0.027 0.363 76 35 9 0 0
0.2499 0.2037 -1.0121 0.970 -0.184 0.160 75 35 10 0 0
0.1093 0.2166 0.0416 0.752 -0.659 0.022 69 32 13 0 0
0.1094 0.2166 0.0387 0.848 -0.480 0.225 69 32 13 0 0
0.1112 0.2174 -0.0014 0.940 -0.294 0.176 65 30 11 0 0
0.1110 0.2176 -0.0043 0.931 -0.362 -0.050 65 30 11 0 0
0.1108 0.2179 -0.0100 0.931 -0.362 -0.050 61 26 7 0 0
0.1107 0.2180 -0.0129 0.939 -0.343 0.026 59 23 5 0 0
0.1108 0.2181 -0.0158 0.939 -0.343 0.026 58 22 6 0 0
0.1109 0.2182 -0.0187 0.939 -0.343 0.026 57 22 6 0 0
0.1110 0.2182 -0.0216 0.941 -0.335 -0.051 56 23 6 0 0
0.1109 0.2184 -0.0244 0.941 -0.335 -0.051 56 23 6 0 0
0.1126 0.2179 -0.0302 0.960 -0.261 0.099 60 26 9 0 0
0.1611 0.2053 -0.1977 0.633 -0.113 -0.766 68 51 41 0 0
0.1313 0.2187 -0.2508 0.949 0.266 0.167 72 48 36 0 0
0.1248 0.2225 -0.2874 0.920 0.215 0.328 80 54 38 0 0
0.0874 0.2380 -0.3174 0.085 -0.910 0.406 84 59 44 0 0
0.1184 0.2287 -0.3909 0.206 -0.852 0.482 70 49 41 0 0
0.1816 0.2061 -0.4368 0.733 0.276 -0.621 91 65 50 0 0
0.0864 0.2548 -0.7733 0.865 -0.011 0.503 83 67 59 0 0
0.0906 0.2533 -0.7748 0.837 0.221 0.501 82 64 55 0 0
0.0921 0.2528 -0.7775 0.920 0.206 0.332 82 63 52 0 0
0.1771 0.2220 -0.8300 0.876 -0.453 0.165 94 75 70 0 0
0.2089 0.2153 -0.9849 0.969 0.031 0.243 100 77 64 0 0
0.2492 0.2060 -1.1547 0.981 0.109 0.160 101 89 76 0 0
0.1099 0.2156 -0.0245 0.967 -0.217 0.130 55 22 5 0 0
0.1104 0.2155 -0.0274 0.928 -0.300 0.218 56 23 6 0 0
0.1118 0.2151 -0.0303 0.960 -0.261 0.099 58 25 8 0 0
0.1121 0.2151 -0.0332 0.960 -0.261 0.099 57 25 8 0 0
0.1672 0.1994 -0.1856 0.697 -0.176 0.695 67 50 40 0 0
0.1315 0.2159 -0.2626 0.816 0.543 -0.200 75 50 37 0 0
0.1809 0.2032 -0.4369 0.817 0.171 -0.551 91 63 48 0 0
0.0690 0.2573 -0.7505 0.332 -0.848 -0.414 142 137 133 0 0
0.0638 0.2597 -0.7624 0.425 -0.799 -0.426 103 90 84 0 0
0.0763 0.2551 -0.7673 0.505 0.797 0.331 86 68 61 0 0
0.0849 0.2519 -0.7703 0.850 -0.107 0.516 82 64 55 0 0
0.0868 0.2513 -0.7728 0.780 -0.100 0.617 82 63 52 0 0
0.0864 0.2516 -0.7763 0.612 -0.700 0.369 83 62 50 0 0
0.0871 0.2514 -0.7792 0.704 -0.684 0.189 82 61 48 0 0
0.1763 0.2190 -0.8269 0.989 -0.127 0.069 96 79 72 0 0
0.1765 0.2190 -0.8299 0.989 -0.127 0.069 87 70 63 0 0
0.1767 0.2190 -0.8330 0.936 -0.339 -0.098 87 68 61 0 0
0.1902 0.2144 -0.8487 0.863 -0.139 0.486 86 47 24 0 0
0.1866 0.2160 -0.8536 0.975 0.153 0.160 87 51 24 0 0
0.1853 0.2167 -0.8605 0.953 0.069 0.294 100 66 44 0 0
0.1857 0.2167 -0.8635 0.982 0.047 -0.181 101 72 51 0 0
0.1790 0.2202 -0.8922 0.917 0.231 -0.326 95 71 52 0 0
0.1686 0.2263 -0.9488 0.461 -0.841 -0.285 77 55 43 0 0
0.1783 0.2232 -0.9662 0.583 0.813 0.007 83 64 57 0 0
0.1915 0.2188 -0.9847 0.215 -0.714 0.666 92 72 63 0 0
0.2114 0.2111 -0.9831 0.947 -0.284 -0.151 96 75 64 0 0
0.1097 0.2101 0.0442 0.894 -0.387 0.227 65 30 10 0 0
0.1097 0.2119 -0.0044 0.974 -0.147 -0.175 65 30 10 0 0
0.1088 0.2125 -0.0131 0.992 -0.125 -0.023 64 28 8 0 0
0.1105 0.2124 -0.0275 0.927 -0.250 0.280 55 22 5 0 0
0.1113 0.2122 -0.0303 0.927 -0.250 0.280 56 24 5 0 0
0.1116 0.2122 -0.0332 0.921 -0.384 0.070 57 25 7 0 0
0.1869 0.1861 -0.1077 0.802 0.312 0.510 97 58 39 0 0
0.1341 0.2117 -0.2592 0.903 0.428 -0.038 75 49 36 0 0
0.1345 0.2116 -0.2621 0.858 0.486 -0.164 77 51 38 0 0
0.0585 0.2583 -0.7609 0.332 -0.848 -0.414 91 74 68 0 0
0.1720 0.2177 -0.8349 0.604 -0.487 0.631 89 72 63 0 0
0.1868 0.2128 -0.8563 0.988 0.074 0.134 94 58 31 0 0
0.1859 0.2133 -0.8599 0.969 0.123 -0.213 103 68 42 0 0
0.1839 0.2146 -0.8767 0.938 0.082 -0.337 101 74 54 0 0
0.1842 0.2146 -0.8797 0.989 0.046 0.139 102 75 56 0 0
0.1848 0.2145 -0.8826 0.968 0.046 0.247 102 75 56 0 0
0.1672 0.2235 -0.9460 0.855 -0.319 -0.408 65 41 29 0 0
0.1648 0.2245 -0.9505 0.650 -0.635 -0.417 77 54 42 0 0
0.1966 0.2128 -0.9622 0.843 0.410 0.348 84 65 58 0 0
0.2467 0.1953 -1.0064 0.956 0.133 0.262 82 42 17 0 0
0.2489 0.1947 -1.0145 0.843 -0.283 0.459 83 42 18 0 0
0.2498 0.1945 -1.0171 0.989 -0.071 0.127 82 41 16 0 0
0.2345 0.2032 -1.0962 0.974 -0.221 -0.043 52 28 16 0 0
0.2527 0.1975 -1.1321 0.983 -0.183 -0.020 103 70 42 0 0
0.2561 0.1962 -1.1330 0.850 -0.525 -0.032 107 74 47 0 0
0.2485 0.1999 -1.1541 0.933 0.135 -0.333 86 72 56 0 0
0.0617 0.2232 0.1040 0.844 -0.426 0.327 178 175 175 0 0
0.1084 0.2076 0.0442 0.947 -0.312 -0.074 60 25 6 0 0
0.1061 0.2085 0.0414 0.902 -0.432 0.019 61 26 7 0 0
0.1075 0.2100 -0.0160 0.985 -0.147 0.086 67 32 10 0 0
0.1078 0.2100 -0.0189 0.985 -0.147 0.086 65 30 10 0 0
0.1081 0.2100 -0.0218 0.976 -0.202 0.076 60 27 8 0 0
0.1102 0.2093 -0.0247 0.915 -0.364 0.175 58 25 7 0 0
0.1106 0.2094 -0.0304 0.861 -0.495 0.116 57 24 5 0 0
0.1105 0.2095 -0.0333 0.921 -0.384 0.070 57 25 8 0 0
0.1896 0.1821 -0.1076 0.974 0.144 0.177 97 57 38 0 0
0.1090 0.2210 -0.3439 0.856 0.170 -0.489 94 76 63 0 0
0.1072 0.2218 -0.3472 0.809 0.435 -0.395 84 61 47 0 0
0.1001 0.2247 -0.3516 0.960 0.279 -0.006 85 60 47 0 0
0.1166 0.2196 -0.3849 0.810 0.578 0.103 76 52 40 0 0
0.0759 0.2479 -0.7472 0.482 0.807 0.340 90 73 65 0 0
0.0795 0.2466 -0.7490 0.475 0.798 0.372 87 70 62 0 0
0.0832 0.2452 -0.7508 0.461 0.801 0.381 85 67 58 0 0
0.0909 0.2425 -0.7575 0.609 0.749 0.261 82 60 49 0 0
0.1808 0.2129 -0.8841 0.718 0.100 0.689 96 69 50 0 0
0.1819 0.2125 -0.8868 0.872 -0.445 -0.205 93 68 48 0 0
0.1824 0.2125 -0.8897 0.972 0.109 -0.209 92 67 47 0 0
0.1690 0.2188 -0.9253 0.895 0.098 0.434 91 68 55 0 0
0.1691 0.2189 -0.9285 0.999 -0.050 0.016 84 61 49 0 0
0.1699 0.2187 -0.9313 0.978 -0.065 0.198 76 53 40 0 0
0.1744 0.2170 -0.9321 0.970 -0.195 -0.143 66 42 33 0 0
0.1740 0.2173 -0.9355 0.970 -0.195 -0.143 58 33 24 0 0
0.1767 0.2173 -0.9662 0.352 -0.357 0.865 84 67 60 0 0
0.2011 0.2082 -0.9689 0.833 0.079 0.548 89 69 62 0 0
0.2477 0.1917 -1.0023 0.942 0.185 0.282 79 39 14 0 0
0.2469 0.1921 -1.0058 0.956 0.133 0.262 80 40 15 0 0
0.2469 0.1923 -1.0121 0.820 -0.177 0.544 80 39 17 0 0
0.2496 0.1915 -1.0168 0.963 -0.161 0.216 75 35 10 0 0
0.2558 0.1901 -1.0443 0.911 -0.316 0.264 102 72 48 0 0
0.2445 0.1954 -1.0735 0.976 0.096 0.196 96 70 46 0 0
0.2495 0.1950 -1.1147 0.894 -0.448 -0.016 84 50 26 0 0
0.2521 0.1940 -1.1161 0.982 -0.189 -0.020 90 56 28 0 0
0.2522 0.1944 -1.1288 0.961 -0.278 -0.000 96 64 36 0 0
0.2487 0.1966 -1.1535 0.933 0.099 -0.346 81 66 50 0 0
0.0599 0.2206 0.1069 0.845 -0.366 0.390 185 181 179 0 0
0.0604 0.2205 0.1040 0.844 -0.426 0.327 152 142 136 0 0
0.0729 0.2160 0.0974 0.770 0.504 0.392 120 94 75 0 0
0.0744 0.2155 0.0944 0.727 0.415 0.548 107 77 53 0 0
0.1142 0.2018 0.0581 0.712 0.025 0.702 76 38 18 0 0
0.1048 0.2058 0.0442 0.902 -0.432 0.019 63 28 9 0 0
0.1049 0.2059 0.0413 0.902 -0.432 0.019 62 27 8 0 0
0.1086 0.2049 0.0298 0.917 -0.393 0.071 59 24 5 0 0
0.1074 0.2054 0.0270 0.922 -0.386 -0.031 58 23 4 0 0
0.1080 0.2060 0.0040 0.933 -0.357 -0.053 63 28 8 0 0
0.1075 0.2071 -0.0218 0.989 -0.133 0.066 62 30 9 0 0
0.1092 0.2066 -0.0247 0.915 -0.364 0.175 65 33 12 0 0
0.1091 0.2068 -0.0305 0.861 -0.495 0.116 60 27 9 0 0
0.1094 0.2068 -0.0334 0.952 -0.299 0.067 53 22 7 0 0
0.0865 0.2161 -0.0511 0.813 0.557 0.168 27 16 13 0 0
0.1851 0.1808 -0.1078 0.700 0.150 0.698 107 66 48 0 0
0.1480 0.1993 -0.2368 0.458 -0.880 0.127 68 48 37 0 0
0.1472 0.2006 -0.2632 0.855 -0.519 0.024 75 49 36 0 0
0.1475 0.2006 -0.2661 0.975 -0.117 -0.191 75 49 36 0 0
0.1150 0.2160 -0.3548 0.927 -0.274 -0.257 74 51 38 0 0
0.1794 0.2102 -0.8845 0.941 0.168 0.294 96 69 50 0 0
0.1698 0.2153 -0.9245 0.851 -0.172 0.497 93 67 54 0 0
0.1729 0.2142 -0.9261 0.762 -0.373 0.529 87 64 51 0 0
0.1735 0.2143 -0.9354 0.742 -0.482 -0.466 59 33 23 0 0
0.1678 0.2167 -0.9448 0.666 -0.442 -0.601 56 29 18 0 0
0.2022 0.2043 -0.9615 0.871 0.490 0.029 86 67 60 0 0
0.2024 0.2045 -0.9677 0.825 0.040 0.564 89 69 62 0 0
0.2467 0.1889 -1.0024 0.896 0.167 0.412 76 36 11 0 0
0.2470 0.1892 -1.0147 0.860 -0.343 0.378 76 35 12 0 0
0.2490 0.1886 -1.0166 0.963 -0.161 0.216 75 35 10 0 0
0.2450 0.1919 -1.0695 0.939 -0.298 0.173 98 70 46 0 0
0.2535 0.1910 -1.1337 0.878 -0.463 0.124 92 61 33 0 0
0.0738 0.2124 0.1001 0.803 0.462 0.377 123 96 80 0 0
0.0766 0.2115 0.0970 0.705 0.507 0.497 117 84 63 0 0
0.0774 0.2113 0.0941 0.676 0.437 0.594 106 73 48 0 0
0.1056 0.2017 0.0640 0.944 0.194 0.268 62 29 9 0 0
0.1068 0.2014 0.0611 0.906 0.135 0.402 61 28 9 0 0
0.1066 0.2016 0.0583 0.954 -0.273 0.122 63 29 10 0 0
0.1067 0.2016 0.0554 0.983 -0.172 -0.064 68 33 13 0 0
0.1066 0.2018 0.0526 0.983 -0.172 -0.064 69 33 13 0 0
0.1049 0.2026 0.0469 0.992 -0.117 0.049 66 31 12 0 0
0.1048 0.2027 0.0441 0.979 -0.184 -0.086 64 31 12 0 0
0.1002 0.2048 0.0328 0.904 -0.392 0.172 61 26 7 0 0
0.1072 0.2040 -0.0190 0.962 -0.272 -0.028 60 27 8 0 0
0.1071 0.2042 -0.0219 0.962 -0.272 -0.028 61 28 10 0 0
0.1071 0.2043 -0.0248 0.823 -0.555 0.116 61 28 10 0 0
0.1301 0.1973 -0.0733 0.716 -0.698 -0.018 97 69 54 0 0
0.1851 0.1778 -0.1079 0.529 -0.398 0.750 101 63 44 0 0
0.1424 0.1984 -0.2375 0.892 0.207 0.401 68 48 37 0 0
0.1454 0.1982 -0.2634 0.803 -0.556 -0.214 71 45 32 0 0
0.1134 0.2135 -0.3580 0.927 -0.274 -0.257 73 48 36 0 0
0.1219 0.2113 -0.3866 0.918 0.363 -0.159 76 53 39 0 0
0.1237 0.2109 -0.3953 0.955 0.286 0.077 64 38 28 0 0
0.1795 0.2070 -0.8840 0.879 0.405 0.252 96 69 50 0 0
0.1797 0.2070 -0.8871 0.956 0.212 -0.203 94 69 49 0 0
0.1712 0.2119 -0.9362 0.764 -0.457 -0.455 60 33 23 0 0
0.2158 0.1964 -0.9725 0.725 0.114 0.679 96 77 67 0 0
0.2438 0.1871 -1.0068 0.898 -0.065 0.436 73 33 8 0 0
0.2447 0.1868 -1.0094 0.922 -0.221 0.316 72 31 9 0 0
0.2456 0.1866 -1.0120 0.922 -0.221 0.316 72 31 9 0 0
0.2514 0.1847 -1.0210 0.833 -0.459 0.310 74 34 7 0 0
0.2490 0.1874 -1.0728 0.936 -0.167 0.309 88 65 45 0 0
0.2526 0.1882 -1.1338 0.971 -0.219 0.091 91 60 32 0 0
0.0567 0.2152 0.1127 0.764 -0.622 0.169 183 184 184 0 0
0.0703 0.2105 0.1031 0.682 0.336 0.649 126 102 88 0 0
0.0754 0.2087 0.0999 0.660 0.519 0.543 118 85 65 0 0
0.1059 0.1985 0.0667 0.883 -0.339 0.325 59 27 8 0 0
0.1060 0.1998 0.0268 0.967 -0.243 -0.076 59 25 8 0 0
0.2040 0.1691 -0.1457 0.956 0.215 -0.201 70 45 33 0 0
0.2027 0.1697 -0.1486 0.910 0.411 -0.047 67 46 35 0 0
0.1433 0.1960 -0.2666 0.830 -0.555 -0.066 66 39 28 0 0
0.1092 0.2118 -0.3557 0.942 0.138 -0.306 73 49 36 0 0
0.1919 0.1832 -0.4218 0.937 -0.266 0.226 80 39 16 0 0
0.1881 0.1847 -0.4256 0.894 -0.434 -0.110 76 39 15 0 0
0.1039 0.2284 -0.7772 0.936 -0.348 -0.058 80 57 44 0 0
0.1401 0.2165 -0.8259 0.195 -0.980 0.049 91 75 69 0 0
0.1800 0.2037 -0.8866 0.986 -0.069 -0.153 93 67 47 0 0
0.1733 0.2078 -0.9315 0.849 -0.440 0.292 71 45 34 0 0
0.2437 0.1841 -1.0095 0.910 -0.347 0.226 71 29 7 0 0
0.2450 0.1837 -1.0119 0.870 -0.386 0.308 69 28 7 0 0
0.2529 0.1812 -1.0259 0.953 -0.303 0.012 77 40 15 0 0
0.2516 0.1832 -1.0706 0.821 -0.529 -0.216 87 64 44 0 0
0.2529 0.1844 -1.1172 0.944 -0.329 0.023 92 57 32 0 0
0.0549 0.2128 0.1127 0.817 -0.568 0.100 184 184 183 0 0
0.0553 0.2127 0.1097 0.817 -0.568 0.100 167 160 156 0 0
0.0717 0.2069 0.1029 0.625 0.440 0.645 122 95 81 0 0
0.0776 0.2048 0.0996 0.605 0.544 0.582 114 82 62 0 0
0.1040 0.1959 0.0724 0.995 0.030 0.099 63 30 11 0 0
0.1045 0.1958 0.0695 0.909 -0.381 0.167 60 29 9 0 0
0.0936 0.2011 0.0328 0.892 -0.389 0.229 57 24 7 0 0
0.1059 0.1966 0.0296 0.985 -0.170 -0.021 57 24 7 0 0
0.1053 0.1970 0.0267 0.967 -0.243 -0.076 57 24 7 0 0
0.1074 0.1964 0.0210 0.912 -0.397 -0.099 56 23 6 0 0
0.1063 0.1969 0.0181 0.966 -0.259 0.001 56 23 6 0 0
0.1028 0.1997 -0.0250 0.873 -0.487 0.012 50 21 4 0 0
0.1043 0.2000 -0.0510 0.849 -0.528 0.029 27 10 2 0 0
0.2025 0.1659 -0.1236 0.866 -0.490 -0.097 104 61 34 0 0
0.1438 0.1927 -0.2665 0.829 -0.376 0.414 66 39 28 0 0
0.1173 0.2056 -0.3541 0.803 0.139 0.580 71 46 31 0 0
0.1940 0.1793 -0.4212 0.995 -0.089 -0.051 81 41 18 0 0
0.0665 0.2286 -0.4730 0.679 -0.699 0.223 101 87 79 0 0
0.0743 0.2282 -0.5468 0.101 -0.995 -0.027 186 186 188 0 0
0.0757 0.2285 -0.5687 0.077 -0.995 0.065 187 188 189 0 0
0.1325 0.2162 -0.8290 0.710 0.588 -0.388 90 73 64 0 0
0.1799 0.2004 -0.8831 1.000 0.004 0.026 92 64 45 0 0
0.1657 0.2080 -0.9511 0.993 0.103 -0.055 58 31 20 0 0
0.2418 0.1816 -1.0070 0.899 -0.360 0.250 70 29 7 0 0
0.2435 0.1812 -1.0123 0.925 -0.365 0.106 71 29 9 0 0
0.2499 0.1808 -1.0712 0.802 -0.497 -0.331 86 64 44 0 0
0.2492 0.1813 -1.0780 0.986 0.044 -0.160 74 48 29 0 0
0.2507 0.1820 -1.1150 0.924 -0.287 0.253 89 55 30 0 0
0.2514 0.1818 -1.1177 0.924 -0.287 0.253 93 59 33 0 0
0.0443 0.2134 0.1162 0.432 0.265 0.862 183 183 183 0 0
0.0709 0.2039 0.1057 0.498 0.298 0.814 125 102 90 0 0
0.0780 0.2014 0.1023 0.605 0.544 0.582 119 91 75 0 0
0.0824 0.1999 0.0992 0.605 0.544 0.582 125 96 76 0 0
0.1031 0.1931 0.0723 0.944 -0.285 -0.166 58 27 9 0 0
0.1030 0.1933 0.0666 0.759 -0.568 0.318 61 30 11 0 0
0.1024 0.1941 0.0496 0.925 -0.376 0.057 56 25 8 0 0
0.1054 0.1937 0.0295 0.985 -0.170 -0.021 56 23 6 0 0
0.1046 0.1941 0.0267 0.959 -0.270 0.092 56 23 6 0 0
0.1049 0.1941 0.0238 0.959 -0.270 0.092 56 23 6 0 0
0.1005 0.1965 0.0009 0.869 -0.478 0.127 53 20 5 0 0
0.1014 0.1971 -0.0250 0.873 -0.487 0.012 50 21 7 0 0
0.1015 0.1971 -0.0279 0.896 -0.393 0.205 51 22 7 0 0
0.1193 0.2018 -0.3596 0.960 0.131 0.249 63 39 25 0 0
0.0684 0.2259 -0.5102 0.411 -0.903 -0.128 98 87 82 0 0
0.0679 0.2262 -0.5135 0.411 -0.903 -0.128 97 85 81 0 0
0.0648 0.2274 -0.5175 0.299 -0.953 0.046 101 89 87 0 0
0.0652 0.2274 -0.5206 0.299 -0.953 0.046 104 95 91 0 0
0.1484 0.2055 -0.7833 0.660 0.480 -0.577 72 51 43 0 0
0.1514 0.2044 -0.7852 0.695 0.209 -0.688 72 52 43 0 0
0.1496 0.2052 -0.7891 0.751 -0.032 -0.660 73 53 44 0 0
0.1474 0.2062 -0.7932 0.798 0.222 -0.560 77 57 46 0 0
0.1442 0.2076 -0.7978 0.822 0.269 -0.502 83 62 50 0 0
0.2407 0.1787 -1.0010 0.935 -0.282 0.215 74 33 11 0 0
0.2419 0.1783 -1.0034 0.897 -0.437 0.070 74 33 11 0 0
0.2424 0.1782 -1.0063 0.893 -0.330 0.305 72 31 9 0 0
0.2427 0.1782 -1.0092 0.925 -0.352 0.146 74 32 9 0 0
0.2435 0.1780 -1.0119 0.971 -0.215 0.107 76 34 12 0 0
0.2484 0.1785 -1.0780 0.851 -0.520 0.081 74 47 29 0 0
0.2538 0.1773 -1.1029 0.868 -0.453 0.203 57 29 12 0 0
0.0669 0.2022 0.1087 0.442 0.316 0.839 133 114 105 0 0
0.0794 0.1977 0.1049 0.537 0.448 0.714 122 96 82 0 0
0.1017 0.1908 0.0637 0.991 -0.064 -0.122 61 29 12 0 0
0.1013 0.1911 0.0609 0.965 -0.208 -0.161 61 29 12 0 0
0.1008 0.1918 0.0467 0.855 -0.459 0.241 52 20 5 0 0
0.1013 0.1918 0.0409 0.973 -0.124 0.193 54 23 5 0 0
0.1042 0.1912 0.0266 0.941 -0.136 0.310 55 22 5 0 0
0.1051 0.1910 0.0237 0.941 -0.136 0.310 55 22 5 0 0
0.0961 0.1946 0.0124 0.880 -0.471 0.056 58 25 8 0 0
0.1003 0.1945 -0.0280 0.896 -0.393 0.205 52 23 9 0 0
0.2020 0.1602 -0.1237 0.754 -0.303 0.583 97 54 27 0 0
0.2002 0.1617 -0.1488 0.622 -0.782 -0.040 66 40 30 0 0
0.2002 0.1618 -0.1516 0.622 -0.782 -0.040 67 44 35 0 0
0.1209 0.1981 -0.3593 0.995 0.100 0.007 62 38 23 0 0
0.0894 0.2223 -0.7303 0.506 -0.768 0.392 73 46 35 0 0
0.1275 0.2084 -0.7346 0.745 -0.356 -0.564 72 45 34 0 0
0.1229 0.2104 -0.7460 0.612 -0.791 0.032 74 47 36 0 0
0.1509 0.2013 -0.7819 0.754 -0.303 -0.583 74 51 42 0 0
0.1489 0.2022 -0.7859 0.754 -0.153 -0.639 75 53 44 0 0
0.1500 0.2019 -0.7886 0.726 -0.188 -0.662 80 57 48 0 0
0.1513 0.2015 -0.7912 0.859 0.006 -0.512 80 58 46 0 0
0.1501 0.2021 -0.7949 0.950 0.187 -0.249 75 53 41 0 0
0.1531 0.2010 -0.7968 0.979 0.045 -0.199 75 53 40 0 0
0.1902 0.1896 -0.8647 0.976 -0.166 0.142 96 69 47 0 0
0.1906 0.1896 -0.8676 0.976 -0.166 0.142 97 69 47 0 0
0.1957 0.1913 -0.9757 0.892 0.437 -0.118 95 76 69 0 0
0.2279 0.1796 -0.9798 0.992 0.117 0.039 97 78 69 0 0
0.2288 0.1794 -0.9855 0.994 0.099 -0.055 98 79 72 0 0
0.2453 0.1738 -0.9979 0.974 -0.213 0.079 74 33 11 0 0
0.2455 0.1738 -1.0009 0.974 -0.213 0.079 71 30 9 0 0
0.2499 0.1762 -1.1177 0.861 -0.339 0.379 90 55 27 0 0
0.2503 0.1765 -1.1333 0.923 -0.240 0.301 98 68 42 0 0
0.2511 0.1763 -1.1359 0.923 -0.240 0.301 97 67 41 0 0
0.0602 0.2014 0.1119 0.538 0.185 0.822 151 140 135 0 0
0.0706 0.1977 0.1083 0.475 0.210 0.855 128 107 96 0 0
0.0777 0.1952 0.1049 0.467 0.218 0.857 119 93 79 0 0
0.0844 0.1929 0.1016 0.518 0.338 0.786 126 98 82 0 0
0.1006 0.1883 0.0608 0.968 -0.204 -0.150 62 31 13 0 0
0.1002 0.1885 0.0580 0.968 -0.204 -0.150 60 29 11 0 0
0.1002 0.1886 0.0552 0.961 -0.269 0.060 57 26 8 0 0
0.1005 0.1886 0.0523 0.966 -0.212 0.151 56 24 8 0 0
0.1009 0.1885 0.0494 0.966 -0.212 0.151 54 22 9 0 0
0.1028 0.1885 0.0294 0.975 -0.176 0.136 56 23 6 0 0
0.1014 0.1914 -0.0396 0.907 -0.382 0.177 42 16 4 0 0
0.1050 0.1906 -0.0569 0.886 -0.019 0.464 47 25 14 0 0
0.2046 0.1569 -0.1430 0.812 -0.369 -0.451 66 36 21 0 0
0.2033 0.1575 -0.1458 0.760 -0.273 -0.590 66 38 24 0 0
0.2019 0.1581 -0.1487 0.865 -0.242 -0.440 65 41 28 0 0
0.1235 0.1939 -0.3557 0.927 -0.322 -0.193 62 37 22 0 0
0.1002 0.2142 -0.7066 0.877 -0.043 0.479 75 47 33 0 0
0.1510 0.1981 -0.7815 0.755 -0.479 -0.448 67 45 32 0 0
0.1524 0.1977 -0.7841 0.694 -0.467 -0.547 75 52 41 0 0
0.1534 0.1974 -0.7868 0.788 -0.302 -0.536 78 55 44 0 0
0.1532 0.1976 -0.7901 0.915 -0.181 -0.360 74 52 40 0 0
0.1874 0.1878 -0.8751 0.951 -0.291 -0.103 94 67 46 0 0
0.1850 0.1888 -0.8794 0.971 0.216 -0.100 88 61 42 0 0
0.1861 0.1886 -0.8852 0.937 -0.339 -0.091 87 62 42 0 0
0.2273 0.1767 -0.9797 0.998 0.049 -0.033 99 80 73 0 0
0.2301 0.1758 -0.9844 0.819 0.309 0.484 96 77 70 0 0
0.2443 0.1710 -0.9949 0.949 -0.279 -0.146 72 33 11 0 0
0.2460 0.1713 -1.0251 0.909 -0.366 0.201 72 35 9 0 0
0.2504 0.1699 -1.0318 0.851 -0.373 0.369 86 46 23 0 0
0.2458 0.1732 -1.0787 0.854 -0.498 0.154 81 54 37 0 0
0.2592 0.1702 -1.1363 0.958 -0.170 0.232 93 64 38 0 0
0.2552 0.1723 -1.1549 0.954 -0.159 -0.253 115 104 91 0 0
0.0656 0.1963 0.1114 0.638 0.146 0.756 134 122 114 0 0
0.0724 0.1939 0.1080 0.407 -0.013 0.913 123 100 88 0 0
0.0873 0.1887 0.1013 0.447 0.056 0.893 145 115 96 0 0
0.0996 0.1857 0.0551 0.987 -0.158 0.019 56 24 6 0 0
0.0992 0.1860 0.0522 0.958 -0.281 0.053 55 23 6 0 0
0.1012 0.1856 0.0407 0.918 -0.394 -0.049 53 22 5 0 0
0.1011 0.1858 0.0379 0.918 -0.394 -0.049 53 22 4 0 0
0.1034 0.1853 0.0264 0.963 -0.203 0.175 58 25 8 0 0
0.1039 0.1852 0.0235 0.963 -0.203 0.175 60 27 10 0 0
0.0910 0.1901 0.0181 0.934 -0.109 0.341 60 27 10 0 0
0.0902 0.1905 0.0152 0.826 -0.348 0.443 59 26 9 0 0
0.1006 0.1887 -0.0426 0.971 -0.222 0.089 42 15 4 0 0
0.1008 0.1887 -0.0455 0.971 -0.222 0.089 42 15 4 0 0
0.1122 0.1851 -0.0626 0.442 -0.146 0.885 68 50 44 0 0
0.1540 0.1707 -0.0898 0.937 -0.280 0.208 64 31 14 0 0
0.1553 0.1703 -0.0926 0.829 -0.085 0.553 71 40 21 0 0
0.2021 0.1540 -0.1182 0.923 -0.322 0.211 134 106 93 0 0
0.2057 0.1533 -0.1346 0.872 -0.146 0.468 74 37 15 0 0
0.1996 0.1561 -0.1517 0.888 -0.459 0.012 66 44 32 0 0
0.1534 0.1772 -0.2795 0.927 0.016 0.374 65 40 28 0 0
0.1214 0.1915 -0.3560 0.937 -0.056 -0.346 62 37 23 0 0
0.1665 0.1764 -0.3975 0.479 -0.214 0.852 60 27 13 0 0
0.1075 0.2090 -0.7291 0.626 -0.247 0.739 70 42 27 0 0
0.1070 0.2093 -0.7325 0.914 -0.016 0.406 71 43 29 0 0
0.1075 0.2092 -0.7355 0.987 -0.045 -0.156 70 42 28 0 0
0.1262 0.2036 -0.7695 0.935 0.354 -0.021 72 44 33 0 0
0.1249 0.2041 -0.7733 0.913 0.329 0.242 75 47 36 0 0
0.1520 0.1949 -0.7934 0.954 -0.281 0.105 68 42 30 0 0
0.1530 0.1946 -0.7962 0.790 -0.334 0.515 70 44 32 0 0
0.1888 0.1842 -0.8772 0.973 -0.188 -0.131 87 60 41 0 0
0.1872 0.1850 -0.8812 0.955 -0.196 -0.221 87 62 42 0 0
0.1853 0.1858 -0.8853 0.807 -0.568 0.163 87 62 42 0 0
0.1798 0.1898 -0.9452 0.853 -0.409 0.325 51 24 13 0 0
0.2492 0.1687 -1.0729 0.892 -0.451 0.032 90 64 44 0 0
0.2487 0.1699 -1.1048 0.733 -0.627 0.263 54 26 13 0 0
0.2587 0.1671 -1.1298 0.891 -0.438 -0.117 96 66 40 0 0
0.2544 0.1695 -1.1549 0.934 0.037 -0.356 108 96 82 0 0
0.0569 0.1962 0.1147 0.396 0.234 0.888 163 157 153 0 0
0.0781 0.1888 0.1075 0.571 0.340 0.748 120 95 82 0 0
0.0850 0.1864 0.1042 0.519 0.316 0.794 136 108 93 0 0
0.0983 0.1831 0.0550 0.987 -0.100 0.129 59 26 9 0 0
0.1003 0.1830 0.0378 0.895 -0.441 0.069 53 22 4 0 0
0.1007 0.1829 0.0349 0.931 -0.351 0.099 54 23 5 0 0
0.1002 0.1832 0.0321 0.961 -0.242 0.131 54 23 5 0 0
0.0993 0.1861 -0.0456 0.937 -0.342 0.073 44 17 6 0 0
0.1555 0.1672 -0.0926 0.957 -0.286 0.050 70 39 21 0 0
0.2016 0.1515 -0.1266 0.889 -0.443 0.114 93 51 26 0 0
0.2039 0.1508 -0.1292 0.926 -0.328 0.189 82 41 16 0 0
0.1965 0.1542 -0.1519 0.806 -0.562 -0.185 66 44 32 0 0
0.1517 0.1744 -0.2681 0.795 -0.033 0.606 63 41 29 0 0
0.1483 0.1757 -0.2714 0.966 -0.252 -0.059 61 39 26 0 0
0.1867 0.1666 -0.4164 0.807 -0.362 0.467 73 32 11 0 0
0.1049 0.2059 -0.7043 0.672 -0.271 0.689 75 44 28 0 0
0.1083 0.2058 -0.7381 0.707 0.696 -0.123 69 38 23 0 0
0.1237 0.2011 -0.7671 0.995 -0.026 -0.098 68 38 26 0 0
0.1261 0.2003 -0.7693 0.814 -0.328 0.479 70 42 30 0 0
0.1518 0.1914 -0.7806 0.912 0.178 -0.369 66 38 24 0 0
0.1502 0.1920 -0.7844 0.947 -0.078 -0.312 67 39 25 0 0
0.1495 0.1924 -0.7879 0.777 -0.473 -0.414 67 39 25 0 0
0.1799 0.1866 -0.9448 0.922 -0.382 0.064 50 23 12 0 0
0.2027 0.1787 -0.9579 0.998 0.017 0.064 96 80 73 0 0
0.2028 0.1788 -0.9641 0.967 0.035 -0.251 95 78 70 0 0
0.2362 0.1676 -0.9925 0.863 -0.431 0.265 83 52 40 0 0
0.2444 0.1655 -1.0189 0.927 -0.372 0.050 70 31 11 0 0
0.2491 0.1639 -1.0224 0.915 -0.303 0.266 69 32 6 0 0
0.2500 0.1638 -1.0280 0.971 -0.225 0.080 77 39 16 0 0
0.2478 0.1660 -1.0702 0.892 -0.451 0.032 96 68 46 0 0
0.2479 0.1661 -1.0732 0.892 -0.451 0.032 92 65 43 0 0
0.2497 0.1667 -1.1131 0.988 -0.150 0.047 82 42 16 0 0
0.2579 0.1642 -1.1267 0.899 -0.379 0.219 99 69 43 0 0
0.2419 0.1713 -1.1661 0.907 -0.313 0.282 139 131 122 0 0
0.0603 0.1919 0.1143 0.396 0.234 0.888 149 139 134 0 0
0.0928 0.1808 0.0922 0.903 -0.184 0.389 67 32 12 0 0
0.0979 0.1833 -0.0399 0.929 -0.365 0.055 43 16 5 0 0
0.0978 0.1835 -0.0456 0.876 -0.418 0.240 44 17 6 0 0
0.1000 0.1829 -0.0514 0.974 -0.195 -0.119 44 16 6 0 0
0.1708 0.1590 -0.1032 0.271 -0.454 0.849 104 72 57 0 0
0.2003 0.1491 -0.1266 0.889 -0.443 0.114 88 45 20 0 0
0.2029 0.1482 -0.1293 0.926 -0.328 0.189 80 38 13 0 0
0.2029 0.1483 -0.1320 0.897 -0.117 0.426 75 37 13 0 0
0.1700 0.1634 -0.2280 0.742 -0.586 -0.326 60 41 34 0 0
0.1270 0.1833 -0.3607 0.801 -0.147 0.581 48 27 17 0 0
0.1736 0.1680 -0.4075 0.622 -0.504 0.599 105 86 79 0 0
0.1755 0.1674 -0.4100 0.622 -0.504 0.599 118 97 86 0 0
0.0940 0.2043 -0.6347 0.995 -0.102 -0.020 75 46 30 0 0
0.0936 0.2046 -0.6412 0.968 0.250 -0.012 74 46 30 0 0
0.0940 0.2046 -0.6442 0.915 0.392 -0.098 74 45 29 0 0
0.1257 0.1958 -0.7246 0.637 0.531 0.559 65 34 17 0 0
0.1262 0.1967 -0.7594 0.481 -0.852 0.206 64 32 19 0 0
0.1366 0.1930 -0.7614 0.655 -0.079 0.751 69 38 25 0 0
0.1541 0.1874 -0.7824 0.946 0.132 -0.295 67 38 24 0 0
0.1533 0.1878 -0.7859 0.888 -0.072 -0.454 66 37 23 0 0
0.1783 0.1839 -0.9452 0.959 -0.214 0.184 50 23 12 0 0
0.2015 0.1760 -0.9581 0.793 -0.605 0.067 97 81 74 0 0
0.2008 0.1765 -0.9648 0.839 -0.386 -0.382 96 79 71 0 0
0.2052 0.1749 -0.9656 0.725 -0.387 0.570 98 81 74 0 0
0.2067 0.1744 -0.9679 0.725 -0.387 0.570 98 81 73 0 0
0.2296 0.1665 -0.9802 0.932 0.320 0.172 102 82 75 0 0
0.2320 0.1658 -0.9851 0.877 0.345 0.334 99 79 70 0 0
0.2349 0.1650 -0.9928 0.863 -0.431 0.265 84 54 42 0 0
0.2468 0.1634 -1.0735 0.897 -0.433 0.093 90 63 43 0 0
0.2390 0.1670 -1.0974 0.720 -0.688 -0.098 44 22 13 0 0
0.2555 0.1617 -1.1183 0.939 -0.226 0.260 98 64 37 0 0
0.2568 0.1615 -1.1269 0.880 -0.392 0.268 99 69 41 0 0
0.0544 0.1908 0.1175 0.390 0.192 0.901 179 176 174 0 0
0.0976 0.1761 0.0889 0.926 -0.322 -0.196 64 32 11 0 0
0.0957 0.1771 0.0805 0.883 -0.343 -0.320 62 31 11 0 0
0.0929 0.1783 0.0750 0.968 -0.162 -0.192 61 30 10 0 0
0.0927 0.1786 0.0664 0.949 -0.212 -0.234 58 25 6 0 0
0.0929 0.1811 -0.0110 0.941 -0.324 0.098 56 23 6 0 0
0.0934 0.1810 -0.0139 0.920 -0.391 0.026 55 22 7 0 0
0.0985 0.1801 -0.0428 0.859 -0.496 -0.128 40 14 3 0 0
0.0970 0.1810 -0.0544 0.867 -0.485 0.116 49 21 10 0 0
0.2002 0.1462 -0.1267 0.887 -0.253 0.387 89 45 20 0 0
0.2030 0.1452 -0.1293 0.917 -0.301 0.261 81 38 14 0 0
0.1485 0.1686 -0.2422 0.844 -0.531 0.078 60 41 33 0 0
0.1491 0.1687 -0.2537 0.711 -0.553 -0.434 57 37 27 0 0
0.1463 0.1699 -0.2570 0.824 -0.366 -0.433 59 39 28 0 0
0.1380 0.1741 -0.2963 0.954 0.001 0.300 55 31 18 0 0
0.1507 0.1702 -0.3149 0.945 -0.302 -0.128 67 34 14 0 0
0.1371 0.1769 -0.3706 0.922 -0.031 0.387 65 46 35 0 0
0.1334 0.1787 -0.3863 0.979 0.144 0.147 59 32 20 0 0
0.1014 0.1948 -0.5253 0.963 0.161 0.217 72 43 24 0 0
0.0968 0.1999 -0.6303 0.974 0.201 -0.100 73 44 25 0 0
0.0968 0.2000 -0.6335 0.965 0.217 0.148 72 42 25 0 0
0.0939 0.2012 -0.6377 0.951 0.252 0.178 70 40 24 0 0
0.1124 0.1955 -0.6692 0.925 -0.228 0.304 67 38 20 0 0
0.1133 0.1953 -0.6721 0.933 -0.205 0.295 69 38 20 0 0
0.1174 0.1966 -0.7563 0.593 -0.151 0.791 58 29 15 0 0
0.1547 0.1839 -0.7787 0.832 -0.457 -0.315 65 36 18 0 0
0.1544 0.1841 -0.7820 0.945 -0.322 -0.056 62 33 17 0 0
0.1479 0.1871 -0.8038 0.666 0.715 0.214 66 37 22 0 0
0.1489 0.1869 -0.8065 0.708 0.695 0.128 66 37 23 0 0
0.1860 0.1762 -0.8901 0.965 -0.243 -0.097 86 61 41 0 0
0.1857 0.1764 -0.8934 0.965 -0.243 -0.097 84 58 36 0 0
0.1829 0.1777 -0.9011 0.973 -0.225 -0.046 84 56 35 0 0
0.1816 0.1783 -0.9049 0.992 -0.101 -0.078 78 47 26 0 0
0.1811 0.1786 -0.9084 0.916 -0.207 -0.342 83 52 31 0 0
0.1756 0.1817 -0.9430 0.990 -0.139 -0.000 46 21 9 0 0
0.1777 0.1810 -0.9451 0.959 -0.214 0.184 45 20 9 0 0
0.1985 0.1739 -0.9593 0.575 -0.721 0.388 90 74 66 0 0
0.1993 0.1738 -0.9621 0.679 -0.717 -0.157 93 78 70 0 0
0.2015 0.1730 -0.9640 0.794 -0.552 0.253 96 79 71 0 0
0.2334 0.1620 -0.9807 0.882 0.415 0.221 99 80 70 0 0
0.2552 0.1591 -1.1306 0.930 -0.355 0.093 106 75 47 0 0
0.0572 0.1866 0.1172 0.392 0.177 0.903 170 164 161 0 0
0.0670 0.1832 0.1136 0.392 0.177 0.903 132 117 109 0 0
0.0938 0.1763 0.0320 0.829 -0.554 0.077 63 30 11 0 0
0.0937 0.1764 0.0291 0.918 -0.397 -0.000 62 29 10 0 0
0.0931 0.1767 0.0263 0.910 -0.382 0.162 60 27 9 0 0
0.0938 0.1766 0.0234 0.945 -0.324 -0.052 57 24 7 0 0
0.0920 0.1783 -0.0111 0.941 -0.324 0.098 52 20 5 0 0
0.1017 0.1754 -0.0284 0.873 -0.476 0.105 51 22 8 0 0
0.1011 0.1759 -0.0371 0.945 -0.326 0.007 43 16 5 0 0
0.0902 0.1801 -0.0459 0.907 -0.376 0.191 37 13 1 0 0
0.0952 0.1786 -0.0545 0.904 -0.404 0.140 45 18 8 0 0
0.0975 0.1779 -0.0603 0.257 -0.227 0.939 47 25 15 0 0
0.1948 0.1451 -0.1243 0.893 -0.314 0.322 97 56 33 0 0
0.1986 0.1441 -0.1379 0.984 -0.178 -0.021 71 38 18 0 0
0.1476 0.1677 -0.3006 0.570 -0.763 0.305 65 46 36 0 0
0.1487 0.1674 -0.3034 0.570 -0.763 0.305 65 51 43 0 0
0.1250 0.1774 -0.3489 0.998 -0.005 0.069 53 31 17 0 0
0.1252 0.1774 -0.3519 0.998 -0.005 0.069 53 32 21 0 0
0.0938 0.1979 -0.6343 0.891 -0.419 -0.177 71 39 21 0 0
0.0938 0.1980 -0.6374 0.980 0.094 0.176 70 38 21 0 0
0.0921 0.1987 -0.6412 0.996 -0.088 -0.029 69 37 20 0 0
0.1117 0.1926 -0.6692 0.925 -0.228 0.304 68 37 19 0 0
0.1302 0.1874 -0.7159 0.784 0.080 0.616 60 29 11 0 0
0.1570 0.1804 -0.7963 0.772 0.547 0.324 62 33 16 0 0
0.1900 0.1711 -0.8751 0.955 -0.232 -0.183 89 62 41 0 0
0.1866 0.1728 -0.8894 0.932 -0.312 -0.183 84 59 39 0 0
0.1757 0.1784 -0.9426 0.953 -0.302 0.032 43 20 7 0 0
0.1979 0.1711 -0.9624 0.447 -0.822 0.352 96 82 73 0 0
0.2322 0.1593 -0.9778 0.938 -0.202 -0.282 100 81 74 0 0
0.2301 0.1602 -0.9821 0.847 -0.188 -0.497 100 81 72 0 0
0.2263 0.1617 -0.9875 0.678 -0.396 -0.620 102 82 73 0 0
0.2424 0.1566 -1.0063 0.988 -0.109 0.113 70 32 10 0 0
0.2434 0.1585 -1.0778 0.976 -0.189 0.106 89 60 42 0 0
0.2430 0.1588 -1.0812 0.973 -0.122 -0.196 84 54 36 0 0
0.0369 0.1906 0.1243 0.393 0.281 0.876 184 183 183 0 0
0.0695 0.1792 0.1133 0.392 0.177 0.903 127 109 100 0 0
0.0953 0.1721 0.0490 0.957 -0.191 -0.218 60 27 8 0 0
0.0924 0.1734 0.0405 0.916 -0.400 -0.032 64 32 12 0 0
0.0924 0.1739 0.0262 0.925 -0.376 0.051 63 30 11 0 0
0.0931 0.1738 0.0204 0.870 -0.411 0.272 59 26 11 0 0
0.0909 0.1750 0.0061 0.984 -0.134 0.121 58 25 9 0 0
0.0913 0.1750 0.0032 0.984 -0.134 0.121 60 27 8 0 0
0.0923 0.1749 -0.0054 0.984 -0.134 0.121 62 30 10 0 0
0.0907 0.1756 -0.0083 0.941 -0.324 0.098 60 27 7 0 0
0.0910 0.1756 -0.0112 0.941 -0.324 0.098 57 25 8 0 0
0.0912 0.1756 -0.0141 0.952 -0.278 -0.131 55 23 7 0 0
0.0880 0.1774 -0.0344 0.864 -0.479 0.156 41 13 2 0 0
0.0891 0.1771 -0.0372 0.969 -0.247 0.025 42 15 4 0 0
0.0891 0.1772 -0.0401 0.970 -0.206 -0.128 41 16 4 0 0
0.0883 0.1776 -0.0431 0.941 -0.318 0.119 37 15 2 0 0
0.0887 0.1775 -0.0460 0.941 -0.318 0.119 37 15 2 0 0
0.0940 0.1759 -0.0546 0.904 -0.404 0.140 42 15 7 0 0
0.1938 0.1425 -0.1243 0.859 -0.422 0.289 92 51 27 0 0
0.1498 0.1620 -0.2420 0.650 -0.743 -0.158 56 37 29 0 0
0.1479 0.1648 -0.3093 0.688 0.036 0.725 63 36 23 0 0
0.1838 0.1559 -0.4312 0.933 -0.358 0.035 79 47 26 0 0
0.0999 0.1872 -0.4727 0.973 0.034 0.228 72 45 26 0 0
0.1006 0.1871 -0.4756 0.973 0.034 0.228 73 46 28 0 0
0.1026 0.1900 -0.5902 0.892 -0.447 0.068 74 43 22 0 0
0.1002 0.1911 -0.5972 0.966 -0.222 0.136 73 42 22 0 0
0.0923 0.1953 -0.6377 0.974 0.120 0.192 70 37 18 0 0
0.1110 0.1897 -0.6724 0.992 -0.002 0.126 66 34 14 0 0
0.1294 0.1841 -0.7034 0.968 0.007 0.251 63 30 13 0 0
0.1308 0.1837 -0.7060 0.959 -0.274 -0.065 62 29 12 0 0
0.1306 0.1839 -0.7092 0.959 -0.274 -0.065 61 29 12 0 0
0.1906 0.1670 -0.8526 0.975 0.018 0.223 77 39 16 0 0
0.1912 0.1669 -0.8554 0.975 0.018 0.223 82 44 17 0 0
0.1857 0.1700 -0.8895 0.932 -0.312 -0.183 85 60 39 0 0
0.1768 0.1746 -0.9352 0.950 -0.103 0.295 55 27 13 0 0
0.1741 0.1760 -0.9462 0.826 -0.476 0.302 41 19 6 0 0
0.2333 0.1558 -0.9768 0.796 -0.537 -0.281 99 80 73 0 0
0.2293 0.1574 -0.9822 0.781 -0.535 -0.324 100 81 72 0 0
0.2403 0.1571 -1.0950 0.984 0.042 0.176 43 22 15 0 0
0.2498 0.1541 -1.1079 0.909 -0.407 0.086 82 42 15 0 0
0.0729 0.1749 0.1129 0.390 0.144 0.910 125 106 96 0 0
0.0950 0.1678 0.0915 0.960 -0.274 0.048 56 26 7 0 0
0.0928 0.1701 0.0433 0.947 -0.309 -0.086 63 30 11 0 0
0.0924 0.1703 0.0404 0.949 -0.307 -0.073 63 30 11 0 0
0.0924 0.1704 0.0376 0.970 -0.244 -0.002 63 30 11 0 0
0.0913 0.1713 0.0233 0.870 -0.459 0.182 59 27 8 0 0
0.0918 0.1712 0.0204 0.870 -0.411 0.272 58 25 8 0 0
0.0881 0.1729 0.0089 0.960 -0.170 0.224 57 24 7 0 0
0.0884 0.1728 0.0061 0.946 -0.116 0.302 59 26 9 0 0
0.0893 0.1726 0.0032 0.946 -0.116 0.302 60 27 11 0 0
0.0913 0.1721 -0.0026 0.940 -0.207 0.271 61 29 8 0 0
0.0916 0.1721 -0.0055 0.951 -0.269 0.153 62 30 9 0 0
0.0918 0.1721 -0.0084 0.950 -0.308 0.060 62 30 8 0 0
0.0884 0.1741 -0.0344 0.824 -0.565 0.040 38 13 1 0 0
0.0885 0.1742 -0.0373 0.985 -0.142 0.100 38 14 2 0 0
0.0886 0.1744 -0.0431 0.992 -0.100 0.070 39 15 3 0 0
0.0929 0.1732 -0.0547 0.761 -0.614 0.211 40 16 6 0 0
0.1463 0.1548 -0.0733 0.998 0.064 -0.008 142 123 116 0 0
0.1655 0.1489 -0.1036 0.479 0.060 0.876 96 67 57 0 0
0.1700 0.1474 -0.1062 0.635 0.261 0.727 111 81 68 0 0
0.1930 0.1398 -0.1244 0.893 -0.314 0.322 90 48 25 0 0
0.1926 0.1408 -0.1523 0.517 -0.851 -0.092 65 45 34 0 0
0.1788 0.1463 -0.1702 0.994 0.090 0.068 62 43 36 0 0
0.1787 0.1464 -0.1730 0.968 0.190 -0.167 62 43 36 0 0
0.1391 0.1632 -0.2579 0.936 -0.143 0.321 56 36 29 0 0
0.1412 0.1636 -0.2927 0.730 -0.681 0.053 47 25 14 0 0
0.1396 0.1644 -0.2988 0.512 -0.805 0.299 44 23 13 0 0
0.1403 0.1642 -0.3017 0.420 -0.633 0.651 58 40 31 0 0
0.1425 0.1635 -0.3042 0.484 -0.698 0.528 65 50 43 0 0
0.1445 0.1629 -0.3069 0.484 -0.698 0.528 77 58 50 0 0
0.1466 0.1622 -0.3095 0.594 -0.618 0.515 67 38 26 0 0
0.1294 0.1696 -0.3479 0.969 -0.146 0.198 57 33 21 0 0
0.1316 0.1689 -0.3505 0.977 -0.167 0.129 50 30 18 0 0
0.1273 0.1707 -0.3603 0.997 -0.006 -0.076 46 26 15 0 0
0.1869 0.1515 -0.4215 0.957 -0.213 0.198 75 34 12 0 0
0.1045 0.1834 -0.5022 0.980 -0.196 -0.036 64 35 19 0 0
0.1044 0.1835 -0.5054 0.980 -0.196 -0.036 62 33 17 0 0
0.1043 0.1836 -0.5085 0.973 -0.231 -0.013 64 34 16 0 0
0.1043 0.1837 -0.5116 0.973 -0.231 -0.013 63 32 14 0 0
0.1043 0.1838 -0.5147 0.973 -0.231 -0.013 61 30 12 0 0
0.1041 0.1840 -0.5178 0.997 -0.064 -0.050 62 31 13 0 0
0.1086 0.1870 -0.6635 0.675 -0.367 0.640 66 35 16 0 0
0.1087 0.1871 -0.6666 0.774 -0.450 0.445 65 34 15 0 0
0.1080 0.1875 -0.6700 0.834 -0.550 0.040 64 33 13 0 0
0.1076 0.1877 -0.6733 0.754 -0.655 -0.046 63 31 11 0 0
0.1293 0.1810 -0.7063 0.855 -0.481 0.192 61 28 11 0 0
0.1299 0.1809 -0.7092 0.855 -0.481 0.192 61 28 11 0 0
0.1309 0.1810 -0.7246 0.593 -0.464 -0.659 56 27 11 0 0
0.1243 0.1837 -0.7335 0.686 -0.455 -0.568 55 26 10 0 0
0.1771 0.1713 -0.9347 0.971 0.054 0.234 57 29 17 0 0
0.2315 0.1534 -0.9774 0.796 -0.537 -0.281 98 79 72 0 0
0.2323 0.1537 -0.9988 0.824 -0.529 -0.203 75 38 19 0 0
0.2316 0.1541 -1.0023 0.824 -0.529 -0.203 71 33 13 0 0
0.2474 0.1487 -1.0087 0.997 -0.077 -0.014 71 33 11 0 0
0.2485 0.1488 -1.0236 0.991 -0.124 0.054 72 34 10 0 0
0.2491 0.1487 -1.0263 0.983 -0.141 0.119 71 33 10 0 0
0.2538 0.1479 -1.0546 0.962 -0.189 0.196 94 63 43 0 0
0.2529 0.1483 -1.0583 0.997 -0.039 -0.062 91 60 40 0 0
0.2376 0.1549 -1.0931 0.895 -0.436 -0.096 38 19 11 0 0
0.2486 0.1514 -1.1081 0.909 -0.407 0.086 82 45 18 0 0
0.2544 0.1503 -1.1359 0.952 -0.245 0.185 105 73 45 0 0
0.2585 0.1490 -1.1426 0.977 -0.141 0.157 84 62 46 0 0
0.2589 0.1490 -1.1455 0.977 -0.141 0.157 66 50 37 0 0
0.0668 0.1739 0.1161 0.434 0.174 0.884 136 122 118 0 0
0.0899 0.1684 0.0318 0.959 -0.249 0.133 55 22 5 0 0
0.0906 0.1685 0.0203 0.870 -0.411 0.272 55 23 7 0 0
0.0898 0.1694 0.0031 0.974 -0.111 0.198 61 28 9 0 0
0.0874 0.1704 -0.0027 0.860 -0.504 0.076 61 29 9 0 0
0.0876 0.1704 -0.0056 0.851 -0.524 0.030 61 29 9 0 0
0.0906 0.1702 -0.0316 0.893 -0.449 0.037 44 16 5 0 0
0.0907 0.1702 -0.0345 0.893 -0.449 0.037 40 14 3 0 0
0.0881 0.1712 -0.0374 0.962 -0.191 0.196 38 14 2 0 0
0.1023 0.1670 -0.0632 0.250 0.010 0.968 77 57 48 0 0
0.1919 0.1372 -0.1245 0.954 -0.106 0.280 89 48 24 0 0
0.1928 0.1370 -0.1272 0.932 -0.194 0.307 82 39 14 0 0
0.1794 0.1431 -0.1702 0.958 0.233 0.170 62 43 36 0 0
0.1801 0.1430 -0.1729 0.936 0.149 -0.318 61 42 35 0 0
0.1523 0.1542 -0.2156 0.968 -0.245 -0.060 55 38 30 0 0
0.1289 0.1636 -0.2504 0.980 0.031 -0.198 53 35 28 0 0
0.1314 0.1627 -0.2530 0.896 -0.041 0.442 53 35 28 0 0
0.1364 0.1623 -0.2963 0.822 -0.285 0.494 49 27 16 0 0
0.1388 0.1617 -0.3018 0.686 -0.297 0.664 52 34 26 0 0
0.1405 0.1611 -0.3045 0.653 -0.328 0.683 61 45 38 0 0
0.1429 0.1604 -0.3071 0.653 -0.328 0.683 79 60 53 0 0
0.1442 0.1600 -0.3098 0.804 -0.307 0.510 63 34 24 0 0
0.1449 0.1599 -0.3155 0.868 0.020 0.495 60 30 14 0 0
0.1464 0.1595 -0.3182 0.868 0.020 0.495 58 30 14 0 0
0.1504 0.1584 -0.3293 0.987 -0.115 0.116 61 36 23 0 0
0.1276 0.1675 -0.3601 0.981 0.065 -0.185 43 23 12 0 0
0.1095 0.1776 -0.4761 0.937 -0.190 -0.292 68 39 21 0 0
0.1079 0.1818 -0.5912 0.997 -0.076 0.028 74 42 21 0 0
0.1052 0.1830 -0.6014 0.992 0.082 -0.097 73 41 20 0 0
0.1049 0.1833 -0.6047 0.992 0.082 -0.097 76 44 23 0 0
0.1043 0.1836 -0.6080 0.986 0.125 -0.106 75 43 22 0 0
0.1032 0.1841 -0.6115 0.990 0.016 -0.140 73 41 20 0 0
0.1049 0.1842 -0.6361 0.845 -0.119 -0.521 64 32 12 0 0
0.1071 0.1844 -0.6669 0.790 -0.521 0.323 55 26 9 0 0
0.1156 0.1821 -0.6860 0.933 0.028 0.359 54 25 10 0 0
0.1205 0.1806 -0.6968 0.960 0.037 0.276 60 28 13 0 0
0.1240 0.1803 -0.7238 0.422 -0.654 -0.627 51 23 8 0 0
0.1283 0.1788 -0.7253 0.239 -0.886 -0.397 53 24 8 0 0
0.1242 0.1804 -0.7301 0.324 -0.788 -0.523 53 24 9 0 0
0.1832 0.1647 -0.8931 0.965 -0.258 0.053 86 61 41 0 0
0.2361 0.1523 -1.0936 0.567 -0.782 0.259 44 24 18 0 0
0.2423 0.1502 -1.0960 0.846 -0.413 0.337 44 21 12 0 0
0.2476 0.1487 -1.1083 0.967 -0.227 0.117 76 39 12 0 0
0.2535 0.1474 -1.1328 0.975 -0.213 -0.070 103 71 43 0 0
0.2606 0.1450 -1.1375 0.902 -0.300 -0.311 97 70 47 0 0
0.2593 0.1456 -1.1415 0.810 -0.587 -0.016 86 63 45 0 0
0.0310 0.1832 0.1243 0.434 0.077 0.898 183 183 185 0 0
0.0959 0.1613 0.0912 0.965 -0.183 0.189 55 25 10 0 0
0.0883 0.1654 0.0461 0.951 -0.301 -0.067 61 28 12 0 0
0.0902 0.1654 0.0260 0.900 -0.392 0.188 54 22 7 0 0
0.0899 0.1656 0.0231 0.941 -0.206 0.267 54 22 7 0 0
0.0907 0.1654 0.0202 0.933 -0.219 0.285 54 22 7 0 0
0.0895 0.1664 0.0030 0.873 -0.439 0.213 57 24 7 0 0
0.0867 0.1676 -0.0056 0.989 -0.128 -0.073 56 25 7 0 0
0.0877 0.1684 -0.0404 0.962 -0.077 0.262 39 16 3 0 0
0.0876 0.1685 -0.0433 0.980 -0.188 0.061 41 17 5 0 0
0.0872 0.1688 -0.0491 0.882 -0.471 0.036 39 15 5 0 0
0.1026 0.1638 -0.0632 0.250 0.010 0.968 67 47 38 0 0
0.1452 0.1495 -0.0848 0.935 -0.304 0.183 53 24 10 0 0
0.1926 0.1341 -0.1272 0.989 -0.043 0.141 85 42 16 0 0
0.1817 0.1390 -0.1615 0.924 0.338 -0.181 63 45 35 0 0
0.1821 0.1393 -0.1727 0.867 0.400 0.297 59 40 33 0 0
0.1466 0.1552 -0.2801 0.849 -0.471 -0.238 53 33 22 0 0
0.1465 0.1553 -0.2830 0.871 -0.443 -0.211 50 30 19 0 0
0.1396 0.1582 -0.2987 0.998 0.002 0.059 44 23 13 0 0
0.1395 0.1583 -0.3017 0.989 -0.041 0.140 47 29 20 0 0
0.1441 0.1571 -0.3127 0.875 0.014 0.483 55 23 10 0 0
0.1351 0.1618 -0.3616 0.943 -0.116 0.312 32 18 9 0 0
0.1850 0.1459 -0.4159 0.913 -0.154 0.378 72 34 11 0 0
0.1843 0.1462 -0.4190 0.956 -0.198 0.216 76 38 15 0 0
0.1849 0.1462 -0.4247 0.946 -0.323 -0.038 75 37 13 0 0
0.1881 0.1452 -0.4298 0.893 -0.206 0.400 79 47 25 0 0
0.1076 0.1758 -0.5011 0.990 -0.109 0.093 59 30 14 0 0
0.1081 0.1757 -0.5040 0.985 -0.021 0.172 60 31 15 0 0
0.1082 0.1758 -0.5071 0.992 -0.106 0.062 54 27 8 0 0
0.1090 0.1763 -0.5316 0.964 -0.089 0.250 74 41 22 0 0
0.1072 0.1779 -0.5631 0.939 -0.322 0.123 74 39 19 0 0
0.1059 0.1795 -0.5979 0.981 0.169 0.096 71 39 18 0 0
0.1014 0.1818 -0.6213 0.881 -0.424 0.208 67 34 15 0 0
0.1054 0.1805 -0.6231 0.676 -0.659 0.330 68 35 16 0 0
0.1064 0.1802 -0.6259 0.676 -0.659 0.330 66 33 14 0 0
0.1076 0.1810 -0.6665 0.917 -0.272 0.290 55 26 11 0 0
0.1150 0.1786 -0.6733 0.907 -0.373 0.195 55 25 11 0 0
0.1185 0.1790 -0.7226 0.649 -0.745 0.154 53 23 11 0 0
0.1245 0.1772 -0.7329 0.625 -0.775 0.094 54 25 11 0 0
0.1542 0.1687 -0.7962 0.974 0.191 0.125 54 25 11 0 0
0.1927 0.1569 -0.8505 0.930 -0.368 -0.017 76 38 17 0 0
0.1922 0.1572 -0.8570 0.994 0.067 0.082 88 54 28 0 0
0.1743 0.1663 -0.9449 0.951 -0.256 -0.172 48 20 9 0 0
0.2052 0.1561 -0.9662 0.799 -0.386 0.462 93 76 69 0 0
0.2095 0.1549 -0.9764 0.815 -0.579 0.024 88 71 64 0 0
0.2276 0.1486 -0.9788 0.966 -0.004 -0.257 100 81 74 0 0
0.2223 0.1510 -0.9943 0.983 -0.066 -0.173 85 60 50 0 0
0.0898 0.1602 0.0971 0.925 -0.256 0.279 57 26 8 0 0
0.0907 0.1600 0.0943 0.925 -0.256 0.279 54 25 10 0 0
0.0925 0.1596 0.0856 0.999 -0.040 0.022 56 25 10 0 0
0.0900 0.1610 0.0716 0.966 -0.232 -0.116 57 25 9 0 0
0.0874 0.1626 0.0489 0.887 -0.454 -0.086 56 24 7 0 0
0.0872 0.1628 0.0460 0.893 -0.437 -0.110 53 21 4 0 0
0.0896 0.1626 0.0230 0.926 -0.340 0.164 55 23 7 0 0
0.0892 0.1628 0.0202 0.941 -0.286 0.182 55 23 8 0 0
0.0906 0.1625 0.0173 0.926 -0.340 0.164 55 23 8 0 0
0.0885 0.1637 0.0000 0.779 -0.520 0.351 51 20 7 0 0
0.0896 0.1634 -0.0028 0.779 -0.520 0.351 51 20 7 0 0
0.0863 0.1647 -0.0057 0.989 -0.128 -0.073 51 20 7 0 0
0.0861 0.1648 -0.0086 0.989 -0.128 -0.073 51 20 7 0 0
0.1029 0.1607 -0.0633 0.250 0.010 0.968 53 32 24 0 0
0.1513 0.1448 -0.0987 0.544 -0.237 0.805 94 76 68 0 0
0.1558 0.1433 -0.1013 0.386 -0.172 0.906 97 74 66 0 0
0.1911 0.1316 -0.1246 0.763 -0.372 0.529 91 47 23 0 0
0.1927 0.1312 -0.1273 0.826 -0.375 0.421 84 40 15 0 0
0.1460 0.1523 -0.2801 0.823 -0.520 -0.228 52 32 22 0 0
0.1464 0.1523 -0.2830 0.906 -0.415 -0.085 52 32 22 0 0
0.1840 0.1435 -0.4248 0.997 -0.078 0.010 74 37 13 0 0
0.1857 0.1431 -0.4302 0.792 -0.521 0.319 77 45 24 0 0
0.1090 0.1711 -0.4668 0.691 -0.537 -0.483 80 52 35 0 0
0.1008 0.1786 -0.6150 0.888 0.004 -0.460 74 43 22 0 0
0.1024 0.1783 -0.6239 0.997 -0.008 0.080 64 32 12 0 0
0.1023 0.1785 -0.6271 0.968 -0.195 0.156 63 32 12 0 0
0.1028 0.1784 -0.6301 0.968 -0.195 0.156 63 31 12 0 0
0.1079 0.1777 -0.6662 0.968 -0.178 0.176 50 21 7 0 0
0.1229 0.1734 -0.6953 0.827 -0.455 0.331 52 23 9 0 0
0.1201 0.1752 -0.7217 0.659 -0.663 0.355 52 22 10 0 0
0.1210 0.1749 -0.7244 0.782 -0.555 -0.284 50 22 8 0 0
0.1335 0.1717 -0.7606 0.966 0.258 -0.014 52 23 9 0 0
0.1461 0.1684 -0.7963 0.927 -0.345 -0.146 53 24 10 0 0
0.1473 0.1680 -0.7989 0.731 -0.682 -0.002 54 25 11 0 0
0.1916 0.1541 -0.8507 0.930 -0.368 -0.017 65 28 9 0 0
0.1801 0.1601 -0.9129 0.918 -0.353 0.181 92 62 33 0 0
0.1798 0.1612 -0.9447 0.892 -0.418 0.173 47 19 8 0 0
0.2096 0.1517 -0.9759 0.975 -0.147 0.167 97 80 73 0 0
0.2521 0.1416 -1.1296 0.939 -0.337 0.074 99 71 46 0 0
0.2523 0.1416 -1.1326 0.954 -0.289 0.085 99 70 45 0 0
0.2564 0.1406 -1.1456 0.865 -0.491 0.098 71 49 37 0 0
0.2472 0.1443 -1.1614 0.917 -0.220 -0.334 131 123 115 0 0
0.0878 0.1579 0.0971 0.940 -0.272 0.207 57 26 8 0 0
0.0883 0.1578 0.0943 0.945 -0.300 0.132 52 23 8 0 0
0.0858 0.1593 0.0745 0.998 -0.060 0.012 57 25 10 0 0
0.0858 0.1594 0.0717 0.944 -0.329 0.010 58 26 10 0 0
0.0858 0.1594 0.0688 0.944 -0.329 0.010 58 27 9 0 0
0.0863 0.1602 0.0402 0.882 -0.471 0.030 56 25 7 0 0
0.0864 0.1602 0.0373 0.882 -0.471 0.030 56 25 8 0 0
0.0874 0.1602 0.0258 0.914 -0.293 0.279 55 23 8 0 0
0.0880 0.1601 0.0230 0.938 -0.289 0.192 55 23 8 0 0
0.0884 0.1601 0.0201 0.941 -0.286 0.182 55 23 8 0 0
0.0893 0.1598 0.0172 0.912 -0.373 0.172 54 22 7 0 0
0.0896 0.1598 0.0143 0.897 -0.440 0.038 51 19 4 0 0
0.1384 0.1454 -0.0709 0.922 -0.386 -0.034 115 94 88 0 0
0.1444 0.1439 -0.0906 0.891 -0.277 0.360 57 25 10 0 0
0.1912 0.1287 -0.1246 0.954 -0.278 0.114 91 47 21 0 0
0.1947 0.1277 -0.1327 0.853 -0.363 0.376 70 32 8 0 0
0.1958 0.1274 -0.1354 0.853 -0.363 0.376 68 33 11 0 0
0.1251 0.1588 -0.3543 0.890 -0.449 0.079 44 24 13 0 0
0.1082 0.1682 -0.4668 0.641 -0.492 -0.590 73 44 28 0 0
0.1063 0.1690 -0.4704 0.905 -0.306 -0.295 68 39 21 0 0
0.1078 0.1687 -0.4792 0.992 -0.122 0.037 65 36 18 0 0
0.1060 0.1700 -0.4981 0.885 -0.449 0.120 52 24 8 0 0
0.1103 0.1689 -0.5124 0.983 -0.014 0.182 57 30 11 0 0
0.1070 0.1713 -0.5535 0.835 -0.446 0.322 73 41 20 0 0
0.1092 0.1709 -0.5652 0.862 -0.495 -0.108 71 36 16 0 0
0.1110 0.1726 -0.6396 0.995 0.003 0.095 55 23 7 0 0
0.1235 0.1699 -0.6948 0.955 -0.296 0.023 54 25 10 0 0
0.1240 0.1699 -0.6978 0.896 -0.415 0.161 53 24 9 0 0
0.1158 0.1730 -0.7072 0.753 -0.496 0.432 55 26 10 0 0
0.1386 0.1668 -0.7644 0.934 0.352 -0.068 52 22 11 0 0
0.1771 0.1549 -0.8135 0.859 -0.367 -0.357 58 29 15 0 0
0.1792 0.1543 -0.8188 0.797 -0.351 0.491 57 28 14 0 0
0.1909 0.1519 -0.8725 0.953 -0.184 -0.240 86 59 39 0 0
0.1763 0.1585 -0.9208 0.977 -0.086 0.193 96 68 44 0 0
0.2063 0.1494 -0.9648 0.980 0.191 0.059 92 77 69 0 0
0.2079 0.1489 -0.9670 0.973 0.064 -0.221 92 76 70 0 0
0.2091 0.1487 -0.9727 0.905 -0.269 0.329 114 97 89 0 0
0.2100 0.1485 -0.9753 0.905 -0.269 0.329 99 82 75 0 0
0.2112 0.1481 -0.9778 0.973 -0.068 0.220 100 81 74 0 0
0.2272 0.1425 -0.9781 0.964 -0.159 -0.213 101 82 75 0 0
0.2405 0.1411 -1.0830 0.949 0.145 0.281 68 41 27 0 0
0.2505 0.1386 -1.1144 0.931 -0.361 0.057 90 51 22 0 0
0.2511 0.1389 -1.1297 0.939 -0.337 0.074 93 65 41 0 0
0.2507 0.1391 -1.1331 0.984 -0.172 -0.050 93 65 41 0 0
0.2555 0.1376 -1.1394 0.829 -0.540 -0.142 90 63 43 0 0
0.2542 0.1383 -1.1466 0.928 -0.371 -0.018 74 51 39 0 0
0.0870 0.1551 0.0971 0.930 -0.267 0.253 55 25 7 0 0
0.0849 0.1561 0.0887 0.823 -0.542 0.168 52 23 7 0 0
0.0850 0.1572 0.0516 0.887 -0.454 -0.086 57 26 9 0 0
0.0876 0.1573 0.0200 0.941 -0.286 0.182 53 21 8 0 0
0.0881 0.1572 0.0171 0.941 -0.286 0.182 52 20 7 0 0
0.0883 0.1572 0.0143 0.897 -0.440 0.038 50 18 5 0 0
0.0860 0.1591 -0.0203 0.984 -0.165 0.067 49 20 6 0 0
0.0947 0.1564 -0.0318 0.999 -0.038 -0.005 45 18 7 0 0
0.0936 0.1575 -0.0549 0.822 -0.559 -0.109 39 16 8 0 0
0.1495 0.1392 -0.0932 0.859 -0.504 0.088 62 37 23 0 0
0.1491 0.1395 -0.0960 0.789 -0.473 0.392 106 85 77 0 0
0.1904 0.1260 -0.1247 0.954 -0.278 0.114 92 47 21 0 0
0.1928 0.1253 -0.1300 0.861 -0.427 0.276 80 39 14 0 0
0.1919 0.1257 -0.1329 0.953 -0.250 0.170 71 35 10 0 0
0.1911 0.1266 -0.1524 0.954 -0.269 -0.135 66 48 38 0 0
0.1609 0.1387 -0.2031 0.578 -0.234 -0.782 55 38 30 0 0
0.1266 0.1551 -0.3510 0.946 -0.318 -0.068 44 24 14 0 0
0.1386 0.1518 -0.3784 0.905 -0.279 0.320 41 18 12 0 0
0.1793 0.1393 -0.4315 0.953 -0.268 0.139 75 43 21 0 0
0.1061 0.1658 -0.4672 0.807 0.173 -0.564 70 41 25 0 0
0.1113 0.1694 -0.6424 0.988 0.101 0.117 57 26 13 0 0
0.1212 0.1678 -0.7017 0.934 -0.198 -0.296 53 24 11 0 0
0.1166 0.1695 -0.7066 0.976 -0.011 -0.219 54 25 12 0 0
0.1125 0.1712 -0.7145 0.887 -0.231 0.400 56 26 13 0 0
0.1794 0.1508 -0.8090 0.918 -0.266 -0.295 57 28 14 0 0
0.1828 0.1507 -0.8417 0.996 0.029 0.084 59 30 15 0 0
0.1861 0.1498 -0.8495 0.854 -0.371 0.366 61 28 11 0 0
0.1791 0.1551 -0.9443 0.700 -0.418 0.579 49 21 9 0 0
0.1973 0.1493 -0.9599 0.715 -0.510 0.479 80 65 55 0 0
0.2045 0.1469 -0.9653 0.866 -0.184 0.464 98 83 76 0 0
0.2058 0.1466 -0.9678 0.866 -0.184 0.464 93 76 69 0 0
0.2070 0.1462 -0.9702 0.866 -0.184 0.464 97 80 73 0 0
0.2090 0.1457 -0.9754 0.931 -0.147 0.333 90 73 66 0 0
0.2267 0.1396 -0.9780 0.964 -0.159 -0.213 96 78 69 0 0
0.2255 0.1402 -0.9849 0.862 -0.400 -0.313 112 93 86 0 0
