ply
format ascii 1.0
element vertex 698
property float x
property float y
property float z
property uchar diffuse_red
property uchar diffuse_green
property uchar diffuse_blue
end_header
0.09216403875201373 0.2556755876139371 -0.33507998012478674 34 14 7
0.09051111068773082 0.2505881967962682 -0.33910687074888274 31 12 6
0.08913768078350595 0.24640523184204416 -0.34296638417346714 56 37 24
0.08857597048694817 0.2448452971954898 -0.3462978812743133 50 31 18
0.0875083390024229 0.24165213931456136 -0.349977480196095 46 26 15
0.08601210304415904 0.23707609371705107 -0.3539605881781243 41 20 10
0.08602944050600725 0.2373880050614368 -0.3569233562199548 41 21 12
0.08622608792128514 0.2382787950309474 -0.3597630656337879 40 22 12
0.08719017842213143 0.241646458876621 -0.36206777303598564 31 14 7
0.08791062079451413 0.24422704902198472 -0.3645340250491483 25 10 6
0.08857506112676969 0.2466263661487001 -0.36703315757040955 35 18 11
0.08910734139182921 0.24859878434060528 -0.36962022961281926 43 23 14
0.08933959845721048 0.24960299734608854 -0.3724176245529583 42 19 12
0.09090345952275683 0.2549019048353185 -0.3742521748023126 40 17 11
0.09036319641523294 0.25366866317376857 -0.3805612151384666 43 20 12
0.0906629601059499 0.25488983712183144 -0.38330094517989005 45 20 11
0.08999958877555816 0.25300616108100515 -0.38675402327435493 52 25 16
0.09104299315300021 0.2566241660063004 -0.3889378947623743 56 29 19
0.09189244443785038 0.25961627264555626 -0.39125782399978265 55 28 17
0.09304911472619432 0.2635975859684292 -0.39333658286650613 45 21 11
0.09464202049745499 0.2689833364831802 -0.39507072571954627 51 24 13
0.09575074570710586 0.2728080657055307 -0.3971614715865651 58 29 15
0.0966772384652046 0.27604493732221713 -0.3993825807154241 63 31 17
0.0988855977974327 0.28340905598202426 -0.40059505483440727 66 29 15
0.10069448351668397 0.28948499650862214 -0.40209876811833706 72 38 25
0.10334355536664994 0.29901363594024405 -0.411629663119492 73 34 13
0.10073642432006968 0.29087491724549375 -0.416650687961307 72 33 11
0.10022812816718085 0.2894908707159446 -0.4199855969891773 69 31 10
0.10053604818113088 0.2907328648594639 -0.4226556727423935 69 31 10
0.1002886208338125 0.2901885382404147 -0.4257829499393953 71 33 12
0.10029489585419285 0.2904603608900319 -0.428702460794887 76 38 17
0.10080786942029533 0.2923614459178862 -0.4311981332819315 81 45 24
0.10118778941467307 0.293834393459078 -0.4338014892990792 84 54 32
0.10146665212442452 0.2949822340728572 -0.43648748724174563 83 56 33
0.09738024380322824 0.28210019258109087 -0.44289947619648384 86 57 33
0.09361781163716437 0.27026305029934006 -0.44907732390033145 74 42 21
0.08032092897417113 0.22831770274685143 -0.4696149018927537 66 39 20
0.07976529237917558 0.22679465973423615 -0.47314310855198094 66 41 21
0.07952861761847543 0.22629645436912155 -0.47639559551648836 63 36 17
0.07913407815563919 0.22529168400446223 -0.4797922260707998 71 42 25
0.07901793953862524 0.22518110044295736 -0.48294440191824844 64 36 19
0.07878095301327379 0.22468280369264068 -0.48620773869286227 54 27 12
0.0784537498058307 0.22389526659911507 -0.4895563790090818 49 25 9
0.07762126543040232 0.22148670956193856 -0.49337050033352675 50 26 10
0.07792144219183221 0.2227130826673107 -0.49615487509795414 56 30 13
0.07768597948851495 0.22222093513712016 -0.499431459024516 58 33 14
0.07744811062885526 0.22172136693770894 -0.5027137306658325 59 34 15
0.07726794452888139 0.22140715530829408 -0.5059456017292117 50 24 11
0.07668107284362678 0.2197890416583526 -0.5095622805510698 45 18 7
0.07732436791388778 0.2221156563594639 -0.5120243472460733 45 19 7
0.07787718307859526 0.2241517110179497 -0.5145664365041833 53 27 12
0.07834477479982589 0.22591417821442 -0.5171849732186807 57 30 14
0.07817922163286577 0.22564720721098602 -0.5204075674540726 52 24 12
0.07738603020498191 0.22336931526530507 -0.5242390388237617 51 23 9
0.07736550609197676 0.22356775298689807 -0.5273295751771018 53 25 11
0.07806421732147292 0.22607029133354603 -0.5297189735030311 51 23 9
0.07860121282747706 0.2280543028827615 -0.5322606292780276 51 23 7
0.07785691818407939 0.22593459296062562 -0.5360623226812721 54 25 7
0.07837697408152994 0.22786412837144454 -0.5386180581788349 57 29 9
0.078178105824779 0.2274915864984714 -0.54188655813664 67 38 20
0.07654813436239509 0.22253820210375297 -0.5465938144024861 70 39 20
0.07640854746136921 0.22235658740721215 -0.549816343166907 64 33 14
0.07619690487770309 0.2219445921953525 -0.5531143782872027 61 29 14
0.07598508153300321 0.22153229580491757 -0.5564158194869473 58 27 11
0.07552218512739145 0.2203170290617088 -0.5599777385647977 56 27 9
0.07590232502915267 0.22179897463930542 -0.5626772723051987 57 28 10
0.07564897189544414 0.2212545276662245 -0.5660295637718267 58 29 11
0.07572192518082713 0.22175388429825735 -0.5690459453064999 61 30 15
0.07474759142918308 0.21890464532403844 -0.5731580229325381 58 26 11
0.07521879624840479 0.2206777070992715 -0.5757616458410817 54 22 6
0.07537204355036756 0.22143406802614873 -0.5786971856007785 58 27 8
0.07439768470168684 0.21858650773267457 -0.5828297326582199 63 32 12
0.07398459177878763 0.2175334934994651 -0.5863745399057065 68 35 16
0.0748292228375701 0.22049950432598586 -0.588575341437475 70 35 16
0.0745076559963282 0.21973923137747223 -0.592025505268291 70 35 15
0.07586530212571824 0.2243430478840584 -0.5936604207657166 72 37 17
0.07524580223661438 0.22263124481997149 -0.597434853296128 71 36 16
0.07390713774697841 0.21862362186465767 -0.6020039640331718 65 30 10
0.07330930256661661 0.2169826351566832 -0.6057736944087415 62 26 10
0.07287645882314611 0.21586899220808092 -0.6093684839474464 62 26 10
0.07371125016512173 0.21880195486404164 -0.6115611390163226 63 27 10
0.07416445272893726 0.22051642391244186 -0.6141715981915773 63 28 9
0.0747824484321257 0.22275640109155323 -0.6165933584497009 67 32 12
0.07502457121206554 0.22379667513167312 -0.6194329236377389 66 31 11
0.07517251217329583 0.22453636671098925 -0.6223774686091318 65 30 10
0.07672069794391283 0.22974215237282064 -0.6237286307820633 65 30 11
0.07651796430726004 0.22936275537252154 -0.62706514565535 65 30 9
0.07621372552733754 0.22865996832902438 -0.6305213688278823 68 33 11
0.07592625496680228 0.22801100663634188 -0.6339624969340165 71 36 13
0.0754698777706056 0.22682397302193996 -0.6376034698027373 66 31 11
0.07479454638933349 0.22493959019951265 -0.6415053042247257 64 29 9
0.07628648637243085 0.22996249592396345 -0.6428799835677267 63 27 10
0.07371246892322124 0.22202875072843603 -0.6490181116014542 61 27 9
0.07705402698216526 0.2329435114355473 -0.6482006577628957 58 25 8
0.07581054904592371 0.22951853660017327 -0.6559047169273371 56 23 9
0.07594500395257749 0.23021509327129738 -0.6588632016707776 56 24 11
0.07544540611948511 0.22889280329961198 -0.6625835319396793 58 26 13
0.0751264948085956 0.22814627866456247 -0.6660920231959024 56 24 11
0.0749412622195105 0.22782563943345446 -0.6694427702159906 54 22 9
0.07501337113720791 0.2283242646537756 -0.6724829125864383 55 23 10
0.0748167639535538 0.22796782331980125 -0.6758521502523521 56 24 11
0.07570592480418298 0.2310661721750325 -0.6778896556817877 54 22 10
0.07728940206241297 0.23637251633324663 -0.6790611412415399 51 21 10
0.075796114512064 0.2318911798283509 -0.6840323556187217 51 21 10
0.0768634644064902 0.23555476274118436 -0.6858310458306265 51 21 10
0.07743709177942792 0.2376475072615774 -0.6882368197311829 51 21 10
0.07862253392258543 0.24168494613484545 -0.6898685814727995 52 22 11
0.07977954686528632 0.2456309892242618 -0.6915243187386125 50 20 9
0.08008496427822442 0.24686934756421933 -0.6942477568981755 50 20 9
0.07979576764110155 0.24621787752637725 -0.6977256818029941 50 21 7
0.078056824754068 0.24284284256669258 -0.7249409472894075 49 21 9
0.07680202982500128 0.2391297856796224 -0.7297291644024752 50 22 10
0.08024012969027768 0.2503095812469094 -0.7283034069828258 48 20 8
0.07959892183768086 0.2485436050320497 -0.7322776305412392 46 18 6
0.07934779657441884 0.2480157666683519 -0.7357378333908655 48 20 8
0.07834690922785584 0.24511014299339046 -0.7402091406444155 49 21 9
0.0773726842142457 0.2422900988123523 -0.7446563810214092 49 21 9
0.07995840089045361 0.2507591797724093 -0.7442932048478924 50 22 10
0.08046106378174459 0.2553137574115562 -0.778023132188263 52 22 11
0.08092952238685544 0.2570661950443751 -0.780491977982488 51 21 10
0.08205829291870344 0.26117707618530533 -0.7851426399124277 50 19 8
0.08064314271408338 0.2569689694027846 -0.7903039953829876 49 19 8
0.08240400113282945 0.26280907324745684 -0.790901721523162 51 20 9
0.08591047173106149 0.2747040084944895 -0.7951753817306384 53 24 10
0.086283253862738 0.2761503020204742 -0.7977416748274342 55 26 11
0.08696922914665711 0.2785863230728939 -0.7998445901435173 55 26 12
0.0872415074524909 0.2797142887573257 -0.802551168696773 54 25 11
0.08746800761839219 0.2806974204752708 -0.8053235059313273 54 25 11
0.08752360538464914 0.2811404459601504 -0.8083482984456519 54 25 9
0.08802522877957267 0.28299253482517694 -0.8107081800194612 54 25 9
0.08806662512140925 0.28339055498905175 -0.8137525063010582 54 25 9
0.08876906491313892 0.2858762849637906 -0.8158040874725819 55 26 10
0.08931315455317541 0.2878614169581214 -0.8180877122155721 53 24 8
0.09005584701211725 0.2904731435396198 -0.8200657147448827 54 25 9
0.09083759077098352 0.2932075234995401 -0.8219771838242317 56 27 11
0.09199343267516161 0.29712198912242127 -0.8233106541333066 57 27 9
0.09201685391848077 0.297461787981557 -0.8263650959335341 57 26 9
0.09130428086720985 0.29547937230725396 -0.8305504741332893 57 26 8
0.09255073591321494 0.2996780898131551 -0.8317255143847788 58 27 9
0.09309929143616191 0.3016742941636472 -0.833967195006473 62 27 11
0.09339882629119002 0.302884683169924 -0.8365903200928642 65 29 10
0.09334496673430193 0.30298048041905246 -0.839761598494504 68 30 7
0.0932910169348021 0.30307612793040606 -0.8429345845635103 72 32 7
0.09341970314220567 0.3037476594251643 -0.8458226244731388 76 35 9
0.09155579158614693 0.29813855514564613 -0.8518471636633099 79 38 7
0.09198992118602654 0.2997735585519732 -0.8542627727220367 87 46 17
0.09126055151673801 0.2977420318975128 -0.858519123971181 87 48 19
0.09141242617802443 0.29848767615609706 -0.8613825549115723 86 49 22
0.09188428001532861 0.3002412135913023 -0.863734457795118 91 61 36
0.092412722221701 0.3021726154335287 -0.8659914609522799 93 66 42
0.09327523390294057 0.305155618399088 -0.8677065694086031 94 66 44
0.09373631979268013 0.3068739416059205 -0.870060616693787 95 67 45
0.09307703722492343 0.30506481684752434 -0.8742239455876033 93 66 44
0.09333418827937698 0.3061410418816573 -0.8769071504229005 91 64 43
0.09263276762708571 0.30420028904832375 -0.8811506442676403 88 63 42
0.09191161167309975 0.3021981883692841 -0.8854351693414141 85 58 39
0.09203230372433716 0.3028455206142976 -0.8883473942749243 83 54 36
0.09020365964530813 0.2973606639677429 -0.8944685020049752 82 50 31
0.09173222024216003 0.302437020072297 -0.8950652057381073 81 48 29
0.08940251140020017 0.2953784688787661 -0.9020407345648804 81 48 29
0.08960196209208232 0.29627475121183994 -0.904837171255274 82 47 28
0.08959194382722983 0.2965123876014254 -0.9079818868077094 82 50 30
0.08833294416493302 0.29282409891187927 -0.9132186279981811 93 63 39
0.08844771078040953 0.29345470828812303 -0.9161628905413145 102 75 47
0.0884182764634601 0.2936321531259748 -0.9193498784635699 99 71 45
0.08827984507828052 0.29346724901508475 -0.9227224764741675 94 66 38
0.0872795573600656 0.2905950736289079 -0.9275596268782464 88 57 30
0.08606309116004708 0.28704492909291346 -0.932776829816033 85 51 28
0.08610211934132088 0.2874389211426086 -0.935864822145924 74 41 22
0.08574538265532822 0.28659025014766226 -0.9396313500680901 58 30 17
0.08842786297779928 0.295283765636232 -0.9381795155649063 52 24 13
0.09107197172523121 0.30385434255000865 -0.9367649288056178 53 24 13
0.09059223398287393 0.3026180083429676 -0.9407254662239943 53 25 11
0.08824267811476505 0.2955145334725083 -0.9479371854912988 55 28 12
0.0907900838653625 0.303778230685131 -0.946650718083129 62 35 18
0.09222374103007949 0.30854557573541763 -0.9472820114841037 65 39 24
0.09270037003218243 0.31030975223584345 -0.9495751172325285 64 41 28
0.09269901933958366 0.3105745235387496 -0.9527040376508826 75 54 43
0.09352795655645293 0.3134429176415041 -0.9543699176733608 85 68 56
0.09330408466074591 0.31300980912751764 -0.9578898216376647 90 75 67
0.09285853680713757 0.3118821043567405 -0.961806577210707 92 77 71
0.09394543362303798 0.3155579934130386 -0.9630014450791142 95 80 74
0.09508675375538314 0.3194034719413469 -0.9640879600871796 88 73 65
0.0954270439903034 0.32073807189664794 -0.9665975449661973 93 78 70
0.0960827937275183 0.3230607053904654 -0.9685374706870065 93 78 71
0.09725820790646841 0.3270105542741979 -0.9695343644923026 100 85 80
0.09714768303843224 0.32693198492640096 -0.9728441358423203 93 77 70
0.0967327775580023 0.3259004788377712 -0.9767081765884713 92 75 68
0.09650046778645896 0.3254411443544436 -0.9802456636519844 93 76 68
0.09690168282950572 0.32696530797407486 -0.9826306366668623 99 82 74
0.09701435883802356 0.32758606470559415 -0.9855402646659696 91 74 66
0.09859472225815524 0.3327998362465398 -0.9857547958585672 96 79 71
0.10045235801111294 0.3388797395178499 -0.98544191970257 94 77 69
0.10238099810792028 0.3451800681254701 -0.9849780024679128 91 74 66
0.10278772263278146 0.34671808064528714 -0.9873134278940288 86 67 57
0.10270056565641256 0.34671116660089507 -0.9905631723834878 77 54 43
0.10439988235007161 0.352290765744975 -0.9904845671354194 74 47 33
0.10459285179897299 0.35315915124706 -0.9932044080415471 74 43 26
0.10466158264258288 0.35363905736896617 -0.9961560569074382 70 37 18
0.105306876897237 0.3559210714071819 -0.9980233659053402 68 32 13
0.10334411696241565 0.3500521470576072 -1.004804947512234 65 27 8
0.10386111659010024 0.35193347280898823 -1.0069171389740479 64 26 7
0.10495613280935782 0.3556201746509501 -1.0079274517497232 65 27 7
0.1065674880258034 0.36091875382828364 -1.0079435245216197 67 29 8
0.10701233818805449 0.36257268541249377 -1.0101695145301155 68 30 7
0.10762303119946606 0.3647441412685809 -1.0120739055393673 70 33 8
0.10809379177155794 0.36647819454743025 -1.0142411247827778 72 35 9
0.10761698943479078 0.3652538732265682 -1.018229126063558 75 35 10
0.10399309679772656 0.3542073722201945 -1.0283028941658214 76 36 14
0.10628772140514678 0.36163452986766464 -1.0269520079741856 77 39 16
0.10695611411555936 0.3639853131123052 -1.0287360409926631 81 43 20
0.1055166944401778 0.35975967946236614 -1.0346209804488422 86 51 27
0.10606018994491036 0.36172076905189887 -1.0366478723525336 90 56 29
0.1083494035797131 0.36912592530557625 -1.0352480172796557 94 60 33
0.10878114022008346 0.37073678111007624 -1.037474400513295 102 68 41
0.1091548811162901 0.37216648155720267 -1.0398112074367734 103 69 42
0.10918570208646113 0.37252691115525716 -1.0428227011005566 108 74 47
0.10845836710037568 0.3705243488544895 -1.0473379500886406 112 78 51
0.10832043277006302 0.3703593559273869 -1.0506905243037488 114 81 54
0.10730527618812127 0.36746128020842045 -1.055794758410251 111 80 52
0.1072588962991788 0.3675823784402383 -1.0589743143363577 106 75 47
0.10703330726287832 0.36714539058872175 -1.0625147392688608 103 72 45
0.10684703113110097 0.3668311433887548 -1.0659796496693013 101 70 43
0.10658625534835253 0.366285177419732 -1.069597891935089 93 65 44
0.10363910008045099 0.3573757174244184 -1.0786526334255977 86 58 42
0.10289399901952362 0.3553240683908675 -1.0832761783903064 77 50 34
0.10512927560040036 0.36254949653589796 -1.0818482603754147 66 44 32
0.10597163822582256 0.3654381379868003 -1.0832365063907445 45 25 18
0.10570975210452653 0.36489020581167575 -1.086874320298178 31 15 8
0.10613524123580984 0.3664810257647414 -1.0891065417060826 31 14 6
0.10719438422173586 0.37004249012220003 -1.0900319261628173 43 18 10
0.1096392064264313 0.37791247030573455 -1.0880889931163 54 21 10
0.10963671196468548 0.3781701792593735 -1.0911795324079292 60 23 6
0.10827475100324865 0.3742013607287292 -1.0970897629403875 68 28 8
0.10616360963248744 0.36790510647058405 -1.1045740628759677 74 33 11
0.10637272884311087 0.36882247988531464 -1.1072462155319853 77 37 14
0.10519533127804723 0.365431055593021 -1.112815410986271 82 45 21
0.10412550149721865 0.36237509046697697 -1.1181735298706381 87 51 25
0.10321880353783522 0.3598270408686002 -1.1232019550568075 89 53 27
0.10808298376842984 0.37520480856617433 -1.1160794310802329 91 55 29
0.10832482849141076 0.3762227881293673 -1.1186705020213994 94 59 32
0.10884197877158616 0.3780954683989887 -1.1206764549458814 97 64 36
0.10850611461520124 0.3773194457157647 -1.1244898403425465 98 68 40
0.10784820671972975 0.3755441744786911 -1.1289941092524391 99 69 43
0.10738585013693491 0.37437655404307146 -1.133089173468599 99 67 40
0.10697394904378116 0.3733660437897609 -1.1370824470335836 92 61 34
0.10662053738774237 0.3725374961418395 -1.1409558161010769 84 58 35
0.10900968897587827 0.38021724785034816 -1.1389290154144494 70 49 32
0.10890325507547502 0.3801542611327139 -1.1422635882517809 66 49 34
0.10816514181381987 0.37813251616572074 -1.1469677036032566 90 74 60
0.10807875022335434 0.3781323654787544 -1.1502668114850758 129 120 110
0.07718313748264509 0.15755608098837268 0.11495306919369003 183 182 180
0.07984134476428972 0.1666210432471748 0.11168782240310696 176 171 167
0.08031438271939093 0.16843614912557628 0.10874495392810553 137 123 115
0.08092730899363984 0.17071483567737356 0.1057876982276783 127 101 88
0.08252116068444344 0.176245702671535 0.10271250327154341 122 87 69
0.08378565342794565 0.1806832980359429 0.09969220598243517 119 86 64
0.08428124027511322 0.18257093865800683 0.09677263829573433 110 77 55
0.08472386361848414 0.18428267384005545 0.09386305376196907 105 72 49
0.08569265760077242 0.18773791552697094 0.09090155601519875 103 71 49
0.08625958117367298 0.18986070608118608 0.08798933109911986 108 78 58
0.08566542462927912 0.1881360759505471 0.08519275147057583 106 76 58
0.0863475661320254 0.19064023846656758 0.08227397025619455 105 77 59
0.08729071318820086 0.19400845068617661 0.0793389344154605 98 70 50
0.08860737134817802 0.19861299361126844 0.07638256309364125 90 60 40
0.08946904417925548 0.20170975627295235 0.07347285579179377 78 44 25
0.09242408782870579 0.21173729709465694 0.07042403591094629 70 34 16
0.09304709657890059 0.21404166705667385 0.06755613154617027 68 32 14
0.09297676747246918 0.21429210573164084 0.061909108235215185 67 31 12
0.09283173727410379 0.2140538890249295 0.05908927759125225 70 34 14
0.09272812179976098 0.21395291122984658 0.05626526652635212 86 56 37
0.09341138030992088 0.21645550787905257 0.05340797088945311 105 78 63
0.09470387444727818 0.22097300949459123 0.0505355161724853 109 75 61
0.09601153663570117 0.22553963683209036 0.047674835310730156 111 73 56
0.0970268448766171 0.22913831699367057 0.04483376135905442 121 84 65
0.09786150819336349 0.23213883071500116 0.04200566552501972 144 114 94
0.09794094809376641 0.23264163402665805 0.03919618381355568 145 115 99
0.09802379598889724 0.23315570772073516 0.03638662626801787 130 99 84
0.10003359733945073 0.24003936445214047 0.03356849436043291 129 98 81
0.10028127711111653 0.24109738800410618 0.03076878898603366 131 100 82
0.10041513288653431 0.24177912037754376 0.027970101033140893 127 97 80
0.10077101227292518 0.24319442359170051 0.025174315007048566 107 78 56
0.1012703090996846 0.2450833107793251 0.0223835652838631 88 53 29
0.10190681776213747 0.24742509583093678 0.019599906798442826 75 36 14
0.1028882053590603 0.25090550707829623 0.016830828392013254 69 31 10
0.10370378739129604 0.25383756830014204 0.01406572040800931 67 29 10
0.1041257353235778 0.2554691943496571 0.011293824935435057 65 27 8
0.10468318707490507 0.2575479071298589 0.008530960789252577 63 28 7
0.10521202470652359 0.2595317470911426 0.005771595159479462 61 26 6
0.1050244082204108 0.25915036724806817 0.002979942178039978 59 24 5
0.1030127144621751 0.2527492027368631 8.251373259818284e-05 57 22 5
0.10263418448266291 0.2517390962486638 -0.002735674446855005 55 22 5
0.10520905507461298 0.26047395807723733 -0.0053616976512167805 55 22 7
0.10360458820368038 0.25565795324032176 -0.011056617278529295 56 23 11
0.10309281758712827 0.25420909234739214 -0.01389380260861111 57 29 17
0.10202329093080403 0.25092143901558545 -0.016785589118380462 59 36 23
0.0998746500955486 0.24407666840173786 -0.019788536312030196 62 38 28
0.09958238520758748 0.24335399208519917 -0.022633761945914516 62 39 28
0.103666216193845 0.25705696158803465 -0.025035057699172053 58 36 27
0.102475206201042 0.2533708101672355 -0.0279621759579362 42 21 14
0.10110898589080848 0.24910836202060715 -0.03092201258935793 39 16 10
0.09945612828070997 0.24390268615657945 -0.03393036334787492 36 15 8
0.08842845693523618 0.2095375727915193 -0.0582881950347484 15 9 9
0.08953637656938154 0.21343073003336901 -0.060993422129248596 18 12 12
0.0909884098152996 0.21845536989573924 -0.06363011067241375 17 13 12
0.09396495307224101 0.22849486394585222 -0.06598772666973302 13 10 7
0.09405736665551226 0.229043520038042 -0.0688319749945966 19 11 9
0.09483883594444337 0.23185874569526915 -0.07154927437225694 32 20 18
0.09597621400933351 0.23584392908915247 -0.07419207640684188 65 48 44
0.09656266105212838 0.23801644279337697 -0.07693117119186205 73 59 51
0.09698501543698246 0.23964896654169146 -0.07969785469956084 65 43 33
0.09708317075179097 0.24021534374951836 -0.08252741370564187 63 30 19
0.09976644115268388 0.24927950396068937 -0.08481455787433224 62 29 14
0.09956535099105268 0.24886117327914536 -0.08769487174903141 60 27 10
0.10040881751402554 0.2518758444076283 -0.09034827302395135 62 28 11
0.10031882400452558 0.2518226065501792 -0.09320406274371697 70 36 21
0.09940822142049088 0.2490734554799056 -0.09625063574126935 78 51 38
0.10241825781095887 0.2592044995547786 -0.0983843120141662 66 36 23
0.10181414056190735 0.2577041925913231 -0.1041891921502729 68 32 18
0.10199533293882161 0.25854139282818933 -0.10697634711921496 68 32 18
0.10635383133568187 0.273093631247799 -0.10869299718390411 80 44 30
0.10942949181258228 0.2834307983104883 -0.11070068162304006 90 56 42
0.11013743099392498 0.2859936029802233 -0.1133081277558452 106 75 61
0.110584171970254 0.2876986238700788 -0.11598004119362267 145 117 105
0.11172918928085909 0.2916947068848298 -0.11845503972562332 130 103 89
0.11235052915577882 0.2939716447184605 -0.12106664839695908 125 96 78
0.1124391008890025 0.29450030655269066 -0.12382557022558016 94 59 36
0.11479236315024598 0.3024575146443335 -0.1259229249197354 84 40 13
0.1148762356486952 0.30296975415967237 -0.12867143070589937 76 33 8
0.11437558624504132 0.3015651812016127 -0.13159668330306362 70 29 7
0.11454475170592604 0.3023573371076707 -0.13432193211473992 75 35 14
0.11491053850522097 0.30379401879338835 -0.13698478991596658 74 37 13
0.11545313577088782 0.3058100265521675 -0.13958850758094798 68 34 13
0.11529287671296451 0.305522006404651 -0.1424145369520298 66 36 21
0.11360709854718244 0.30023496544943523 -0.14574380235888887 65 39 29
0.11443076371746583 0.3031720026906103 -0.1482546773400652 65 42 34
0.11426667248140779 0.3028723094785864 -0.151092317044133 66 45 36
0.11333176358734781 0.3000478322357489 -0.1541974735443731 66 46 37
0.11295360631714244 0.2990477848135913 -0.15711888990052278 65 45 36
0.11370636903494005 0.3017517491004447 -0.15964461124204574 64 44 37
0.11262312397294585 0.29844326500481344 -0.16282303103310128 63 43 36
0.10711300245904928 0.28209291360110406 -0.1845904607482318 60 40 31
0.1056597898560948 0.2775816659449407 -0.1880031263784816 60 40 31
0.10492362426966942 0.2754168318462564 -0.19114066213758119 60 40 31
0.10806269087342901 0.2859246648921202 -0.1926934364603099 59 39 30
0.10718452192336674 0.2832952804670904 -0.1958869948769001 60 40 31
0.10736343960164742 0.28412246527237484 -0.1986449463865271 60 40 31
0.10833606576539911 0.28778584190194567 -0.20389232086043355 59 39 30
0.10543980525085689 0.2785635561384283 -0.20798836057420939 58 38 29
0.10549308502120126 0.2789809971233932 -0.21081071246982228 57 37 28
0.10362549234883714 0.2731232258780158 -0.2144930526857856 56 36 27
0.09526732408764818 0.2495467287455878 -0.2618364866189298 64 37 25
0.09553122690699213 0.25065616074521924 -0.26461033601658956 64 38 25
0.09909446101921843 0.2627665062883865 -0.26850875314581407 65 37 24
0.0970835909264002 0.2564620090554629 -0.2725048034682512 63 35 21
0.09647261128194312 0.254720147252891 -0.275750105902751 64 36 22
0.09743000608485547 0.25808787580100423 -0.2781287909873925 64 36 22
0.09621877299473441 0.25439150739764665 -0.28171807850365443 63 35 21
0.09594391899642343 0.2537457089520513 -0.2847893839447368 63 35 21
0.09517852492172982 0.2515029629691317 -0.288145513879002 61 34 19
0.09445080761928434 0.24938364440497246 -0.2914887851358542 54 28 13
0.0948865910750161 0.25105254132567084 -0.2941617763701051 59 33 16
0.09490809915513052 0.2513727401116253 -0.2970749658128538 56 30 13
0.09572644014652537 0.2542861714972097 -0.29951557313636895 46 24 10
0.09608070500090884 0.255688886085016 -0.302226547624812 88 72 63
0.09779618554472776 0.26152001200285246 -0.3041119466276797 67 51 44
0.09732331856390462 0.26023096836035053 -0.3073144075317644 63 38 26
0.09639067562760609 0.2574469797276391 -0.3108054683022621 55 23 6
0.09644459915078266 0.25787232488416856 -0.31369537216234145 59 22 6
0.0953731103269165 0.25463824468246565 -0.3172895001694996 59 24 7
0.09453108710605992 0.25215124546169876 -0.3207510751038127 66 31 10
0.09444379901756811 0.25211854106066983 -0.3237424213855712 66 34 12
0.0942781852187344 0.25183141001772735 -0.3267858161547609 69 39 19
0.09391333845518673 0.2508970270798007 -0.32996066474626734 67 38 22
0.09522945467591182 0.2554251802203293 -0.3320446565056785 60 34 23
0.09430706690503217 0.2526794267535769 -0.3355864754522598 31 11 5
0.09232341007684622 0.24648704524560022 -0.33984181320485934 31 12 5
0.09069800604336123 0.24146015398051673 -0.3438798098599067 53 32 20
0.0898788098746234 0.2390530490198765 -0.34739339725380286 52 31 18
0.08877627729583586 0.23572672509742415 -0.35110868091250813 49 27 16
0.08830687460635939 0.23445705717266713 -0.3544038280593378 45 22 12
0.08790328734264997 0.23340154466258217 -0.3576595215840791 40 20 11
0.08992014986835054 0.24020276368753607 -0.3592406770384507 37 19 9
0.09028447487916025 0.2416391845941411 -0.36195698529489106 31 14 7
0.09103417683151463 0.24432586178700355 -0.3643988486006435 26 10 6
0.08847066539957857 0.23626241258246455 -0.36918548966702813 39 21 13
0.09165563912152103 0.24684938468445405 -0.36988936930085203 42 21 12
0.09246869306565905 0.24974014473616335 -0.3722692023710564 47 22 16
0.0932505920816585 0.25252920939249857 -0.3746639572218225 45 20 14
0.09276831150129261 0.25147169557535004 -0.3809378492203195 46 21 13
0.09262555108427048 0.251262304126176 -0.3840070414228867 48 22 13
0.09267152529634576 0.2516648609059636 -0.38693770236699815 54 27 18
0.09295827626364472 0.2528477686960814 -0.3896876892327674 58 31 20
0.09427922307333095 0.2573816697563269 -0.39165219022705877 49 23 12
0.09572251936944468 0.26231085333749454 -0.3935102777458612 46 21 11
0.0976687383871877 0.26886800458550164 -0.39496769408198945 55 27 16
0.09874719198611157 0.27261276965465725 -0.39707647812998914 65 35 22
0.09959653025235882 0.2756146315253753 -0.39935313313864906 67 33 21
0.10142121182018987 0.2817740588004336 -0.40085702553790736 67 30 19
0.10277652557709292 0.2864122600860723 -0.4027129176039589 83 50 38
0.1038731102760888 0.2902117521447477 -0.40476090496276584 87 64 51
0.10519152116131641 0.29522578394306664 -0.4124382231808031 69 30 9
0.1022701701953497 0.2860229716495485 -0.41773177144599016 68 29 7
0.10408020773065244 0.2921285495983274 -0.4191719443608773 69 31 10
0.10435309093434397 0.2932606884897616 -0.42186423139800633 69 31 10
0.10464815156005476 0.2944643781811349 -0.42453606891477125 69 31 10
0.10324342965536211 0.2901715398243619 -0.42862865118170085 71 33 12
0.10348714438074773 0.2912096144247963 -0.4313483215873939 76 41 20
0.10376984977989054 0.2923735873157927 -0.43403324441194463 80 49 28
0.1039273119392131 0.29313257055778447 -0.4368229099490218 81 54 31
0.09637481605515745 0.26922854716938915 -0.4491958289480691 73 41 20
0.08290018682200447 0.22646793359381628 -0.4699522414312333 79 49 31
0.08228888245283941 0.22475378788971026 -0.47353421571203813 74 46 28
0.08192125215939215 0.22382710285810709 -0.4769066732183278 72 42 25
0.08139983936292136 0.2224043423088018 -0.4804217674069522 60 32 16
0.0813549161143613 0.2225202846637996 -0.48351397778524235 54 27 12
0.08100070928531167 0.22163809890996589 -0.48688798895631547 53 27 13
0.08079242526552494 0.2212272349090903 -0.4901336728310977 50 26 12
0.07985941809126487 0.21847817387081514 -0.49404726619740374 52 28 13
0.07976754460358058 0.21844375424750145 -0.4971957859665113 54 28 12
0.0796422788094984 0.2183017834738204 -0.5003772261447172 63 37 20
0.07956674900817153 0.2183204239442026 -0.503514541959876 51 25 8
0.07938286138909631 0.21798977462821956 -0.5067553280114852 44 18 6
0.07761374793808126 0.21254794634158003 -0.5114954822382833 47 20 9
0.07925640180545487 0.21810721777546813 -0.5130165779987376 48 22 9
0.07899953612949348 0.21754196338273535 -0.5163345181856547 52 26 11
0.07925069292797196 0.21861440380568584 -0.5191684272413523 55 28 12
0.07812709258066883 0.21525642667309092 -0.5233278458251893 52 24 11
0.07968597343382225 0.22054284958899978 -0.5248961044538144 50 22 8
0.07936237147589292 0.21976319431910896 -0.5282862200761241 51 23 9
0.08048439597056178 0.2236405784173253 -0.5302618192474443 53 25 11
0.08131809508400567 0.22658839069458153 -0.5325108755193968 54 26 10
0.08148182851330642 0.22737803672359191 -0.535416728354036 59 30 12
0.08117165931129527 0.22664172910710878 -0.5387945710527449 59 31 12
0.08005926749211807 0.22332313856624347 -0.5429813641997263 62 33 15
0.08015479198951944 0.22389382438742705 -0.5459629941163231 61 31 14
0.07900710659700752 0.22046329780563909 -0.5502049158996694 58 28 12
0.07810494693549282 0.2178240082043573 -0.5542099132820529 57 28 12
0.07820435751481998 0.21840821117097695 -0.5571994146759416 58 28 12
0.07802565733918795 0.2180977039286086 -0.560475246834554 59 28 10
0.07753416718374893 0.21678132131972516 -0.5640778079536872 60 30 12
0.07897633690392283 0.2216844062758816 -0.5656742335905233 58 27 9
0.07846454604311812 0.22030292266149437 -0.5693001325416508 58 27 11
0.07778565071616104 0.2183847149736938 -0.5731082229086422 59 28 12
0.07803951626045563 0.21946582092139133 -0.5759387726806003 58 26 9
0.07788813017491122 0.21924417429175014 -0.5791980426105742 61 30 11
0.07700324373759762 0.2166653970791771 -0.5832430576419457 66 34 15
0.07636423682984297 0.21487762342960479 -0.5870347438247662 69 36 17
0.07601501309173926 0.21402157192496712 -0.5905217739931894 68 33 14
0.07573878013511481 0.2134004055660521 -0.5939344334186233 66 31 11
0.07576260112029337 0.2137433486532428 -0.5970242050086533 68 33 13
0.07451063953066789 0.20998913777377948 -0.6015112755719951 69 34 14
0.07457903178017194 0.21047591427763956 -0.6045603412829577 66 31 11
0.07522561539795111 0.21281905563183529 -0.6069704502426374 65 30 11
0.07620963790372973 0.21624490944340216 -0.6089996740149861 64 29 10
0.078233924739431 0.22300885234428347 -0.609857951159562 67 32 14
0.07918202870554003 0.22631729918542287 -0.6119024805808124 70 35 15
0.07956963721155927 0.22782645850116398 -0.6145694763790541 69 34 14
0.07912719994148795 0.22667231268307458 -0.6181733258095714 67 32 12
0.07949396893228508 0.22811445453814846 -0.620862073533145 65 30 10
0.07970242691511675 0.2290485782386721 -0.6237288297744419 63 28 8
0.07936169791343359 0.2282214031504566 -0.6272252168944864 61 26 6
0.07907996071890959 0.22758378061148402 -0.6306581787463695 61 26 6
0.0794422758004741 0.22901131719069512 -0.6333482773402429 61 27 7
0.07861279558590352 0.22661828931663955 -0.6374239788111361 61 27 8
0.07426786115590703 0.21295892395405508 -0.6456246024473522 59 26 8
0.07781102179134405 0.22458171767965057 -0.644597301635032 60 26 10
0.07611176599072841 0.21940398996032107 -0.6497258392013185 59 26 9
0.07782443143593465 0.22542558026115317 -0.653947396135018 58 25 10
0.07714185546899059 0.22350660941795603 -0.6578888236013682 56 23 11
0.07673326038910283 0.22246571435580464 -0.6615090169960126 55 23 11
0.07660265228042676 0.22231533969522013 -0.6647986671041315 53 21 10
0.07676352237773508 0.22309828742776094 -0.6677368595740232 51 19 8
0.07716003597477852 0.22463543145824652 -0.6703869237265038 51 20 9
0.07600806513775603 0.22121652722526508 -0.6749303991103246 52 21 10
0.07670748473889565 0.2237230996664054 -0.6772095410384906 52 22 10
0.07717854083572415 0.22549846364669926 -0.6797642567023306 51 20 9
0.07850676880392154 0.23001556360580216 -0.6812508537624005 48 18 7
0.07855300357735719 0.23043101321822468 -0.6843222165125993 48 18 7
0.0793191916316888 0.23314896119241357 -0.6864925602158067 49 19 8
0.08153375567573627 0.24049760354588273 -0.6868340275537812 51 21 10
0.08250102926327402 0.243856510394752 -0.6887277206091281 51 21 10
0.0826228430852578 0.24451194577539434 -0.6916843209063341 51 21 10
0.08239927879523234 0.24406345385102202 -0.695080574941008 51 21 10
0.08221389522642708 0.2437372695567972 -0.6984313968322499 51 22 8
0.08195596143584366 0.2431795249072418 -0.7018784423901214 51 22 8
0.08329974120470152 0.24773925412837805 -0.7032624615055992 51 22 8
0.08297052074829629 0.24908659165073443 -0.7317434644411647 48 20 8
0.08304283002079989 0.2495842553588823 -0.7347684503537976 49 21 9
0.08284809742588875 0.24923016620659993 -0.7381542964472944 48 20 8
0.0838160340633201 0.25258430117105274 -0.7399665578116975 49 21 9
0.0829169757906302 0.2499843114268822 -0.7443112672787658 50 22 10
0.08420009198839376 0.25701463634588084 -0.7769319404894581 53 23 12
0.08370431277626807 0.25570421180040787 -0.780769954883964 51 21 10
0.08284895963525932 0.2532499614021077 -0.7851297241994796 48 19 8
0.08306560219218917 0.2542078223925632 -0.7879577270161433 48 20 8
0.0837899651684328 0.2570491558108321 -0.7931875744795162 48 20 8
0.08647544538449013 0.2658591681847549 -0.7924172213288639 50 20 9
0.08858237010675508 0.27282678806560323 -0.792463296024064 52 22 10
0.08871602966937249 0.27351798836302355 -0.795380288755525 53 24 10
0.08976967309212497 0.27713404198787395 -0.796942827198216 54 25 10
0.0899793989761219 0.2780665240376964 -0.7997413793751673 53 24 10
0.09035331062567367 0.27952073075993633 -0.8022951441070509 53 24 10
0.090552209622931 0.2804184999541308 -0.8051062269132394 53 24 10
0.09049167246905807 0.2804918325726373 -0.8083036440022059 53 24 8
0.09148079058535091 0.2838999840455156 -0.8099288988498394 53 24 8
0.09118324248174255 0.2832202480894017 -0.8134804859878567 53 24 9
0.09205755919137615 0.2862626969334745 -0.8152663274804891 54 25 9
0.09257876632079723 0.2881830999338275 -0.81757877043339 54 25 10
0.09304293913870224 0.28992200720597894 -0.8199731978257951 54 25 10
0.09386038141209613 0.2927820332485045 -0.821824002875551 55 26 10
0.09352482274155001 0.2919816447997029 -0.8254338011650986 56 26 11
0.09292485182834265 0.29034251645625775 -0.8294549988342985 56 24 9
0.09266777919351865 0.2897921041167788 -0.8329545059128114 56 24 8
0.09592078398875674 0.30037831143072097 -0.8310199495113922 55 24 7
0.0959235676851157 0.3006512023847354 -0.8341036288241581 59 25 9
0.09605977559932292 0.3013473575910797 -0.8369800686119953 63 27 8
0.09603800333143418 0.3015424741034851 -0.8401033500678137 66 28 5
0.09627874995371288 0.3025700802449811 -0.8428153201836278 70 30 5
0.09622726028204096 0.3026710677947656 -0.8459864454246836 75 34 8
0.09534777237921256 0.3001475879538237 -0.8504694647576025 79 38 8
0.09572762193137385 0.3016162940896372 -0.8529632822948527 85 45 16
0.09551758231196214 0.30121544509555753 -0.8563939411025785 90 51 22
0.09584569626882991 0.3025199584063596 -0.8589672861892189 93 58 30
0.0961388522301446 0.3037134994979076 -0.8615940606149025 96 67 42
0.09647224724785546 0.3050342999494603 -0.8641537525691085 96 70 46
0.0957829837452613 0.30311614942212395 -0.8683632553035576 93 66 44
0.09716167946346961 0.30774689587264337 -0.8692282239644442 92 64 42
0.09617863210462749 0.30489911986032875 -0.8739215336270519 90 62 40
0.09628595341956162 0.3055039587706132 -0.8768465977000617 88 61 40
0.09545532768857237 0.3031401276399396 -0.881308010848178 87 61 41
0.095044184725876 0.30210465777948203 -0.8850901273560152 83 57 38
0.09474219802496102 0.30141504557780174 -0.8886977763101682 80 51 33
0.09467713471211922 0.3014753417985955 -0.8919176837748694 81 48 30
0.09482629994784351 0.30221342027272985 -0.8947835696024942 80 46 27
0.09188655291751882 0.29318224143821126 -0.9027952862864347 79 46 27
0.09132273035454445 0.29166707729318553 -0.9068689781127826 79 45 26
0.0909093238962515 0.2906281091546504 -0.9106976717981854 81 49 29
0.09093606744382952 0.2909810380045004 -0.9137912590850246 91 61 37
0.09091542896129276 0.2911842634663264 -0.9169655468270635 102 75 47
0.09110799929554751 0.2920613927089814 -0.9197798708535718 103 76 50
0.09149670060166376 0.2935581572216479 -0.9222596797223686 96 68 40
0.09140042137000279 0.2935224264325229 -0.9255631542273071 88 57 30
0.09085079549052222 0.29205482316132847 -0.9296443170320924 83 50 26
0.09021178794617288 0.29030553195517506 -0.9338860536550945 72 39 20
0.08934350877876747 0.2878329254483891 -0.9385307691289656 56 27 15
0.09055722703996438 0.29193494308298973 -0.9395892165091378 52 23 12
0.09118372546706874 0.29418207426019716 -0.9416528717650302 53 24 13
0.0918923037215686 0.2966877706687313 -0.9435677748371846 52 24 11
0.0921613288133332 0.297805658372039 -0.9462425251921764 52 25 10
0.09219416853473758 0.29817809388820904 -0.9493286042827167 57 30 14
0.09342919992672959 0.30234350465497895 -0.9503046098185309 65 39 24
0.09426698682786577 0.30525469720380566 -0.9519674249472897 65 43 29
0.09535322581836836 0.30894879949445764 -0.9531828266369556 76 55 44
0.0978714235832912 0.31715771801075876 -0.9518487836949445 80 63 51
0.0971972162131758 0.3152983793657841 -0.9561641113937088 86 71 63
0.09742775730914678 0.3162920868312008 -0.9588741169959775 96 81 75
0.09774358604479738 0.31755449460786567 -0.961429906983301 96 81 76
0.09854256297681738 0.32033939340505024 -0.9631158605694603 91 76 68
0.09933951427350995 0.3231172251393627 -0.964797463218911 91 76 69
0.0992801865169071 0.3231965140913394 -0.9680177907218058 92 77 70
0.10014034868647262 0.3261725198441604 -0.9695737177279437 95 80 74
0.10096306146335737 0.329029826901646 -0.9711890140694888 87 70 63
0.10077927370386902 0.32871672012614167 -0.9746310884171411 91 74 66
0.10079092029147492 0.32901924947070504 -0.97771880576883 90 73 65
0.10108096823928306 0.33019833496882356 -0.9802966608207887 89 72 64
0.10142497400935434 0.33154707324435406 -0.9827729466721182 87 70 62
0.10259461122669655 0.3354940786878956 -0.9837224241369648 92 75 67
0.10416263574097977 0.34069369428043067 -0.9839221157529906 90 73 65
0.10518985813902418 0.34419033325719955 -0.9851093897182873 88 71 62
0.10606828943995064 0.34721798905428214 -0.9865632021718536 83 65 54
0.10647582166249606 0.34876372669524897 -0.9888878780407556 78 56 43
0.10778758336552963 0.35315285792456397 -0.989514411665395 75 47 34
0.10805485811448928 0.35425651242297185 -0.9920903675320478 74 43 26
0.10858868410702374 0.35619800939757557 -0.9941617540661535 72 39 20
0.10860326123868035 0.3565068460507166 -0.9972099616104891 69 33 15
0.10609731795258082 0.34889386568411623 -1.0050394412328476 64 26 7
0.10686958862695739 0.3515850932859467 -1.0066622070362072 63 25 6
0.10794429096979595 0.35522589450757897 -1.0077001961360197 65 27 7
0.10963786622274888 0.3608099312636609 -1.007542725437445 67 29 8
0.11088978442013088 0.3650051577692111 -1.0082147079189672 68 30 8
0.11200106885014358 0.3687575896527115 -1.0091441943927695 70 32 8
0.11212125476533256 0.3693969283338645 -1.011975475591705 71 34 9
0.11005436038500967 0.3631697513196132 -1.0190411469107405 74 34 10
0.10724197758679438 0.35460451456648645 -1.0275789386566985 76 36 14
0.10791660187481865 0.3569863965743188 -1.029358283473748 75 37 14
0.10889343490198795 0.36031607269761623 -1.0305406580196255 79 42 18
0.11048380270990357 0.3655699268455939 -1.030511034105308 85 50 26
0.10827109314479433 0.35889153730593437 -1.0379360365416874 88 54 29
0.10695201121402453 0.3550183820567943 -1.0436264254594438 92 58 32
0.10738469191317634 0.35664041444970995 -1.04587129382902 98 64 37
0.1083570895332012 0.3599544912942846 -1.0470426799315729 100 66 39
0.11197268548909782 0.3715546497311526 -1.0429509524800007 103 69 42
0.11149173543087507 0.3703098970327048 -1.0469837874568189 108 74 47
0.11037659394963842 0.36707799976186395 -1.0522906771880285 108 75 48
0.11081305905696888 0.36870959676349746 -1.0545011246503442 107 76 47
0.10989517576409183 0.36609734317821324 -1.0594300292061476 105 74 46
0.10918958857145059 0.364151141195592 -1.0639424219183495 103 72 44
0.10849624306978073 0.3622440557229182 -1.0684390976403941 100 70 42
0.10984533028389723 0.3667341947801029 -1.0688041675339879 93 64 44
0.10928037358231271 0.3652296589431431 -1.0730459861288606 88 60 43
0.10879456874876353 0.3639735685009542 -1.0771338775405186 77 49 33
0.10826109288111538 0.3625688111693566 -1.0813257609413915 65 44 31
0.1085258937638142 0.36366313469386913 -1.0838882157091834 45 24 18
0.10805385989221505 0.3624514727048951 -1.0879634012937787 32 14 7
0.10881017946419719 0.36508370205039475 -1.0895127544061936 33 15 7
0.11023611728312971 0.3698100920509161 -1.0896702382685213 42 17 9
0.1129823195803252 0.3791922078066848 -1.0932432525714415 70 30 10
0.10885182667175029 0.36654239864508853 -1.1049614921054907 74 33 10
0.10931773774416148 0.3682647358318678 -1.1070949578200275 78 39 14
0.10884660420676817 0.36705802857387676 -1.111193286465618 83 47 20
0.10765143175791055 0.3635892844894689 -1.1168237192279056 88 52 26
0.1065856895309247 0.36052619569401156 -1.122195361000944 91 55 29
0.11079799505322563 0.37395268769229234 -1.116397728198827 93 57 31
0.11066916079920827 0.37381568391685793 -1.1197751797913338 96 61 35
0.11061329282089943 0.37390676449486515 -1.1229996772111535 97 65 36
0.11177456826923139 0.3777985121352586 -1.1236261460954005 97 67 40
0.1111593054955857 0.3761428417339611 -1.1280449466669227 97 67 41
0.11034792430719702 0.3738756735718352 -1.132892939646516 96 65 38
0.10992747735539268 0.3728295028846931 -1.1369095289870685 92 61 34
0.10946645292582653 0.37165720720088535 -1.1410195468422402 83 57 34
0.1118033298413829 0.37921502284958086 -1.1390795959158737 69 49 31
0.11143342466774392 0.37832668110721146 -1.1429883791191982 67 50 35
0.11103138638343893 0.37733856327999143 -1.1469723371944922 91 75 61
0.11180260966605714 0.3800098231712446 -1.148402077388667 131 122 112
0.07936263945779501 0.15479330034530284 0.1120696385844922 182 181 179
0.08207984077194859 0.16410014259801076 0.10880430473570452 166 161 158
0.08268638292446102 0.1663674013970194 0.10584240756298643 126 111 102
0.08424559087676806 0.17181016605974003 0.10276562908172812 123 95 78
0.08553302083743229 0.17634574068736997 0.09973664852413255 115 83 59
0.08660622360010396 0.18016628586549238 0.09674467272984975 102 68 45
0.0873897191129918 0.18302054291765657 0.0937948287938032 100 66 44
0.08839549458826199 0.18661484397090225 0.09082851569677294 103 72 50
0.08962327379715475 0.19094798156603227 0.08784914067246996 116 88 67
0.09020904880331106 0.19314150864354554 0.08494280747399735 116 88 68
0.09071714399106215 0.19507587322156164 0.08204859042388513 109 82 63
0.09136515224376854 0.19747582765991717 0.0791466819258013 105 78 58
0.09578502944740469 0.21315493375217512 0.06747673855802133 68 32 16
0.09566233487625683 0.21298665266867156 0.06465910721215656 69 33 17
0.09518102928993008 0.21162519119354933 0.061859160564228965 70 35 17
0.0947047238854907 0.2102808550233253 0.05905321806916665 75 41 21
0.09604058566673766 0.21496583366705352 0.05615999810687252 86 58 38
0.09753424787915106 0.22017464381405422 0.053273193030051645 97 69 53
0.09690682309141394 0.2183275042088839 0.05047464269607451 105 70 54
0.09847789904862272 0.2237922398675147 0.047603408725941945 102 65 48
0.10194137827511268 0.23554818527843396 0.04470058815930847 126 90 69
0.10106589359442028 0.23287544685866243 0.0419171790853536 142 112 90
0.1007137447478253 0.23194324723682522 0.039116417372231815 144 113 96
0.10070768079062062 0.23216175438574813 0.03630795992161736 127 94 77
0.1021862646056473 0.2373144238165674 0.03349216884201204 127 94 76
0.10254621112001522 0.2387486860569296 0.030689726460378233 128 95 76
0.10210028969617899 0.23750518181901534 0.027885374387229593 124 95 75
0.10210865020171356 0.237771308524472 0.025080605678948962 106 77 54
0.10320603245626589 0.2416548733743686 0.02229256042590139 90 55 30
0.10359786498229344 0.2431942605233967 0.019499926189186122 75 36 13
0.10458567612826161 0.24671250907083356 0.016726090257275887 65 27 7
0.10540018436198796 0.24965454316867475 0.013956049486415295 65 26 8
0.10558120071823705 0.2504927893292119 0.011170371290294107 65 27 9
0.10806715483125513 0.2589821999542679 0.008481522164580632 64 28 7
0.10764587573513221 0.2578202151593456 0.00568149963491317 65 30 9
0.10693831250274007 0.25570859533550583 0.0028614993903563132 64 29 9
0.10569182559248133 0.25180940486278386 2.75361342780972e-06 65 30 11
0.10532393965936819 0.25082636259744034 -0.0028150980308511153 59 26 8
0.10413119796707976 0.2471073917915339 -0.005692934958558153 55 22 5
0.10416216543282696 0.2474484481107628 -0.008495419019268105 55 23 8
0.10331008933366609 0.24486096904596444 -0.011366753832809405 56 23 10
0.10256125299809865 0.2426166497059351 -0.014239150070944534 55 27 15
0.10405217708439432 0.24779918770892126 -0.016923865283613983 57 34 21
0.10090500719197584 0.23760448950092422 -0.020024221395193123 63 39 29
0.10590712167743141 0.2546632189231994 -0.02516105414637034 61 37 29
0.1051597013113116 0.25242445450361056 -0.02804344825560507 48 24 18
0.10391710158210268 0.24854567924369667 -0.0309904279533749 42 19 13
0.1001915410893169 0.23644206262509543 -0.03424487990510314 37 16 10
0.10074359084627299 0.23851153629523925 -0.03701019866375126 31 14 10
0.10098970100838439 0.23956729711765395 -0.03981006347105126 24 12 9
0.08842652752938432 0.19918779726361985 -0.05591284876155437 25 16 17
0.0885765583244307 0.1999307625583352 -0.05878896526346492 26 17 18
0.0922097571378223 0.2121996494691167 -0.06109112742773411 20 11 12
0.09303705340169308 0.2151817891442368 -0.06383304905503398 17 12 11
0.09395000856359634 0.21844665459301082 -0.06655235442237478 15 11 9
0.09651283989692845 0.2271681540815969 -0.06896611017417459 20 11 9
0.09704126087777308 0.2291590788184573 -0.07173108011066062 43 29 27
0.09940500314664791 0.23721877062759864 -0.07414215982453473 73 57 53
0.0998570789358304 0.23895568515458254 -0.07690345430921228 69 55 47
0.10074731008911764 0.24214081342345806 -0.07957304739441848 69 47 37
0.09949355292607245 0.23823817798096134 -0.08267555364452772 63 30 19
0.10245380914701614 0.24826449436350678 -0.08490290170495043 61 28 13
0.0993556862877395 0.23826733429285246 -0.08840986809368892 62 29 12
0.10155042446024587 0.2457618129403802 -0.09077850942111682 65 31 14
0.10202419311686356 0.24756871030904704 -0.09351505224583267 71 37 22
0.10183717467952529 0.24719245090163333 -0.09640060972313337 76 49 37
0.10417871204951226 0.2551680389498014 -0.09869029293963277 73 43 30
0.10424083722981066 0.2558547137286639 -0.10434150742361276 73 37 23
0.10565521882382256 0.2607652854002241 -0.10681896006736552 78 42 28
0.10919811525604306 0.27270125464497263 -0.1087346760259873 86 50 35
0.1098993290380394 0.27525458366008365 -0.11136087466362041 86 52 35
0.11111293269681527 0.27949839916072045 -0.11384346136052714 113 84 70
0.11148244276273053 0.28095584592598666 -0.11654475427735053 145 118 105
