ply
format ascii 1.0
element vertex 695
property float x
property float y
property float z
property uchar diffuse_red
property uchar diffuse_green
property uchar diffuse_blue
end_header
0.237969324348754 0.1655581580710537 -1.000600668412201 74 40 23
0.2400058519512728 0.1669884851960201 -1.0024185494915525 72 36 16
0.24215035081623545 0.16848900515789123 -1.0041601898784795 74 38 16
0.24449491727477213 0.17011975969066853 -1.0057657406660034 80 44 18
0.24779085494736652 0.17237064381430317 -1.0067496126196827 80 43 19
0.2506195775802575 0.1743164834573829 -1.008023452192568 78 40 17
0.25079186676231263 0.17453004375924458 -1.0110103825657186 75 37 14
0.25104341594882984 0.17479529055638554 -1.0139462140451883 68 30 9
0.24790293068137353 0.17284945278451033 -1.0190966179470835 68 30 9
0.24924701923484757 0.17382703211668732 -1.0213242080599605 69 32 9
0.250613057343596 0.1748187764672154 -1.0235330993489336 73 35 12
0.2495424655362472 0.1742225521109711 -1.0273431838603428 77 41 15
0.248959713960969 0.17394437674413013 -1.030836368341852 81 45 19
0.2484001984016412 0.1736814563419128 -1.0343177086454682 85 52 25
0.2488437094861997 0.17407206974896167 -1.0371354673519009 89 56 30
0.2499798653079019 0.17491383945227634 -1.039490562580486 93 62 36
0.2502098131355608 0.17516526930134613 -1.0424485724444983 99 68 39
0.25328269041021406 0.17726816233566922 -1.0434987934840831 101 70 42
0.25213756461377085 0.17662399554560845 -1.0473771990172251 104 73 46
0.25273049890080806 0.1771116984588597 -1.0500878701536547 105 73 49
0.25258337921708185 0.17711754980315958 -1.0532985317181207 106 74 49
0.25282553782310196 0.17737687294289986 -1.0562465413042863 106 74 49
0.25150023427149676 0.17661591729346665 -1.0602627620461649 104 73 45
0.25088555433821125 0.1763176860615816 -1.0637999487181797 99 69 42
0.2523524036244471 0.177374197518492 -1.0659140574349237 96 67 42
0.2502152644266669 0.17608538231470022 -1.0705010892622973 92 64 40
0.24121331795654566 0.17033031722795164 -1.0798316415014342 85 58 36
0.23761484680748748 0.16809189558850718 -1.0854632587266204 79 51 32
0.23773145009528587 0.16837369274211383 -1.0916863974832176 61 34 23
0.2382532185656298 0.16881606865503634 -1.094476043973352 52 26 17
0.2380830070063159 0.16880841018459486 -1.097748998949264 56 30 21
0.24047997809935143 0.1704701157455773 -1.0992221161987716 55 28 19
0.24802206959516615 0.1754767914587499 -1.0970650098824524 54 27 18
0.2489595989525958 0.17618878695652368 -1.0995405906526652 52 26 15
0.2512736238270371 0.17779548056546912 -1.1010389720807439 51 26 13
0.2517427841724472 0.17820278106595228 -1.1038389969972082 55 28 12
0.25230175581346526 0.1786684272378093 -1.10657434166636 63 32 16
0.25356289217927885 0.17959033515645964 -1.1088071327063511 72 37 17
0.25457196115838 0.18034832539669104 -1.1112164752132476 85 48 23
0.2546792140882714 0.18052030078704534 -1.1142706211270932 92 57 29
0.25152163640304914 0.1785713288986374 -1.1196772957391172 92 61 33
0.2588954975637569 0.1834637811971649 -1.1174903446730484 94 62 35
0.26018346102244844 0.18440244267380354 -1.119683165989627 95 63 35
0.25496403614739627 0.18111480877614125 -1.126599583182194 96 64 37
0.2545561749559132 0.18095241720222355 -1.130033138831926 97 66 40
0.2536218060522453 0.1804482555175903 -1.133854268929037 95 65 42
0.25324507766145665 0.18030630082985344 -1.1372718787902838 95 65 41
0.2518947984686837 0.17953243556192977 -1.1414075819786105 95 66 40
0.2500141110466254 0.17841450214091015 -1.145940890192605 93 67 40
0.24530007255461467 0.1754579152400568 -1.1525767227139359 80 57 33
0.24187857321339457 0.1733408215848754 -1.1582755300707555 71 54 36
0.11434708945445585 0.04946106052695381 -0.10557889460702718 123 111 105
0.13290695476682723 0.06206155186321105 -0.10761381842950123 124 112 105
0.15075658112308649 0.074181487314454 -0.10962119148750035 116 99 91
0.15101450924803972 0.07445083382720226 -0.11255343823091672 111 90 79
0.1603532081386225 0.08083581522083355 -0.11495908317443343 110 87 74
0.16340074340839966 0.08298318928331891 -0.11770824316629577 110 83 65
0.17084127096976492 0.08808827199401319 -0.12017664629968622 103 72 51
0.17265954236042289 0.08940708224698093 -0.12297581851880512 101 70 49
0.17084308970055956 0.08827868940924039 -0.12600665833931615 97 68 46
0.17209135147787277 0.08921363681225028 -0.12883956505026795 94 67 44
0.16987871493913792 0.0878188818778622 -0.13190743862712961 92 65 43
0.174679577915524 0.0911449138352813 -0.13448844279427252 90 62 41
0.17682662989266457 0.09268440142264178 -0.13724553477639342 90 61 43
0.17830241728703525 0.0937719489521113 -0.14004577901549312 89 60 43
0.17312882878446922 0.09038511856159098 -0.14334821063679884 90 64 44
0.16819396124845834 0.08715955023299307 -0.14665191182955178 87 64 48
0.16488516877755016 0.08502856206025158 -0.14984485725170293 86 67 57
0.16023567583935278 0.08199610550562735 -0.1531603686639933 90 74 69
0.15413281803254925 0.0782746768256458 -0.16549140379261043 93 81 78
0.14288644524132693 0.0708086129881767 -0.16947295903804852 97 86 83
0.13582005615475837 0.06615432194695677 -0.17310966319812038 101 91 89
0.12923440420130758 0.06182409794156885 -0.1767278744048158 103 93 92
0.1106134923812423 0.05650939569437581 -0.40048075000288486 92 77 72
0.12637804227474814 0.06713999294886851 -0.3999866189469955 90 75 70
0.12805050264130313 0.06835740605459796 -0.40269570830070944 95 80 75
0.13187788326067187 0.07101366918083754 -0.40489691292921304 93 78 74
0.14370848259468771 0.07901342017395713 -0.4052027011469011 90 74 66
0.14839441963257616 0.08224155992585108 -0.40715886419207775 87 65 52
0.15047887641894572 0.08373241889708397 -0.4097201285811136 88 62 47
0.15248524527095778 0.08517093336605677 -0.41229348507238933 89 61 47
0.1591407399010118 0.08971242425459616 -0.41373209648781173 88 60 46
0.15838062836222405 0.08930384461912988 -0.41696047513996043 88 59 44
0.16056931225111637 0.09086328735161103 -0.4194660769747063 88 58 42
0.16384426011545355 0.0931473562824926 -0.42169479361279466 91 60 40
0.17123911652752455 0.09817999913104097 -0.4228813917079904 89 61 40
0.16879887570114427 0.09665007637125585 -0.42652075509703824 95 67 46
0.17319317559070957 0.09967988175283145 -0.4284345027430525 97 70 50
0.1720560095099244 0.09901942527071168 -0.43174817882484007 94 69 52
0.16755864562595257 0.09611793224589042 -0.4359333966099066 101 79 67
0.15515795078383302 0.08794608252363288 -0.442188808633446 114 96 88
0.11674921144033197 0.07374126296821935 -0.8038006268351474 83 67 56
0.12057825685055262 0.07637428582974837 -0.8052510175648734 82 64 53
0.12529753808539107 0.0795943475616791 -0.8062643064054397 80 62 51
0.13076912191201123 0.08331026074668513 -0.806901082492565 74 56 45
0.13945823506489968 0.0891484280192387 -0.8059750908507255 72 52 40
0.14429606129794512 0.09244470612082632 -0.8068699447019919 73 51 38
0.14781092352881134 0.0948676875910509 -0.8083863762970114 74 52 39
0.14876323511463088 0.09559998914299661 -0.8111337669490692 75 53 40
0.15188561958829652 0.09776345877991359 -0.8128211985083362 74 52 39
0.14916937542047795 0.09628453602898884 -0.8237762183491608 74 52 39
0.16041512207224815 0.10401014117032112 -0.8278056636904129 73 48 37
0.16982316610347536 0.11124380926486199 -0.8549210793944089 84 53 33
0.17233002659360774 0.1129978936157364 -0.8568029750264731 84 52 31
0.19173830146757997 0.12587932718028164 -0.8498386562861874 88 58 35
0.18987093802955962 0.1251614229314802 -0.8665785562750786 106 84 70
0.18594500387821444 0.1226805909521533 -0.8718344500916188 104 85 72
0.1733100022428533 0.11488484053981628 -0.8945559407041487 99 80 66
0.16147398840051302 0.10720508869337793 -0.904223862378903 96 76 62
0.16110084765263588 0.10706426525300079 -0.9076499059456764 91 69 56
0.16443571847774663 0.10936147473346985 -0.9090364706463736 87 63 50
0.168732734310936 0.11229082096079948 -0.9098791201164931 95 72 57
0.17133829720096366 0.11410777180561485 -0.9116441485981898 109 84 69
0.16720572006349738 0.11149553904263679 -0.9171513798904595 116 89 74
0.16662616352728699 0.11121900205994215 -0.9206911315454277 114 87 71
0.16717160409381393 0.11168187874933544 -0.9236035901228737 109 83 67
0.16689903474690043 0.11160721694450136 -0.9269754121563318 106 80 66
0.16729622835916577 0.111972682118083 -0.9299713036659633 99 73 59
0.17113377885728615 0.11459831742696831 -0.9310170372760526 84 62 45
0.1810036316916122 0.12118609230504654 -0.928617798456885 72 49 38
0.1735212742830549 0.11700109694972294 -0.9553731547501157 78 57 46
0.17209983868574252 0.1161725649969011 -0.959423535584763 81 61 50
0.17519137288772887 0.11830616836800187 -0.9608326559077256 83 64 54
0.18623256729406235 0.1256563366746858 -0.9575497641273251 81 64 54
0.1911821563564205 0.12900791296870429 -0.9578227201765507 81 62 52
0.19366847236573326 0.13084603952493776 -0.962722004569414 77 57 48
0.20124533960183622 0.13633169017750618 -0.9740804716970576 85 65 56
0.20483511773691598 0.13878844212449407 -0.9750784527582784 86 66 57
0.22717387711614445 0.1550625279111717 -1.0116735263178962 77 41 22
0.22872104172896773 0.15617726031233756 -1.0138260248714235 75 38 17
0.24411477251392877 0.16635406066501024 -1.0070650968400472 80 42 18
0.24605857756617336 0.16772711550778582 -1.0089233116137226 82 44 20
0.25110877248568964 0.17113259779318135 -1.008763661717252 77 39 16
0.2513359155571433 0.17138183910874577 -1.0117170349512465 75 37 13
0.2504862177062499 0.17092660742505128 -1.0153722219594046 70 32 11
0.2496158376172649 0.17045799722183774 -1.0190455683111688 67 30 9
0.25104670344761737 0.17149473762398787 -1.021215037257356 72 36 13
0.2520992131680925 0.17228387764277553 -1.0236286738324165 78 42 18
0.25200512928465313 0.17232310557575087 -1.0267955427677269 82 46 20
0.25180352479417945 0.1722920788196824 -1.0300351261597929 88 53 27
0.2517181956839846 0.17233713986391008 -1.033199546811442 90 58 30
0.2525625582716373 0.17299003544696334 -1.0357465634987009 93 59 33
0.2530503338433954 0.17340976320067197 -1.038529450243549 96 64 38
0.2527930877646827 0.17334250676100604 -1.041810573825226 100 69 40
0.2543564130085043 0.17446515731007306 -1.043870748932168 101 70 42
0.25230976555349094 0.17322858111517997 -1.0483585386213097 103 72 46
0.2534122723522503 0.17405002701900912 -1.0507271909360545 105 73 49
0.25270948049602815 0.17369187163515376 -1.0543165224846864 105 73 49
0.252392715416321 0.1735860336043577 -1.0576474052537965 107 75 50
0.25162883035738437 0.17318820941300322 -1.0612857541029987 108 77 49
0.25086366537946164 0.1727896894644257 -1.0649292997141082 103 73 46
0.25053064809239356 0.17267353937779212 -1.0682806416154838 96 67 42
0.2494920969261373 0.17209674535703107 -1.0721201153638737 93 65 41
0.2419521562584202 0.16727502937150782 -1.0804528195747225 86 59 37
0.23705393599466035 0.16417909760421526 -1.0869886877944341 76 48 29
0.23571727145514706 0.16340890987497272 -1.0910727766595816 67 40 27
0.2336975017574936 0.16219304044304206 -1.0956392943807922 59 34 22
0.23768746055178513 0.16489994737919167 -1.096017627803009 53 29 19
0.24191017873491297 0.1677582656384602 -1.0962177420591088 54 30 20
0.2435606974383254 0.16893756362096135 -1.0982089233914984 55 30 20
0.24766693227974051 0.17171900249573008 -1.0984641350924158 57 30 20
0.24987638840497695 0.17326243695907498 -1.1000441275478416 55 27 15
0.25000583589288466 0.17344871569145778 -1.1030904534808552 56 28 15
0.25263740665766765 0.1752671172414417 -1.104358922994854 62 32 16
0.24986692200004101 0.1735618799916634 -1.1094687107525567 67 35 17
0.2518430860387346 0.17495259236301558 -1.1111976162517645 75 40 20
0.25302673920421326 0.1758262946092992 -1.113487809102495 88 51 26
0.2546681736348002 0.1769983599871376 -1.115445169616449 90 55 28
0.2527868505030506 0.1758735749938657 -1.1199372415881577 90 59 31
0.25329634431627834 0.17630761961215557 -1.1227093240190829 93 63 34
0.2540257809701902 0.17688499808846586 -1.1253210057748475 95 64 36
0.2547244756624401 0.1774422820161473 -1.1279532453578494 95 65 38
0.2555184463962238 0.17806160153442646 -1.1305143205994654 95 65 40
0.25492881657939626 0.17777927537298882 -1.1340853145048653 95 65 41
0.25386180385275087 0.17718602834102842 -1.1380101042912554 95 65 41
0.2505628943932401 0.1751389195481589 -1.143582178300179 94 65 40
0.2492300007809272 0.17437298779516425 -1.1477189396714385 91 64 39
0.246158703212159 0.17247496589953842 -1.1531482927964036 76 54 32
0.24200469402584096 0.16987224485115932 -1.159394668729733 77 61 44
0.24908241037395484 0.17489229351101837 -1.1667933360133915 159 159 155
0.2533427002794816 0.17776822686352434 -1.16675434832122 171 170 168
0.1257952340809204 0.05365638875652661 -0.10817688924388577 128 116 111
0.14403439691542885 0.06607850891769858 -0.11017659689788879 120 104 95
0.14612680770841374 0.06758785348147506 -0.11302042273568652 118 97 86
0.1549213614846407 0.07362536519018462 -0.11546816372791038 115 91 78
0.16313623884457418 0.07927025112855926 -0.11791978516080476 112 85 67
0.16901096858778686 0.0833333366954682 -0.1204871492054845 102 74 53
0.1667864130111728 0.08192481851482465 -0.12354912315640237 101 70 49
0.16609452042130723 0.08155179684322952 -0.1265200170869347 97 67 46
0.17800611196462973 0.08969088414683055 -0.12864741620908432 95 67 45
0.17454702507576714 0.08744864091012028 -0.13179354919376474 94 67 44
0.17028099942370678 0.08475618372808617 -0.13793401491938903 93 67 47
0.17130920951122922 0.08554462974028833 -0.14078200675645067 92 66 49
0.16854444142459118 0.08377244451882924 -0.1439167531719002 88 65 48
0.1657006796046889 0.0819472961175381 -0.14706880538255038 86 64 49
0.15980630796198952 0.07806348415227678 -0.1504761968148199 88 70 60
0.16000272271928542 0.07857629193215533 -0.16225714040492525 99 85 84
0.15032010835782522 0.07213893165813384 -0.16607149063720616 101 88 87
0.14258580672321539 0.06701708666959245 -0.16974517382090873 101 91 89
0.1324321484954855 0.060264221180324484 -0.17367255624295913 106 99 97
0.12472597746888492 0.05516338469324481 -0.1774067074843366 113 109 108
0.10727352546443436 0.0505684872842238 -0.40170608232434674 97 80 78
0.1398155476940267 0.0726749690203086 -0.40350968427163425 98 79 71
0.14127781876449919 0.0737537610476673 -0.40624147892426216 93 74 63
0.146140673380155 0.077110410281584 -0.40816179876135883 89 67 55
0.14780890351853054 0.07832667077797814 -0.4108291886005893 89 66 51
0.1494982874401275 0.07955693329782526 -0.4134863280206489 93 67 51
0.15565158501521184 0.08377652125024453 -0.41505355534138644 93 63 47
0.1536444528378259 0.08253083374293117 -0.41859699245836246 91 60 42
0.15607101883081273 0.08425414657983236 -0.42105507646372686 90 62 41
0.16749100957282595 0.09199848173694819 -0.4212690198281702 91 63 41
0.16956172808169845 0.09348250546519074 -0.4237832546692034 96 69 48
0.1723884650769337 0.09547239132672197 -0.42609996958522467 99 71 54
0.16991912758188843 0.09391710551492727 -0.42975391002038205 101 77 59
0.16735651471989516 0.09229972896173504 -0.4334421806456897 97 73 60
0.15432641437183295 0.08367768685202433 -0.43984260674298026 106 88 80
0.11565259040812559 0.06935578274383541 -0.808443508274215 86 69 62
0.1198503243095368 0.07224089334652811 -0.8097155298383114 85 67 59
0.12400922021107552 0.07509979481999757 -0.8109908077584301 80 61 51
0.13057679275518458 0.07955291005255555 -0.8110949692505498 76 55 45
0.1353484346922007 0.08281632009074304 -0.812039895062453 76 54 45
0.13748771704536442 0.08433670220991425 -0.814240906635117 74 52 41
0.14023112126823217 0.08625670480360675 -0.8161411970304453 76 53 41
0.14214829416114103 0.0876295882289492 -0.8184349147773121 75 53 40
0.14381337816666834 0.08893937430181209 -0.8240700238499704 74 52 39
0.17504497551769382 0.1105240091471596 -0.837228955241808 77 49 36
0.17499998548276263 0.11069895773793313 -0.8436023519818671 82 55 36
0.18627544380545208 0.11855880002779692 -0.8504379489571108 86 53 30
0.1903586488466763 0.12135825709072154 -0.8514600285200976 92 59 37
0.19127723067952307 0.12226990913580546 -0.8604348364551189 104 81 66
0.1879800079358317 0.12019407323609826 -0.865341263125015 105 84 70
0.18493102789783988 0.11828262397203583 -0.8701295982036811 105 86 71
0.18103650651666564 0.11581331256534347 -0.8753839651168385 104 86 73
0.1794453556886509 0.11486525631424335 -0.8794172635964027 102 85 74
0.17112684608739176 0.10978597157974124 -0.8966915225101936 100 83 72
0.15802949644157144 0.10124640875802955 -0.9070644228149071 99 81 68
0.16141419775916335 0.10358388521489499 -0.9084364546125996 95 73 60
0.1639955713232244 0.1053909591046688 -0.910239100849205 95 73 58
0.16572636145301825 0.10663661089557737 -0.9125033186816811 108 85 69
0.1654763865426287 0.10657549803182662 -0.9158618416313599 114 91 75
0.16679918397306634 0.10755181029111957 -0.918346012557099 118 93 78
0.1683774267435627 0.1086964589690334 -0.9206832312855546 115 90 74
0.16769703508372819 0.10835150707828545 -0.9242832251696919 113 88 71
0.1685718501114714 0.10903214917018794 -0.9270110448897826 111 83 70
0.1705393535687451 0.11043314030251508 -0.9291188328426925 97 69 56
0.17433709439230916 0.11304049598317709 -0.9301815703960491 80 57 44
0.1715023612108625 0.11169050916831852 -0.9478855030826175 74 47 36
0.17347409182214574 0.1133011026128469 -0.9564072483591999 78 58 47
0.17437972437535615 0.11400148093458465 -0.9590995849874177 78 58 49
0.17480067935436644 0.11438257254044366 -0.9620742176962367 78 58 49
0.18032290519693303 0.1181230167921897 -0.962041486899817 80 60 50
0.19075899207144248 0.1250984170328378 -0.9590814357000529 80 60 49
0.19740814686887953 0.1299894531035285 -0.9710570100593946 87 65 57
0.2076462734593728 0.1371358833509831 -0.9775642474609558 86 66 57
0.24327893666947267 0.16228055838307415 -1.0086604956624958 77 40 15
0.24846097693785466 0.16578414352941492 -1.0084300890454896 76 39 14
0.252125065750236 0.16829033367574459 -1.0091636045948227 73 37 13
0.2520205690269497 0.16832170918593523 -1.0123335562441287 71 36 12
0.2551720359254934 0.1704907187518495 -1.0133816145615004 71 35 12
0.2524522843592017 0.16880520764059675 -1.0182591284587688 73 37 13
0.25218921149231044 0.16873261059594002 -1.021536681677218 76 41 16
0.2520949766933845 0.16877089752901553 -1.0247053493375968 82 47 21
0.2516957531007482 0.16860908623709453 -1.0280769870597068 86 52 25
0.25202163560217355 0.1689231691222083 -1.0309711475796142 91 57 30
0.25053040838937624 0.16804500795457475 -1.0350724944438425 94 60 34
0.25183546731749784 0.16900159293925154 -1.037317502708657 93 61 36
0.2531602715885072 0.16997099728157328 -1.0395451745921265 96 65 39
0.25390616852183484 0.170560548023231 -1.0421568112781372 100 68 43
0.25523506622308945 0.1715324031015278 -1.0443744713980752 101 69 44
0.25514418698860175 0.17157304678438187 -1.0475457214987824 103 71 46
0.25335438069039556 0.17049971446977674 -1.0518681653951754 105 73 48
0.2524362637746947 0.16999818641149048 -1.0556074881411162 106 75 48
0.2526052157744389 0.17020949125891738 -1.0586117178518797 109 77 52
0.25179246505902736 0.16977728112242307 -1.0622867786277745 111 79 54
0.25383964492895006 0.17121978577453736 -1.064007690428695 106 75 51
0.2519982377946837 0.17011350389307087 -1.068392549054721 98 69 46
0.24742532304357645 0.16721747201893006 -1.0746680738730057 95 66 44
0.2418970145872863 0.16369605076385896 -1.0816237475896133 87 57 36
0.23856033588709502 0.16161134478572922 -1.0870843560590255 75 45 27
0.2335607624993206 0.1584377085433812 -1.0937157829072726 66 40 26
0.2356290929160043 0.1598946946928963 -1.0954413877732148 53 29 18
0.238078363350753 0.16160096068633528 -1.0968933497609905 55 32 21
0.24175332228522292 0.1641096822375188 -1.0974769088937153 57 30 19
0.24437533845925735 0.16592842146010245 -1.098787151095855 62 35 24
0.2466490279603207 0.16751876862536394 -1.1003335311158067 61 33 22
0.249316906196443 0.16936694118222484 -1.1015928992637614 58 29 18
0.24973319393774868 0.16974076061123983 -1.1044400223495727 64 33 19
0.25245414710370173 0.17162319539165521 -1.1056467145881081 70 35 18
0.25221734259731204 0.17156935910817375 -1.1089541455826692 71 37 17
0.25414891721008015 0.17293472403696683 -1.1107118785951848 77 43 23
0.2560763192496912 0.17429714076753872 -1.1124658534388252 90 54 29
0.25705073337482914 0.17503576852098562 -1.114899058770491 92 59 31
0.2529808428285715 0.17247398438255057 -1.1209707963867854 94 62 35
0.25394573508068563 0.17320653703820854 -1.1234156762776268 94 64 36
0.25454171623917216 0.17369768311740558 -1.1261256131505104 96 66 38
0.2551373945118286 0.1741885907817261 -1.1288345200327077 97 66 38
0.25582196480287417 0.17473759359416702 -1.1314772741576062 95 65 38
0.2548235524400065 0.17418598459374263 -1.1353506850411117 95 65 40
0.2521873382635013 0.17256364246124467 -1.140432014708303 94 64 38
0.2523718968639628 0.172785914247145 -1.1434484347633862 92 63 37
0.24852070610978388 0.17036989376155176 -1.1494453092582744 87 61 36
0.2449329525562718 0.16812662661174554 -1.155264273880159 74 54 32
0.13317997527348852 0.05513801467552637 -0.1109595822923106 124 107 101
0.15074432025519047 0.06732978582920955 -0.1188601411114407 114 88 71
0.16096408702123485 0.07435073818736643 -0.12118314234870653 110 82 61
0.16031504062485993 0.07400494445245867 -0.12416236584720472 103 74 53
0.16026917688511938 0.07406799076307168 -0.1271054947880521 99 71 50
0.16435036262961458 0.07720939431257309 -0.13857985578195023 95 69 50
0.16231160418491206 0.07601675152536705 -0.1446129659132351 89 67 51
0.15748662717274498 0.07322191011847712 -0.15975623371206718 98 89 86
0.1475468790207174 0.06658817169399106 -0.1635830608303411 99 89 88
0.13901324173846852 0.060907376569721075 -0.16732183303406534 106 97 96
0.12716889412282123 0.05298690852713852 -0.171394351936592 116 109 108
0.11861082598368458 0.054674565756919986 -0.4058165000415317 103 86 80
0.1328047460691099 0.06431600522172629 -0.4056147778179084 95 78 70
0.1410136803861582 0.06993282478073456 -0.4067717543871668 93 74 65
0.1399225280978828 0.06929798318947895 -0.41010896527276497 95 73 62
0.14274441442326447 0.07129307736997764 -0.4125141886451469 94 71 58
0.14460603696524366 0.0726425776486867 -0.41514172228871377 92 68 52
0.15237844209919815 0.07796353381909436 -0.41632538771125954 91 62 46
0.1603166464156698 0.08339498405336514 -0.41744023829381094 95 65 48
0.16142983321780754 0.08424038790827557 -0.42021241673211396 95 67 48
0.16258469557655125 0.08511368885868367 -0.42297114375070133 94 67 47
0.16541602385321075 0.08711295253283573 -0.42530613518190163 103 78 61
0.16590899466880443 0.08754139864567857 -0.4282224928902112 99 76 61
0.16343697132751686 0.08597862089279247 -0.4318930001850376 97 77 63
0.15568190556858755 0.08096661507626884 -0.43999171120621317 121 110 106
0.14704524307412908 0.07526614671651152 -0.44530340062987106 150 144 143
0.11003467870077542 0.061952896815515544 -0.8152555860164777 87 72 65
0.1223158833921929 0.07032219843227859 -0.8159276695311741 82 62 54
0.12985742321479984 0.07543635502637908 -0.8155533923912421 79 60 51
0.13421777597579887 0.07843661076057301 -0.8166914914567089 77 57 47
0.13500486070141138 0.0790631677615166 -0.819551487797899 76 55 44
0.13973019923216287 0.08251213457302282 -0.8269563407017718 76 54 41
0.1577815836263006 0.09470253652384154 -0.824473267426377 73 51 38
0.17696267498455204 0.10834904423803006 -0.8434878049009638 84 55 35
0.1724999251550352 0.10569509503220782 -0.855341212943027 89 57 37
0.17539122615607317 0.10771413728814097 -0.8570206719543867 89 57 34
0.17965698596128502 0.11064403997105773 -0.8579695938035166 95 63 42
0.18152971609240018 0.11198714422482135 -0.8601615007228306 97 69 49
0.18736125735613635 0.1159540162211257 -0.8602569064005973 103 79 61
0.18576061856656972 0.11499448059716122 -0.8642692738401463 103 82 68
0.1802149232761006 0.11142083938413729 -0.870387914841037 103 84 71
0.1796203050114657 0.11112865572509317 -0.8738861066368077 104 86 74
0.17649370491384664 0.10915899148820947 -0.878744934889008 104 88 76
0.17320908583920008 0.10708507776369958 -0.8837024466864881 103 88 78
0.16877937327720774 0.10425307303293599 -0.8892925732977964 102 88 77
0.17298107331143386 0.10713886569165892 -0.8902237750070335 104 89 79
0.1687119712987562 0.10441389268335037 -0.8957471008624628 104 89 80
0.16641137447369983 0.1029931324057996 -0.9002139943052644 101 86 76
0.15475991844090467 0.09538076621772286 -0.9098150458190282 98 82 71
0.15870307504917405 0.09809535159232516 -0.9108877477074829 93 75 62
0.16069660440297798 0.09951871955584286 -0.9130219923923723 105 84 70
0.16065574027365961 0.0995951302581801 -0.916276425986303 116 93 77
0.1616445517029909 0.10035315092365849 -0.9189598081651047 116 93 77
0.16317198065241975 0.10146757270604662 -0.9213399397933492 116 93 77
0.16534793276375864 0.10301102690349523 -0.9233520422685576 114 90 75
0.16586557771060467 0.1034568892913677 -0.9262885401501656 113 85 71
0.1655752877306958 0.10336814136039932 -0.9296798274512099 101 75 62
0.16750862211793224 0.10475062403291518 -0.9318150235105941 87 64 50
0.17656475943505395 0.11084490034458887 -0.9298981901886524 78 56 44
0.18327874871604546 0.11620879739047375 -0.9548955553093655 76 55 45
0.18369008354499522 0.11658332348536951 -0.9578609427466295 75 54 45
0.18998708115058005 0.12084725722084902 -0.9573529079079343 78 57 47
0.1932106863404066 0.1230796265801345 -0.9586404475446493 81 59 48
0.1873327808427162 0.11940081537469868 -0.9685274620307396 75 53 43
0.19447349281609377 0.12452706250448531 -0.9770412625147552 80 60 51
0.19671966355000475 0.1261125444884309 -0.9788752780428703 82 62 53
0.19726241770213365 0.12657309664542138 -0.9817375120678952 85 65 56
0.20328061658512545 0.1306484172244862 -0.9812573411008547 86 66 57
0.24196373341793107 0.15798046878494376 -1.0136916672126854 74 38 13
0.24629928766609377 0.1609374135255258 -1.0140034066229187 72 38 11
0.24901212717683507 0.16282465000234 -1.0153548243081445 72 38 12
0.25202864781671075 0.16491164159797586 -1.016498108613313 72 38 13
0.25155244105183516 0.1646974305913995 -1.0199177699050692 74 40 13
0.2491604176450343 0.1632213937070578 -1.0245991927533573 75 41 14
0.2475445036110578 0.1622568709782038 -1.028780105806201 82 48 20
0.2493649776065608 0.16355565754905488 -1.0306971902455422 87 53 26
0.25034886305474335 0.1643033572463904 -1.0331627703671433 90 56 29
0.25189467238996516 0.16542095238212062 -1.0352517725020989 93 59 34
0.25340116927522666 0.166512501736007 -1.0373618809296996 94 62 37
0.25272975272933706 0.16617018020447383 -1.0409245288590618 95 64 39
0.2534963407094931 0.16677452347284236 -1.0435258346299787 99 67 42
0.2534019209098649 0.16681211927638542 -1.0467049252902276 100 68 43
0.2548472081902986 0.16786304641092542 -1.0488457454173667 101 69 44
0.2532963506118364 0.16694225688670516 -1.053011446393886 103 71 46
0.25210902514151523 0.16626090170326785 -1.0569376928146317 105 74 47
0.25221471156172465 0.16643041695582456 -1.059988812678235 108 76 50
0.2510445303328964 0.16576064336402657 -1.0639128194594012 108 76 51
0.25269569285221316 0.16694686185984575 -1.0659085072134273 100 70 46
0.2506096413725767 0.16567491381027252 -1.070468528375212 98 68 45
0.2484830457902727 0.1643766148455304 -1.0750662750896656 92 61 40
0.24108604771603442 0.1596129510273769 -1.083319796708296 81 50 29
0.24023321213676258 0.15915314330040714 -1.087064491790164 77 46 28
0.24189522832586097 0.16034685851051622 -1.0890639045990076 63 36 23
0.24253562272757112 0.16086880289052072 -1.0917707105275656 57 32 20
0.24480826085991153 0.16246359436378344 -1.0933335638175814 57 32 21
0.24681460989305898 0.16388310804488088 -1.0950752256696032 57 29 18
0.24925819355705517 0.16558973797333815 -1.0965019904680322 64 37 25
0.24466384350516457 0.16267136067937105 -1.102889738002878 61 32 21
0.24853448619342214 0.16531553408387573 -1.103302638257324 62 31 18
0.2494835092437407 0.16603978429298888 -1.105775939904271 65 33 17
0.2508281864817128 0.16702385966986255 -1.1079647062764322 72 36 17
0.2538671038943749 0.16912065810270693 -1.1089387916268656 76 42 20
0.2547068487625104 0.16977271264464427 -1.1114771571857969 84 51 28
0.2561537283001323 0.1708234112467093 -1.1135770318158724 89 57 29
0.25867272830493565 0.17257796733529182 -1.1148995958079748 93 62 33
0.2558535605645784 0.1708272639289753 -1.1200705634837873 96 65 38
0.25842445727913227 0.1726156554666321 -1.1213481530254676 98 67 39
0.2580460687591084 0.1724676769134641 -1.1247597988637612 98 67 39
0.2549280286590036 0.17052151447876557 -1.1301709945381087 98 67 39
0.2551140771753642 0.17074434692498835 -1.1331813019057202 95 64 37
0.25198547622771866 0.16879193849893226 -1.138621623504242 94 64 39
0.2505059698046025 0.1679221006720953 -1.1428639432371206 93 64 38
0.24756905308700455 0.16609625837783432 -1.1481878915653922 92 65 39
0.2446658206492705 0.16429294334904704 -1.1535003252613671 81 58 33
0.24248700058915157 0.1630670435720509 -1.1614684037997292 91 78 64
0.2428563838204949 0.16341112934776203 -1.1643736621778646 115 107 97
0.15868399667116823 0.06924737776548198 -0.12152392417851278 113 86 67
0.15682061008892234 0.06816789316569426 -0.12753679963294032 102 74 55
0.16930926174622218 0.07721695041292102 -0.1442980481791618 92 70 56
0.1665223660571618 0.07541676800148775 -0.14745046064457915 92 76 65
0.15680832216269397 0.06900499806728667 -0.15412877796370295 101 91 89
0.1512767471726714 0.06534182527128705 -0.15755275369965455 101 93 91
0.14068095297070976 0.058239789116131306 -0.16143212272767526 101 94 93
0.1303385402038947 0.05131109756233586 -0.16532914344400132 112 106 106
0.12572047123275173 0.0558694331492219 -0.40774193355465516 100 82 75
0.1337191677316826 0.06136263213517355 -0.4089624731540486 98 78 71
0.13604892349173783 0.06303208444523038 -0.4115027771834574 94 73 63
0.14128876705961768 0.06666352419104729 -0.4133375876156888 96 73 61
0.15186811606036935 0.07389440371468792 -0.4138632762417691 93 71 55
0.1537498288680943 0.07526040245531387 -0.4164687315244069 93 65 50
0.15499631739952557 0.07619800302725925 -0.4192241397363631 94 66 50
0.15699668402216369 0.07764363820213685 -0.4217895001114641 95 69 52
0.15879423038678736 0.07895237114325601 -0.4243989859984757 99 75 58
0.15822507702902572 0.07886040088132545 -0.43371315220093803 107 91 82
0.15124767444493029 0.0742566902297373 -0.4385646186219759 115 106 100
0.10237485155793698 0.05305042141088283 -0.8197791665599756 92 80 75
0.12051480681550204 0.06535298198717232 -0.8176637535255022 87 69 62
0.12607558384453238 0.06916353689656733 -0.8182489025225694 84 66 58
0.13168726432460243 0.07300735912174319 -0.8187886268558303 80 62 53
0.1357995761138031 0.07585129147370923 -0.8200374266844411 78 60 50
0.13699063023525387 0.07674811688109746 -0.822699301151471 77 56 45
0.1447486126268973 0.08212306223110537 -0.825363217964238 75 53 40
0.17306297281771618 0.10209944563518769 -0.8463897978599867 86 55 35
0.17108453551761907 0.10088416564992572 -0.8505991928301704 88 57 36
0.16810142582893056 0.09900064426614141 -0.8553387041894642 90 59 39
0.17000523918767946 0.10036908992041112 -0.8575471224354266 94 63 42
0.17613225963598841 0.10454700875571876 -0.857542135282694 97 65 44
0.1791639138448428 0.10666505684171812 -0.8591377570194636 99 70 49
0.185054059424291 0.11068413541271793 -0.8592172843042083 103 77 59
0.181054803811524 0.10812502249655688 -0.8645018134759089 102 81 67
0.17843374451700955 0.1064830116439695 -0.8690722619325832 102 84 70
0.1748684814377625 0.10421349708728675 -0.87415721223042 103 86 74
0.17198589108555645 0.10239839188610947 -0.8788926671699967 104 89 80
0.1653144741495654 0.09806468691714246 -0.8856737303881739 103 90 80
0.164519689677267 0.09763857763399683 -0.8893178058269088 103 91 83
0.15596346812677533 0.0921563212925692 -0.9003988304924907 108 96 87
0.15306015362068337 0.09032975190357548 -0.9052181932015914 107 95 87
0.1590292100305381 0.09439957510517748 -0.9052013061629002 102 90 81
0.1575986223903587 0.09355184023996797 -0.9092207600595648 98 85 75
0.15812074527452422 0.09400171887624857 -0.9121721237693228 106 90 78
0.1575616696346595 0.09373328424338716 -0.9157200324551991 122 104 90
0.15536341410488888 0.09237608770813051 -0.9201804041295181 131 110 94
0.15938470675400496 0.09515032722165803 -0.921189353865391 129 107 91
0.16274155416691108 0.09748280144312074 -0.9225545470176206 124 103 86
0.16545189839333213 0.09938555223323439 -0.9242699132359703 121 98 83
0.16457285972014668 0.0989045609717541 -0.9279948768543427 111 86 74
0.16470883523955626 0.0990976496831176 -0.9311515539964327 94 71 58
0.1668783364512987 0.10064081005528466 -0.9331567772782113 84 62 51
0.17199379458913383 0.10413935407481414 -0.9334795108893983 74 52 42
0.16972468240240388 0.10335202762416311 -0.9573829916068598 76 53 40
0.16942457812128187 0.10335875739828493 -0.9640310769938113 77 54 43
0.1746662334201214 0.10693795104609535 -0.9641837981555984 77 54 43
0.17535062051786404 0.10749445699005139 -0.9670086532089153 78 56 45
0.17937623785971876 0.1102663654642227 -0.967851534700001 79 57 46
0.17914742510375553 0.11021710794513231 -0.9712097106373586 78 56 45
0.18427152282295856 0.1137165569097688 -0.9713756108154685 78 56 46
0.20135997219089066 0.1255510558364047 -0.9770907741919715 83 63 54
0.20482777143368802 0.12794995384581248 -0.9781654979151336 83 63 54
0.21246448136836676 0.13311029054868348 -0.9766805566206146 85 65 56
0.2194755900782527 0.1378552707906006 -0.9755493647948226 90 70 61
0.22400778365570914 0.14095745841131332 -0.97591542706233 90 70 61
0.2411262552683004 0.15378346392790931 -1.0121713377608164 74 38 15
0.24286953865875627 0.1551351994270118 -1.0172971239304913 74 40 15
0.24667732512854895 0.1577523170193631 -1.0179434381026868 77 43 18
0.2503372711631311 0.16027123710840402 -1.0186720423630624 78 44 18
0.2501048043793312 0.1602165841275517 -1.0219388904231428 76 42 15
0.24960483392208543 0.15998517946062596 -1.02538381159976 79 45 18
0.24910703840108417 0.1597553152120187 -1.0288305351905052 86 52 25
0.2505197080497614 0.16078812230935027 -1.0310162239129306 91 57 30
0.25191015880275525 0.16180610151492025 -1.0332120840958816 92 58 31
0.25322389349024627 0.16277324863157117 -1.0354545361345495 94 60 35
0.2543194262402885 0.16359610240567113 -1.0378385454508252 93 61 36
0.2542036536374995 0.1636186516375246 -1.041030766839848 95 64 38
0.2561042966277714 0.1649731863475749 -1.042869656983446 98 67 41
0.2567706200001952 0.16551226883994308 -1.045533931408653 99 67 42
0.25509036678833386 0.16450158974269724 -1.0497831485184292 100 68 43
0.2553172617092074 0.16475055133458152 -1.0527471526580623 101 69 44
0.25356691356989647 0.16369397950331105 -1.0570563076715245 102 71 43
0.25081350253501333 0.1619754330993045 -1.0620581626181687 103 72 46
0.2497446917304064 0.16136937891681852 -1.0659197722691638 101 69 44
0.24971635421744898 0.16145030672867736 -1.0690728583786377 95 65 41
0.24846150803263364 0.16072175262215985 -1.073071581700275 94 65 42
0.24138665447554014 0.15615244214866336 -1.0810950535989068 90 59 38
0.2411686064015583 0.15620919503742875 -1.0875565719130975 72 42 24
0.2407494544621959 0.1560330402906871 -1.0910058634070994 55 28 14
0.2417035846431156 0.15676292800832922 -1.0934986263563689 60 33 22
0.24447772027119707 0.15869326110585447 -1.0947133527525967 64 36 25
0.24905618160014686 0.16181334029788388 -1.0946498190580929 61 33 21
0.25015075486366084 0.16263523493303503 -1.0970242401322072 61 31 19
0.2493406821857609 0.16220103581851458 -1.1007417665107162 62 30 17
0.25155926662010925 0.16376398330462824 -1.1023166278009753 64 31 15
0.2513521232034706 0.16372738830841127 -1.1056083140728787 67 33 15
0.25474844056747675 0.16606639590703093 -1.1063324702492945 72 35 14
0.25500083831384335 0.16633261259530613 -1.1092922114457202 79 46 21
0.25602566125533666 0.16710794500895773 -1.111698123002727 86 54 29
0.2560562457891219 0.16722793777236797 -1.1148161532815861 92 62 32
0.25719835932157276 0.16808043486257623 -1.117133466214899 95 64 33
0.25598212992053293 0.1673788862908983 -1.1211533363967754 97 66 38
0.25509776486595265 0.1668961828387798 -1.1249386849987617 98 67 39
0.2544525767370889 0.16657119873166004 -1.1285548913910681 99 68 40
0.25479573003985706 0.1668973705060347 -1.1314538662313574 99 68 40
0.25369862595980075 0.1662749157358044 -1.1354064622153508 95 64 37
0.254951017845932 0.1671999759796784 -1.1376408439099344 92 64 36
0.25056775983119783 0.16441375289472634 -1.1440181639208633 94 66 40
0.24774635163720599 0.16265654397845453 -1.1492623686494383 90 64 41
0.24539886106140069 0.16121176501858145 -1.1541688041027576 78 56 35
0.2433687729848234 0.15997628597775548 -1.1588506718287088 82 65 48
0.24274344032774403 0.15966579513079937 -1.1624968710283834 99 88 76
0.15160435118858454 0.060853509936230295 -0.12216381434424985 113 88 70
0.1557421935902632 0.06376934267256679 -0.12485957010565446 108 80 63
0.16423038775658774 0.07011620238425331 -0.14196330827215273 102 77 64
0.1560727231457419 0.06474174596599615 -0.1484947970004325 104 90 81
0.15093834461614966 0.06133585029402648 -0.15186935233512766 107 97 94
0.14194105247957178 0.05529797420669685 -0.15558130824908734 106 97 96
0.13433775734113518 0.05021111138014829 -0.15921011686011186 109 104 103
0.12789335132994606 0.05374681946758068 -0.41081116546648655 104 85 77
0.13125669399308304 0.056120550457417706 -0.41311852997883636 101 80 71
0.13460042151309837 0.058480646904449006 -0.41541906163488745 98 75 64
0.14286536134236022 0.06416939986717632 -0.4165172708934237 96 73 59
0.14532656406937253 0.06593153524634385 -0.4190007785641621 98 73 59
0.14783695515657133 0.06772668129201886 -0.42146404002446797 101 75 62
0.14961313011056912 0.0690250249148249 -0.4241007803685776 104 79 65
0.1497285841189716 0.06920017204552753 -0.42714635525902767 106 84 71
0.15228103808875965 0.07102315510696999 -0.4295798983759292 108 90 78
0.15464783280280037 0.07272034399386415 -0.43205195366124105 105 91 80
0.14591273542116978 0.06691190209620165 -0.437349513990589 108 97 92
0.10179796474250231 0.04894891180791146 -0.8242384757144792 97 81 77
0.11344912054245797 0.056846881687721104 -0.8219382471518333 92 75 70
0.1199430768650078 0.06129410416357197 -0.8220865356244313 88 73 65
0.12405266749979155 0.06414594871800787 -0.823367856779507 85 69 61
0.1291030831786204 0.06762646107817145 -0.8241755722844841 82 64 55
0.1357351421456984 0.07216394821313304 -0.8241904685029293 79 60 49
0.13443489972789868 0.07139720117218532 -0.8280781331096225 78 58 46
0.14431442700763517 0.07810461935454652 -0.8264564789990654 76 54 42
0.1494782365912257 0.08165855644627626 -0.8271328106426703 75 53 40
0.1724367249154105 0.0980111603182427 -0.8476113772180575 90 58 38
0.1685060893481749 0.09548716609595358 -0.8528360024396326 95 63 42
0.17018340880803257 0.09670819461621347 -0.8551659296532138 96 65 43
0.17221343903797692 0.09816453700387955 -0.857306565429511 95 65 43
0.1745654916951519 0.09983563953452901 -0.8592718538729568 97 68 46
0.17467720579568008 0.1000110094822753 -0.8624055138171052 101 73 52
0.17733289115124562 0.1018843997045798 -0.864198876353602 106 81 67
0.1744462582547654 0.10005857333150972 -0.8689155599891049 104 85 74
0.17132241691133748 0.09807485184391165 -0.8737709628859197 104 88 77
0.16827517083534402 0.09614267207816901 -0.8785992117998516 104 90 80
0.1658110175119548 0.0945999583685014 -0.8831288111832081 104 91 83
0.162352046370889 0.09239390745811563 -0.8882038215490521 107 94 87
0.15912177414019774 0.09034089218397456 -0.8931705773347153 110 99 92
0.15131689276688498 0.0853395897238704 -0.9038766602582751 112 101 93
0.14925117467044527 0.08406463032858447 -0.9082537113564342 109 99 90
0.15536358767272138 0.08824337818813958 -0.9081657580612924 105 95 86
0.15373031751815638 0.08725684317602823 -0.912307976048651 108 96 86
0.15662083393785384 0.08928656941684485 -0.9139647501303009 122 106 94
0.15775655486440016 0.0901461549861909 -0.9165818226456723 129 112 98
0.15813396945611116 0.09050016766773618 -0.9196165446688146 128 109 93
0.15988945104132107 0.09177266934900752 -0.9218831992148622 125 105 89
0.15970888829905527 0.09175471394912436 -0.9252265919646039 124 104 88
0.15936209323596118 0.09162604562863405 -0.9286652254043474 115 96 82
0.15973994930607763 0.09198031099198452 -0.93169838495856 101 82 71
0.16132865846115307 0.09314130832343734 -0.9340469172223921 86 65 54
0.1661837481151513 0.09647818898601918 -0.9345376616916994 84 61 51
0.16835910193561293 0.09802943632843676 -0.9365354173532145 77 54 45
0.1700918935597402 0.09928566991504677 -0.9387784519011002 73 48 39
0.17258781057439745 0.10104996718046538 -0.9405783123647641 70 46 36
0.17917561890451933 0.10553894394394947 -0.9400155923399561 71 46 36
0.15947819486965895 0.09252438148320845 -0.9546004707617827 73 47 35
0.16188125991251576 0.09432985532909555 -0.9597161297910533 74 49 37
0.17736928607415103 0.1048445241035861 -0.9571587776835262 76 53 40
0.1664460091862297 0.0977787999316437 -0.9700464636631423 74 50 39
0.16687150110181662 0.09816452400919297 -0.9730438625764245 75 51 41
0.1998143426297038 0.12089081662986181 -0.9790602741732363 82 61 51
0.20510643259526218 0.12451010874254184 -0.9790271222934247 82 61 52
0.20537579825442093 0.12478968896052148 -0.9820455094178042 84 63 54
0.21102682721998386 0.12864662242308939 -0.9817618384929669 87 66 56
0.21639874583771002 0.13231735588983823 -0.981628299860103 89 68 59
0.2122669767290297 0.12967127687461963 -0.9873441787735955 91 71 61
0.24269521713978687 0.15147050235620513 -1.018480979867314 79 44 20
0.24821047910479332 0.15522878510666702 -1.0180145074981062 84 50 25
0.24923319508771605 0.15600584005218399 -1.0204661491216263 82 48 23
0.24941293342126714 0.15622358644281883 -1.0234680855851166 83 49 23
0.24946100175736707 0.15635400871272212 -1.0265571735676033 86 52 25
0.2501976062925692 0.15694113480104188 -1.0291925377076057 93 59 32
0.2518310115340039 0.15812294948841454 -1.031231985304992 100 66 39
0.25298256995057283 0.15898506792517586 -1.0335861419061791 103 70 43
0.25367105365776693 0.15954003041632947 -1.0362454503029794 103 70 44
0.2551343387685618 0.1606086291172605 -1.0383850981696847 103 71 46
0.25633302340077235 0.16150166538356273 -1.0406974056485871 102 71 45
0.2566050028656452 0.16178030580306507 -1.043629398582938 102 71 46
0.2566075273462652 0.16188035452867325 -1.0467432902360843 101 70 45
0.25532180600353716 0.1611266770879681 -1.0507302631151545 100 68 44
0.2542071516639159 0.16048656481369974 -1.05460757959593 99 67 42
0.25281720127971075 0.15966422266233876 -1.0586781235765552 99 67 40
0.24882739505991458 0.15711959254295926 -1.0645311843488394 99 67 42
0.24754675286068323 0.15637026929855868 -1.0685460124813824 98 66 41
0.24522730697728415 0.1549330370588664 -1.0732810440275393 96 66 42
0.2457708175635459 0.15539240743619712 -1.0760538766851957 93 63 41
0.23754010529461045 0.15004075725123023 -1.0848902894871082 87 56 35
0.24222850122715794 0.15334512525200933 -1.0879629075423285 67 39 20
0.24164908589960238 0.153061230531215 -1.0915253726405525 56 29 16
0.2434806388958676 0.15437355782518575 -1.0934051687262851 59 32 21
0.2459773823170833 0.1561260111013136 -1.094812020077801 63 36 24
0.24983986461113544 0.15878214600625434 -1.095248947470696 67 38 26
0.249462585201423 0.15863183886642035 -1.0986627398311357 66 36 21
0.24980260450513103 0.15895629822851415 -1.1015716966361764 67 34 18
0.25085708898599357 0.15975350900831364 -1.1039733903065054 71 36 18
0.25303748988045266 0.16129555952765068 -1.1055705293496307 73 37 18
0.252736873938174 0.1611960134199411 -1.1089309653314072 79 43 19
0.2532409312248961 0.16162883496251243 -1.1117177747106965 87 53 26
0.2537040980497438 0.16203458277252542 -1.1145330744355413 90 58 30
0.25360025383722706 0.16206530556485102 -1.1177559533867123 95 63 33
0.2547257615486893 0.16290905395819003 -1.1200927337850077 97 66 36
0.25534163727322023 0.16341570602115416 -1.12279514466684 97 67 38
0.25665627868449914 0.16438432025212363 -1.1249887352244483 98 68 39
0.2579247407700801 0.16532227153268164 -1.127211731847232 99 68 40
0.25698572885564597 0.16480086409947392 -1.1310430371840696 97 66 38
0.25501023415712465 0.16359452795864815 -1.1356386486341206 95 65 38
0.2567663693948784 0.16485476144363237 -1.137502602112947 95 66 38
0.2547063473689469 0.16359291576452456 -1.1421715600160538 96 68 43
0.25308849925667637 0.16262355781692436 -1.146523651223308 85 61 41
0.2446446250056665 0.15714440103929483 -1.1559402135349677 77 57 39
0.24302289823680184 0.15617342948023175 -1.1603252354164622 89 75 58
0.242427191998632 0.15588048082273098 -1.1639539150740712 109 101 90
0.15801267247620968 0.06183748168712607 -0.1278700968748997 108 84 68
0.14623294858745362 0.05405733335330921 -0.13757477572572835 109 83 68
0.1520170800159353 0.05810710014775941 -0.14012966269301244 106 83 69
0.1417734769580986 0.05128779641687586 -0.1468556625452259 103 85 76
0.1444742165917214 0.05322839733905385 -0.14963284996480175 109 97 89
0.12598639562839214 0.048953909453872985 -0.4179682261129179 106 85 75
0.13346710561166283 0.05412885068935455 -0.4192732491579698 103 81 70
0.13517025587557752 0.05538202642757451 -0.42196183318472663 103 81 70
0.1355568009177009 0.05574160598736784 -0.4249690829932794 107 85 74
0.13833934652852242 0.057726926694438886 -0.4273819370478854 108 87 75
0.140890410835842 0.05955490068390347 -0.4298432432181613 107 89 77
0.14293201816141854 0.06103698797666929 -0.43242428530744914 110 96 87
0.12433671105676286 0.0606589702692313 -0.8273807131358335 87 69 61
0.13737137930924803 0.06950707787233149 -0.824267880875157 81 62 54
0.13471418011102326 0.06782628963512191 -0.8288237757633431 78 59 50
0.14513731733171842 0.0749203552386638 -0.8269310078096779 77 56 45
0.1702944754077215 0.09289708270323771 -0.8496172749859914 91 59 40
0.1717149076205836 0.09394917971036318 -0.852081050550669 96 65 44
0.17640713817784764 0.0971932570374183 -0.8528398650059907 98 68 45
0.1745007645534476 0.09601610343524147 -0.8570239557477661 97 69 47
0.17258898584488097 0.09483560540456643 -0.8612196900939959 99 73 52
0.16810904600968896 0.09193518662148403 -0.8667744261190643 110 85 66
0.16547910906691318 0.09027441412966676 -0.8713719605952783 111 90 78
0.16950178167719065 0.09306920716991592 -0.8724571725043404 109 93 85
0.16551304607243073 0.09049886195069366 -0.8777873658890807 110 95 89
0.16842345211018367 0.09254848906339455 -0.8794525184549675 113 100 93
0.14535313766004965 0.0777152712261256 -0.9113441751199518 116 103 95
0.14785366218494855 0.07959322561746768 -0.9165056943353017 127 114 105
0.14992820756300257 0.081083472274188 -0.9186260143427832 130 114 105
0.1522784469760689 0.08275791939566456 -0.9205865927282766 131 114 105
0.1543395263822677 0.08423869758439217 -0.9226996810214995 131 114 103
0.1572040164075279 0.08625658666235003 -0.9243576319219272 127 109 97
0.15909807360474487 0.08762517698117821 -0.9265485287828115 114 95 84
0.16164144504144462 0.08952949318161656 -0.9316129642652549 83 64 58
0.16102573698324654 0.0892196311904033 -0.9352072340638932 80 58 50
0.16494935877951927 0.09194441821974349 -0.9362277902935434 78 54 44
0.16631765456871306 0.09296068011675276 -0.9386898497653293 77 53 43
0.16511117998520852 0.09225590426990729 -0.9426199497734582 74 50 40
0.1686352255098995 0.09471276688667377 -0.9438415997383358 73 49 39
0.17498763914029417 0.09905926743137897 -0.9434215765096587 73 49 38
0.170593324987324 0.09622423064433029 -0.9491873446027669 73 49 37
0.17170559699067273 0.09706884333549598 -0.9517788968480407 73 49 37
0.17301943894774666 0.09804801409464346 -0.9542499055120802 74 50 38
0.17399072979196017 0.09879823574165411 -0.9569168685238041 75 51 39
0.18174963133367186 0.10408201785870821 -0.955604074433205 76 52 40
0.1991825981049373 0.11612554940310643 -0.9581319332085302 74 50 40
0.2062200004160123 0.12172143510530171 -0.9825650302270921 83 60 52
0.2052891879978145 0.12120042236400053 -0.9863221376699782 85 63 52
0.20622780039532224 0.1219264305395627 -0.9889321339664294 85 65 54
0.24622684682367102 0.150265901466619 -1.017254914193682 77 41 18
0.24772953217617016 0.1513644753394086 -1.019400606744949 77 42 20
