ply
format ascii 1.0
element vertex 680
property float x
property float y
property float z
property uchar diffuse_red
property uchar diffuse_green
property uchar diffuse_blue
end_header
-0.011227008800525837 0.2155299132813776 -0.479104217431906 91 64 44
-0.013814427827099227 0.21522405936231173 -0.48176029576697893 90 61 43
-0.015663647450565005 0.21498394202143375 -0.48457827211289056 83 53 35
-0.015724890698084 0.21490269146938484 -0.4878034315687762 82 52 33
-0.015521673684072396 0.21484488792698686 -0.49109099830860076 83 54 33
-0.01641731032551251 0.2146895510715266 -0.4941239194050386 85 55 34
-0.01571093885388586 0.2146763187039457 -0.4975318623958291 85 53 31
-0.015725584586168156 0.2145990901798078 -0.5007726880667086 83 52 29
-0.014956983100905943 0.21459123364391952 -0.5042013608191763 85 54 31
-0.014089426882374398 0.214592054245663 -0.5076574941902005 89 58 35
-0.014835231374910607 0.21444994623618896 -0.5107281333856526 87 56 33
-0.014676065156815243 0.21438794895331406 -0.5140176191531045 88 56 34
-0.014231121161627253 0.21435118895081537 -0.5173788042048545 88 57 34
-0.013070494295516655 0.2143776464166475 -0.520918911511267 85 54 31
-0.014036065121390037 0.21421606813917368 -0.5239370842335669 84 53 30
-0.013469023122485643 0.21418993110327972 -0.5273357224794352 88 55 33
-0.013920663004269626 0.2140737639151071 -0.5304817506497845 87 54 32
-0.014775580498779015 0.21392200286395302 -0.5335257483046083 85 52 30
-0.014864229514418209 0.21383788594496622 -0.5367630942188722 87 55 33
-0.01063346884633766 0.21413469908950472 -0.5411063927285137 84 52 30
-0.011270440770248233 0.21400203430580114 -0.5442115098098246 82 50 28
-0.012287357999218387 0.21383590590962215 -0.5472174698441208 85 53 31
-0.01365040122786658 0.21363933552924713 -0.5501312616595115 88 55 34
-0.01414164059518519 0.21351959587310715 -0.5532705764289072 91 58 37
-0.014649519799309077 0.2133983983881223 -0.5564052186537277 95 60 40
-0.01406723323516558 0.2133731116760812 -0.5598288716503417 95 61 36
-0.014221510653642022 0.2132829824454897 -0.5630590071379425 94 60 33
-0.014201368797068223 0.21320816526932196 -0.5663367937767604 91 57 31
-0.012915581619178149 0.2132445137913346 -0.569957950052778 92 58 31
-0.01448549702289774 0.21302994541754414 -0.5728082574582049 94 60 35
-0.011477852006039735 0.21321729756414715 -0.576906495880462 93 59 34
-0.012099763121797502 0.21308591567207497 -0.5800174058098971 95 61 36
-0.013659676060224016 0.21287227991241978 -0.5828681168166948 94 59 34
-0.014061144659534591 0.2127602923703024 -0.5860374580658564 91 55 29
-0.013184896972692345 0.21276027441826253 -0.5895643964990085 90 54 28
-0.014238524555877707 0.21259111250281088 -0.5925522416969401 93 56 30
-0.015019031955200698 0.21244591322026837 -0.5956153120307177 92 56 31
-0.016009136683368147 0.2122823984202028 -0.598617498399647 95 58 32
-0.014188778548952494 0.21236479280906304 -0.6024224467832744 96 60 33
-0.01588070129029781 0.21213989045544449 -0.6052233182396801 97 62 35
-0.01652885264995481 0.21200631776384266 -0.6083222397584818 98 64 36
-0.02212997320511878 0.2114400283203344 -0.6099783591321875 99 65 37
-0.014276551957161474 0.21204913109211568 -0.6155565892361025 102 68 40
-0.016469120189932185 0.21178066244000712 -0.6182042453488829 102 67 40
-0.01725338168651823 0.21163521146882416 -0.6212629625136104 99 65 37
-0.018037031146819385 0.21148984261992146 -0.6243206337582408 97 63 34
-0.018431991592941538 0.21137838835512957 -0.6274933794604235 96 62 32
-0.018912716806591318 0.2112594596902863 -0.6306403535628959 99 64 34
-0.019512577529366984 0.21113015963037288 -0.6337510470986156 97 62 33
-0.02011236048766875 0.21100088117728616 -0.6368611303716204 93 57 29
-0.020712065681496555 0.21087162433102627 -0.6399706033819101 93 57 27
-0.019235477505362822 0.21092300031635455 -0.643717493476663 94 58 29
-0.018350156469238918 0.21092282147235603 -0.6472878190990633 90 54 26
-0.01714965244329436 0.21094993887844582 -0.6509602015211275 89 52 25
-0.021627257590977292 0.21048363841819592 -0.6528652856303709 86 49 23
-0.02174165989132547 0.2103965427177443 -0.6561262710442842 81 44 18
-0.021879880587051523 0.210307357571012 -0.6593806834367131 81 45 21
-0.020143027071312367 0.21038083914518457 -0.6632304149530336 82 46 21
-0.018189869280747173 0.21047291698758622 -0.6671560246321384 82 46 22
-0.018321146069630714 0.21038412239691004 -0.6704216931128869 82 46 23
-0.019698610129097474 0.2101873262598099 -0.6732870989894171 83 47 24
-0.01987652656326508 0.21009449793540655 -0.6765374318739721 83 47 24
-0.020318636348051144 0.20997878038704682 -0.6797025989200423 80 44 23
-0.022311022542297013 0.20972891296561239 -0.6823610425123324 74 40 20
-0.02319256088926755 0.20957525105585947 -0.6853791317429772 70 38 18
-0.030029334726817195 0.20890674471194565 -0.6864302170641858 67 36 17
-0.028622465927781976 0.20895114757366595 -0.690194486804912 67 36 18
-0.030256566154068507 0.20873272662138892 -0.6929511135376556 66 35 17
-0.028415938342533226 0.20881442184582363 -0.6968675039626926 67 34 17
-0.028078737536009757 0.2087661911100279 -0.7002852248060266 67 35 18
-0.022188204269790665 0.20919697735017567 -0.7055834314795294 68 36 18
-0.03226849587606512 0.20825012547287206 -0.7054749832310552 67 36 18
-0.033377561197453415 0.2080772551272649 -0.7083981884660612 65 35 18
-0.03623125137474015 0.20775413385651456 -0.7107205323841583 64 35 18
-0.03742837630356248 0.20757385494451835 -0.7136059182975134 65 36 19
-0.035755765663905384 0.207640653994155 -0.717482651341966 66 36 21
-0.03856305948949215 0.2073218505850987 -0.7198072117937767 67 37 22
-0.04446408563698204 0.20673717009263506 -0.7210422584694175 65 35 20
-0.046430252876897296 0.2064911582586258 -0.7236414729874358 63 33 18
-0.04417023986228846 0.20660839434835143 -0.7277269780874795 58 29 14
-0.03868985821425924 0.20684735656995348 -0.7395707773000938 58 28 11
-0.03643097634708431 0.20688623894536268 -0.7469995693690936 58 28 11
-0.03611001300268596 0.20683622252162454 -0.7504282454110629 58 28 11
-0.08350048452790633 0.20102538949824103 -0.8080017648432053 62 29 10
-0.09528596446855281 0.19994992782416388 -0.806526488676336 62 29 10
-0.10397361902033252 0.19898636888872065 -0.8127360981296383 62 29 10
-0.09256446052015954 0.19979969611639803 -0.823897276661743 67 34 13
-0.10135734987336215 0.19898012327674908 -0.8235312729685751 70 35 16
-0.10844488761039478 0.19830529711135628 -0.8238432698363127 72 37 17
-0.10776315660681729 0.198287152898408 -0.8273619250009744 74 39 18
-0.1081810466989054 0.19817609838553876 -0.8304253175631162 78 42 21
-0.11201149904473044 0.19777710039188973 -0.8320590063923674 78 40 18
-0.10645146249572465 0.19817035611036404 -0.8376308134950545 77 41 16
-0.10839973194604113 0.19793019648722274 -0.8400520029077241 78 39 15
-0.11102484405479207 0.19763312661354254 -0.842181079676309 79 41 14
-0.10841908386498932 0.1977767864684968 -0.8465289159949997 81 43 14
-0.11035422196932287 0.19753794519308088 -0.848946618826723 83 43 15
-0.11025937405326067 0.19747003581432399 -0.8522298842960229 83 43 17
-0.10911677294784657 0.19749020981971033 -0.8559659278394873 88 49 24
-0.1158437164909125 0.19684870250756942 -0.8563053947189656 87 51 27
-0.1190555561806544 0.19650305378821492 -0.8581490193777964 87 52 28
-0.11542060600626801 0.19673267289385826 -0.8629656906275899 87 54 30
-0.11433384288896113 0.19674806001060252 -0.8666815631012617 85 56 34
-0.11462577553394229 0.19664764562811513 -0.869797206560454 83 56 34
-0.12105663496643906 0.19603234867426067 -0.8702082702375215 82 56 36
-0.12680115702168193 0.19547506126904837 -0.8709026849529983 75 50 33
-0.12286731735528204 0.1957291641522561 -0.8758760143874891 72 47 32
-0.12218164213103151 0.19571088479492363 -0.8794163161226464 73 49 35
-0.11620222014036655 0.19613568055049072 -0.8853281832552845 69 44 32
-0.10778859714467379 0.19676365731246534 -0.8923543278012243 65 39 27
-0.10523946280162687 0.19690046480589238 -0.896767074551991 61 35 23
-0.10134936631334743 0.19714914044389473 -0.9017962651884662 60 35 23
-0.09719126777446527 0.19741987301899958 -0.9069615098573777 59 33 21
-0.09532162715638842 0.1974991215959002 -0.9110991913315288 56 31 18
-0.09553005309896928 0.19740471885941083 -0.9142940190091343 56 31 17
-0.09083382563284152 0.1977195401685235 -0.9197409965798874 65 40 27
-0.09108612913767414 0.19762125561969995 -0.9229251125748055 72 46 32
-0.0907945958206053 0.19756829401405285 -0.926361196655089 74 46 31
-0.09161057514132995 0.19742299929681684 -0.9292855995387729 75 47 30
-0.0903716718418151 0.19744887117338122 -0.9331657252956879 75 47 29
-0.09068415092416653 0.1973454738559713 -0.9363261389695455 75 48 29
-0.089357941441542 0.19737841306266896 -0.9402556322265626 75 47 31
-0.08830026367893823 0.19738888436859545 -0.944064499318563 74 45 29
-0.08753195274565029 0.19737518757353267 -0.9477415410657088 73 45 27
-0.09269243955673631 0.19686880856047026 -0.9486110383450561 73 43 23
-0.09549183780135558 0.19655888174807554 -0.9505880993896699 73 41 22
-0.10834573722812835 0.1954145671840408 -0.9477552142440114 73 41 20
-0.10415069182036177 0.19568571707563695 -0.9530513086806491 72 41 20
-0.12188327053242892 0.1938322497730811 -0.9608859268414096 101 79 71
-0.11969897150748626 0.1939364065853654 -0.9652255874093835 101 80 69
-0.12251491424577454 0.19362689500186375 -0.9671183289765213 98 75 66
-0.12752681100876156 0.19313608163587923 -0.967920700838385 96 73 64
-0.1316822397382119 0.19271638706692862 -0.9691309365989299 97 75 66
-0.13753889643828082 0.19215652091505706 -0.9694842849768279 98 76 67
-0.13901811489317464 0.19195835947608372 -0.9719985492633659 101 80 71
-0.13999570053905253 0.19180166450421315 -0.9747597220542669 107 86 77
-0.14377549499902256 0.19141397193305382 -0.9761142172922411 108 87 77
-0.1443696004142029 0.191289084798867 -0.9790595189857372 105 84 71
-0.147031709846362 0.19099386981534933 -0.9809604578025027 102 81 69
-0.14873832710994045 0.19077750280053457 -0.9833375044018161 103 82 70
-0.14992529185358003 0.19060400382038217 -0.9859740887909474 103 82 69
-0.15210229943346762 0.19034913548851654 -0.988103259336102 98 77 63
-0.15432622173623559 0.1900905526855895 -0.9902023461091147 99 76 62
-0.1598983359455693 0.18955698749824554 -0.9905769744657186 100 77 63
-0.15866556848059063 0.1895827373071816 -0.9944376241835214 100 78 63
-0.15151068748944604 0.19009451984665549 -1.0013630342522741 99 75 60
-0.16060854925003007 0.1892721189727679 -0.9998906032733647 94 66 48
-0.16383189272023152 0.1889321990051177 -1.0014431609231558 84 50 27
-0.16600070349465615 0.188678948664139 -1.0035361845187631 76 40 14
-0.16768271267397275 0.18846572586192958 -1.0058779147168344 76 39 12
-0.1691642834435568 0.18826902119522596 -1.0083204690085505 75 38 11
-0.17088363445262908 0.1880529411455156 -1.01063401159566 75 38 11
-0.1728708969456354 0.18781504915198138 -1.0128013967166118 77 40 13
-0.16869190230219466 0.18808151951601623 -1.0182328434707346 77 41 15
-0.17385264174481177 0.18758425917695062 -1.018711708235116 78 41 15
-0.1822973886031222 0.18681910043149613 -1.0174217250982893 77 41 14
-0.18236456515984822 0.18673864141793073 -1.0205891876332014 81 45 18
-0.18056557346875762 0.18681046074974272 -1.0247599969021766 85 49 23
-0.18092839557712365 0.18670575979799428 -1.0277735222941562 86 51 25
-0.1822234332686758 0.1865250510825519 -1.030283254731105 84 50 25
-0.18219446605801248 0.18645231231742343 -1.0335077513202506 82 48 24
-0.18253671865660404 0.186349303717987 -1.0365317423933802 82 48 23
-0.18294266352264862 0.18624110653953516 -1.0395211185516529 81 49 27
-0.1837474702351837 0.18610045493241156 -1.0422920945961163 81 50 29
-0.18471005418280945 0.18594700489281876 -1.0449749897615006 81 51 30
-0.185339789802282 0.1858206593688979 -1.0478392223708797 79 51 31
-0.1848215132558133 0.18578761171922129 -1.0513368915862231 80 52 34
-0.18963930439043142 0.18532114148849815 -1.0518802626035324 81 55 36
-0.18808209666167472 0.1853724949875123 -1.0559525404216716 81 55 35
-0.18767579442881188 0.18533031825811344 -1.0593896662316427 78 54 34
-0.18767895286392994 0.1852548745667639 -1.0626004577615176 76 51 34
-0.18818526242512718 0.18513861970844783 -1.065530231643953 74 49 34
-0.181939599505054 0.18556935320629475 -1.072259794654518 71 48 35
-0.187445389326374 0.18504803901735428 -1.0723778722585067 69 46 33
-0.18417589220182534 0.18523731764098017 -1.0774475355269724 64 41 29
-0.18089349373091984 0.1854273450994856 -1.0825371203753487 56 32 20
-0.1779189068290886 0.18559219040290223 -1.0874639828190007 49 25 14
-0.18387604320154521 0.18503500626379835 -1.0872983886788543 46 21 12
-0.18314192557128897 0.18501871151584662 -1.0909488340818285 47 24 13
-0.18196553412839783 0.18503803010392372 -1.0948574053856566 54 26 15
-0.18092224056092782 0.1850464832315212 -1.098694619216746 62 31 15
-0.1795868026869037 0.18507838134130447 -1.1027057323181546 68 35 15
-0.18164619386524103 0.18483649596637267 -1.1047534854179197 73 38 14
-0.18414258668299066 0.184559538843206 -1.1065411881904208 81 43 15
-0.18514372476091426 0.1844031585141518 -1.1091941381212234 83 48 20
-0.1851448427393062 0.184327314513638 -1.1124302449104464 85 52 24
-0.18729000778867202 0.18407896342434152 -1.1144090914088722 85 54 27
-0.18867858611382768 0.1838915874841535 -1.1168272724409634 86 56 31
-0.1830088020195393 0.18427152451950185 -1.1234097932715297 87 58 33
-0.18300431103871506 0.18419591998976886 -1.126658239548877 87 57 34
-0.18467522867111283 0.1839857789692588 -1.1289129279758736 82 53 31
-0.184243754960137 0.1839444409022963 -1.1324155144015438 81 53 31
-0.19571471635882293 0.18294845421709086 -1.128810167058147 81 54 32
-0.1933908567325287 0.18305916089914998 -1.1334315855512782 84 58 36
-0.19431690587901504 0.18290926715783629 -1.1361095521868811 84 58 37
-0.19169804683002584 0.18304328883157014 -1.140921913566045 79 53 33
-0.1903337541206308 0.18307665333021073 -1.1449864887212258 77 52 36
-0.18579716585653228 0.18336365012185782 -1.1509799158587024 64 45 32
-0.17489776562367226 0.18408238471157748 -1.1641314229374669 83 70 56
-0.18332012396522568 0.1833330091836819 -1.1622571615276969 122 115 105
-0.1860917751954 0.18303540828443116 -1.16381922893279 155 153 147
-0.18875056187771092 0.18274700795262694 -1.1654423677250008 174 173 170
0.02223877964764761 0.23533722327227508 0.09862130656901728 136 125 116
0.016867154156109586 0.23474503278963124 0.09525597545806087 109 83 67
0.01217892421893943 0.23421943228732772 0.0919417919632593 110 79 58
0.007492083926065658 0.23369426149371603 0.08864039211625135 106 75 53
0.003057403805385786 0.2331938128330831 0.08536439956954875 96 65 41
0.0010390012932374668 0.23292762637024686 0.08221842767408762 81 47 26
-0.0025252150556020073 0.23251191355329096 0.07900404891084879 69 34 15
-0.0020589245523584595 0.2324864426592419 0.07598404048251906 64 31 12
-0.0018534084341716075 0.23243568723403338 0.07294991294092486 63 30 11
-0.002760713080775915 0.2322772821128049 0.06986625107790755 62 29 10
-0.0030145397639211296 0.23218208079774164 0.06681120490003924 60 27 8
-0.004217721419397364 0.23199513378961123 0.06371782109323312 60 27 8
-0.004413744490279925 0.2319055299997149 0.06066559958246412 61 28 9
-0.004592045628276775 0.23181762409295856 0.05761345760168637 64 29 9
-0.004763454622416355 0.23173036886405093 0.05456093135342175 63 28 8
-0.0038301117413820085 0.23174969850179064 0.05154533247712885 63 28 8
-0.002575691128724215 0.23179990720036275 0.048536241329581696 66 31 9
-0.0028264090902467304 0.2317048720966787 0.04547553817511179 68 33 11
-0.003348666564668694 0.23158365401243325 0.04240639446410367 69 35 13
-0.003347461565453092 0.2315128827632062 0.03935233231305218 70 36 13
-0.0024885476682480027 0.23152469851252225 0.036319894907087834 69 34 12
-0.0026518037963896325 0.23143800828656658 0.033258094937185144 72 36 14
-0.003223506334583008 0.23131198921530916 0.03018598017409876 74 38 16
-0.0031098697076848737 0.2312519230475711 0.027129551377429686 73 37 15
-0.003143292456731027 0.23117767761376123 0.024068586563620376 71 36 14
-0.0028618193264888583 0.23113368353073133 0.021012574586213823 71 36 14
-0.0031973530983895413 0.23103034120007893 0.01794368020741936 69 35 13
-9.190009424360837e-05 0.23125759516636285 0.014930126905849552 65 33 10
0.0003696683419820816 0.2312306814581506 0.011867426771343685 65 30 8
0.0005928392730112711 0.2311808205279711 0.008799042506682208 62 27 6
-0.000815173345380598 0.2309743672064274 0.005709819177694876 62 27 7
-0.0007263695398887944 0.2309115865233733 0.002638830354918229 62 27 7
-0.0033796399067831263 0.23058579758766976 -0.00045733200692672435 62 27 7
-0.0025065763342002507 0.23059823147665875 -0.003521480063291989 65 30 10
-0.0020220204458666173 0.23057334516226255 -0.006591615077189706 65 30 10
-0.0025455130099630956 0.23045182750546658 -0.009668572942955925 63 28 8
-0.0018639044332919678 0.23044572500199043 -0.0127419249190482 63 28 8
-0.0017308959082229548 0.23038703042072595 -0.01581913547905384 66 31 11
-0.0016059862760837672 0.2303275242532924 -0.018897918600712285 65 30 10
-0.002367135974987937 0.23018322148953194 -0.021976628789679098 65 30 10
-0.002728602251671604 0.23007716427320812 -0.025055564896847543 64 29 9
-0.0034670614626450824 0.22993506797150215 -0.02813277057341115 66 31 11
-0.004205388291037643 0.2297930084522413 -0.031208937367446725 66 33 13
-0.006490622745058565 0.22950321130695223 -0.034271935893529386 66 34 13
-0.005084462941295668 0.22956602218056488 -0.03736373406525321 65 33 12
-0.003842001663010422 0.22961308236946218 -0.04045916378553233 65 33 12
-0.0034571214789695034 0.22957820142246088 -0.04354891900521115 66 33 14
-0.003643573868395547 0.22948877183611724 -0.04663309734463979 66 33 14
-0.004540537363558115 0.22933158332864326 -0.049706981883416074 65 32 13
-0.004435154911657645 0.22926996488404722 -0.05279625473938868 62 30 11
-0.022556187797109387 0.22740067989159005 -0.058614842712593526 76 50 38
-0.026853125858745792 0.22684947854363346 -0.06464539640436395 84 56 44
-0.04737993674776882 0.2246849360458133 -0.07326520641286878 101 66 44
-0.05170323310618062 0.22420370783129087 -0.07617237082587305 110 78 59
-0.05600689835442148 0.22372462077081937 -0.07906822990639324 105 74 59
-0.061420019549807775 0.22314045380008415 -0.08191678113504146 100 71 54
-0.06298488790679194 0.22292193851999523 -0.08487892613308642 89 57 38
-0.06981983902552286 0.22220342437585366 -0.08765312252246286 82 50 28
-0.0721881602270853 0.22190904836983072 -0.09057080945825238 79 46 26
-0.06912463722817087 0.22212986189552753 -0.09368895404543867 71 40 21
-0.07286790538055864 0.2217052496254221 -0.09654848214543005 88 60 41
-0.0786975723919614 0.22108318730566934 -0.09931219195212251 99 68 51
-0.08542286103549597 0.22037667967374192 -0.10202126654965503 95 59 38
-0.09272467490054893 0.21961603348295253 -0.10468568593235707 96 63 45
-0.09894453208507784 0.21895827611787266 -0.10737842742909474 93 64 52
-0.09567635643789624 0.21906049777230066 -0.11644979047864083 118 87 68
-0.10865792013482421 0.21776460976735865 -0.11875550712461434 142 111 90
-0.10776669694891632 0.2177801492485728 -0.12176073086780641 130 99 78
-0.12076072031160244 0.21648437425203962 -0.12401020454125351 110 80 54
-0.12491896345339594 0.2160235673878934 -0.126718093137437 96 61 32
-0.12592612090384925 0.21586037181755505 -0.12959642903302623 86 46 18
-0.12799205131299965 0.2155973502723266 -0.13241007554802534 82 43 17
-0.12965392055940433 0.21537254812476428 -0.13524312506962913 78 40 18
-0.1316982015959074 0.21511179254095728 -0.13804841085000394 72 36 18
-0.1319485069201853 0.21502018543010723 -0.14096312448108272 72 37 21
-0.12506703260669721 0.2156002804209453 -0.14434437596413707 69 37 22
-0.12726629982952195 0.21532490877247762 -0.14714033259079476 68 38 25
-0.126636603802314 0.21531591368993117 -0.15012426014581354 66 41 29
-0.12491815140033076 0.21540927711390706 -0.1531873947193538 67 45 33
-0.12374022747849504 0.21545165899213894 -0.15621828104578162 67 47 36
-0.11777119492545216 0.2159443354726201 -0.1596036406084542 70 51 39
-0.11479262392334186 0.2161555396305506 -0.16278551605216618 69 52 42
-0.11333128927231098 0.21622398056860342 -0.1658622486232045 68 51 41
-0.10997734443243354 0.21647001100608657 -0.16909143085243847 66 49 39
-0.10503211371761219 0.21686514500233017 -0.17245791378392666 66 49 39
-0.11173053756440585 0.21616736604446263 -0.17490169391549043 65 48 38
-0.1065065970100809 0.2165882992787275 -0.17830583432206004 65 47 37
-0.10192033234787906 0.21694904601281617 -0.18167374910436893 65 47 37
-0.0990172184618625 0.217151687675667 -0.18491340179501156 64 46 36
-0.09853559204221451 0.21712722991276978 -0.18795299429539122 63 44 36
-0.09814696006983925 0.21709400175102428 -0.19098701077042896 63 44 37
-0.09789705857598521 0.21704773139564032 -0.19401091588181832 63 44 37
-0.09346595885225828 0.21739270068550742 -0.19741880110646182 64 45 38
-0.0901332374922687 0.2176345780520062 -0.20073940395918508 65 45 35
-0.09194824270590989 0.21739482378864886 -0.2035852315735158 64 44 34
-0.08738238439852347 0.21775162269131382 -0.20703909368062512 64 44 34
-0.0855887019398574 0.21784903866860897 -0.21023782017239298 64 44 34
-0.0821647052685135 0.21809857662202792 -0.21360472555170376 64 44 33
-0.07974996530205213 0.218253610728615 -0.21688181130018705 64 44 33
-0.07859600077217352 0.21829077418761816 -0.2200387366793326 64 44 33
-0.0778540219453602 0.2182893910726058 -0.22315768029943234 64 44 34
-0.08259945240518368 0.2175645301211238 -0.23482090793262672 63 43 34
-0.07924234258076623 0.21780653533052755 -0.2382365622220825 63 43 34
-0.06320866935013444 0.21922822939262462 -0.24309521159657105 64 44 35
-0.06568961577231788 0.2189260372860259 -0.24588526540977532 65 43 34
-0.0674638150335588 0.21868972995462482 -0.2487508387012887 64 41 32
-0.06929760883420535 0.21844798143872388 -0.2516051164961954 63 40 31
-0.06912962121878795 0.21839237909967363 -0.25469332858465416 63 40 31
-0.06880768428166985 0.21835103933797728 -0.2578018241623008 62 40 29
-0.06709952252747592 0.21843838275610358 -0.2610818926359051 63 41 30
-0.06310464626389164 0.21873785303821994 -0.26465139530637316 64 42 31
-0.05876233022303005 0.21906924915391318 -0.2682779882454907 65 42 32
-0.06441046839580308 0.21847360281882464 -0.2706520835464847 66 42 32
-0.0619159383280675 0.21863334613279747 -0.274055272207007 65 41 31
-0.06494854450855875 0.21828058918590235 -0.27674922763658094 65 41 31
-0.06826519757164651 0.2179017054157331 -0.2793976333173636 63 41 30
-0.06407112037193297 0.21821863814803996 -0.2830361399110492 62 40 29
-0.06218065531107162 0.21832197516558027 -0.2863788230530807 62 40 29
-0.062120749137716605 0.21825574293065625 -0.28947936605644115 60 38 27
-0.06650565141430577 0.21720411306221146 -0.31670757992788906 75 43 24
-0.07134113757469511 0.21668646927028817 -0.3190717860264028 75 43 22
-0.06694983619824449 0.21701935608576775 -0.3228361320660486 76 42 22
-0.0650347973520253 0.21712380976449794 -0.326232028727186 74 42 25
-0.06427454102854822 0.21712177209117897 -0.32945453563162314 73 45 30
-0.058938335644645415 0.21754080824079122 -0.3334033040181684 72 48 34
-0.053263046781429485 0.21799062553831783 -0.33742402508201486 42 23 10
-0.045828058913692536 0.21860183320219695 -0.34174709168005224 39 22 11
-0.04284603293305167 0.21880311997229246 -0.3453704914724594 70 51 38
-0.04236613603838929 0.21877423616912192 -0.34859364332383697 65 43 28
-0.04283682957305729 0.21865797183467992 -0.35166197100836644 61 37 25
-0.04034340370893734 0.21881387702138044 -0.35522596784704735 66 42 31
-0.04205972035835885 0.2185831891651403 -0.35808809651633844 70 47 33
-0.042333644569420105 0.21848493236321465 -0.3611919177993026 69 46 32
-0.04410706065314829 0.2182491478135734 -0.3640381968968345 54 36 25
-0.04708099239855698 0.2179034074578559 -0.36667177952497243 38 20 13
-0.04609137267252657 0.2179210657426084 -0.3699914293339563 54 33 24
-0.04756526077660079 0.21771296284669941 -0.37288010240714536 76 54 40
-0.052760539899748084 0.21716418976413793 -0.37510196504950294 67 42 27
-0.05078997883403257 0.21727164523691647 -0.3785974642578083 67 40 23
-0.04169216847514556 0.21803101550119844 -0.3833933339592459 68 39 23
-0.03572022171918066 0.2184302022417615 -0.3908186018100923 70 41 25
-0.046113296388620204 0.21740681225503866 -0.3920570220550622 72 42 25
-0.053679834389152525 0.21664234533807925 -0.393794532726658 67 34 17
-0.06269585099400889 0.21574605067805314 -0.3952351399150022 72 36 18
-0.07879441980632595 0.21420393878592187 -0.3952969672715514 72 37 18
-0.07820750390158439 0.2141853024891364 -0.3985198823387738 67 34 15
-0.08447101565049216 0.21354183526226939 -0.4004169524487764 76 39 20
-0.11005146447193806 0.21071062168465002 -0.4169221377309354 78 41 14
-0.10620638875578675 0.21098887315665743 -0.4207881641601836 73 35 12
-0.1134742393238565 0.21025697694847023 -0.42235396401133923 72 34 13
-0.11268646756786213 0.21025730923780064 -0.42558781656308836 72 35 14
-0.113794492331338 0.21008542281943968 -0.42842468739905065 75 39 19
-0.11371380010360227 0.21002147825292738 -0.4315123747834493 79 45 26
-0.007385724567352883 0.2191448044216152 -0.4768606490776124 90 64 41
-0.0074303418238908375 0.21906535596166063 -0.48009962238243653 90 63 43
-0.007297847830655138 0.21900189717813492 -0.48337997129704496 84 57 38
-0.0069620669317355804 0.21895677455012985 -0.4867085290143326 85 57 39
-0.006715865195970547 0.21890350348403403 -0.49001879630177875 90 61 43
-0.007170836614422513 0.2187868555034341 -0.49316847891190013 88 60 40
-0.0075286313220749995 0.21867898465191307 -0.4963406920429055 88 60 39
-0.00796429288689357 0.2185640833881551 -0.4994947385539959 89 58 37
-0.009008671447805719 0.2183942734572184 -0.5025045747527578 86 56 34
-0.009325949763591357 0.21829007425959335 -0.5056856577616318 84 55 34
-0.012629044185464344 0.21791674521292717 -0.5081506503773836 84 56 35
-0.013846747156835995 0.217731518214669 -0.5111100548277469 83 54 33
-0.007602845295758623 0.21821834382684133 -0.5158808429894323 89 57 38
-0.00812759623107115 0.2180953430204759 -0.5190165119986533 96 64 43
-0.008413272170544273 0.21799386460229947 -0.5222106775710947 92 60 39
-0.007821728960419994 0.21797128240815813 -0.5256226763241761 86 55 32
-0.009351977576280382 0.21775785216214372 -0.5285084841425766 89 59 35
-0.010055654441024575 0.2176187934373803 -0.5315982353122629 99 68 45
-0.008725142023346455 0.21766250396670972 -0.535201036687251 97 66 43
-0.008337960757848692 0.21762137411112847 -0.5385695064750801 94 63 39
-0.00901779249241276 0.2174844066992691 -0.5416674750566539 92 60 36
-0.006410907882325609 0.21764236504845005 -0.5456108310555277 89 57 33
-0.007567080674298662 0.21746259389223568 -0.5485888806003812 93 62 38
-0.007898270136857635 0.21735684010816678 -0.5517795821448023 95 64 40
-0.007495523445677318 0.21731685254769773 -0.5551630174526176 96 63 40
-0.007501107759261827 0.21724022759995607 -0.5584412851837482 99 64 41
-0.007875886543093194 0.2171305151056587 -0.5616228139120665 99 66 42
-0.010242943824908118 0.2168424848119783 -0.564272314947884 96 64 39
-0.0034184217203604844 0.21737693557951937 -0.5693852651758733 97 64 40
-0.0074433436310235995 0.21694059434434734 -0.5715887966407848 101 69 45
-0.009435959438133093 0.21668619394658895 -0.574333304850576 103 70 45
-0.00893605523947226 0.21665462940674915 -0.5777544478336192 103 70 45
-0.009229436901616192 0.21655214346838314 -0.5809602486817036 106 73 48
-0.010655723261826552 0.21634850378022408 -0.5838529030707457 107 73 48
-0.009813096138112154 0.21634742370872626 -0.587373787105115 103 68 42
-0.010411899597020394 0.21621766756228555 -0.5904951657404712 102 67 41
-0.009766836533732268 0.2161988387035978 -0.5939661315596058 103 67 42
-0.010745287030141729 0.21603522700263106 -0.5969807614852143 103 69 43
-0.010486218318897234 0.21598191250236123 -0.6003459536575431 106 72 46
-0.011897437531476637 0.21577979982218823 -0.6032349441598421 107 72 46
-0.012168654830412781 0.2156792433725354 -0.6064490042204759 109 76 49
-0.013367400388089062 0.21549614472845036 -0.6093948769960708 107 74 47
-0.014226347426825145 0.21534332836011175 -0.6124371440298996 105 72 45
-0.014371901247027849 0.21525397090431916 -0.6156868491632872 104 71 43
-0.015581974654543765 0.2150699918451671 -0.6186239461590793 106 71 46
-0.012492927303809104 0.21526796823417452 -0.6228312440778778 106 72 46
-0.013203501122363431 0.2151283010917209 -0.625918770419702 103 69 42
-0.011148208185807099 0.21523414404026267 -0.6298331127810683 103 69 41
-0.012264555223531495 0.2150584194003945 -0.6328010340467642 102 68 39
-0.014380143170020648 0.21479413455212146 -0.6354643587012885 102 68 40
-0.014539491099150606 0.2147033858186076 -0.6387171289861318 103 69 42
-0.014961561399191706 0.21458933990978696 -0.6418903635562694 105 70 44
-0.015510304739187603 0.21446407608055218 -0.6450246058221976 104 69 42
-0.01457828298078416 0.2144699160677354 -0.6486159426727944 94 60 31
-0.013779638248203635 0.2144638525430709 -0.6521701829810468 91 56 27
-0.016118957459732713 0.21418012872573455 -0.6547485153024604 92 55 29
-0.015215930518328757 0.2141832313005071 -0.6583382377828745 88 52 26
-0.015535014980410045 0.21407822508967134 -0.6615466428122603 85 50 26
-0.013659433239079727 0.21416709438840967 -0.6654512826776917 86 52 28
-0.012253742300943352 0.21421429819421559 -0.6692135592410586 88 53 31
-0.01106401539363075 0.2142423029032702 -0.6729125350024033 84 49 27
-0.00993217230341012 0.21426508017169685 -0.6765980600827727 83 47 25
-0.011408580843003807 0.2140577156616907 -0.6794445283422477 83 47 24
-0.010242739736742348 0.21408335617784505 -0.6831468757006178 80 45 24
-0.012685039214567165 0.21379094298342385 -0.685674967383904 76 42 22
-0.015035784053240603 0.21350674754965646 -0.6882265081719463 74 42 22
-0.022283819543860273 0.21279153948089596 -0.6891550219649274 72 41 22
-0.03166547788671582 0.211889084377644 -0.6893534172328739 71 40 22
-0.03127291394319308 0.21184709588040923 -0.6927810746091864 69 38 20
-0.03200660623543003 0.21170601888887855 -0.6958340196707666 69 37 20
-0.02855356323080034 0.21193293534615992 -0.700295309730035 68 37 19
-0.021913052966374497 0.21243958268247368 -0.7058474129193307 68 37 19
-0.02262800761204739 0.2122997882440752 -0.7089223604690132 67 37 19
-0.022819883568633598 0.21220593074952154 -0.7121749472296856 65 36 19
-0.02952386065217956 0.21154070136984562 -0.7131934708573623 65 36 20
-0.03478066420609559 0.2110028663648228 -0.7146903999160955 67 38 22
-0.03382571566575053 0.21100993214980673 -0.7183234572832348 65 36 20
-0.03653870077891122 0.21069549691852446 -0.72068424103626 63 34 18
-0.03959424112477951 0.2103512341645759 -0.7229176714633962 63 34 18
-0.03930604321510375 0.2102999096757068 -0.7263172329605777 64 35 19
-0.041370653549527125 0.2100426390930315 -0.7288885491909928 66 37 21
-0.04218311300783344 0.20989502268104246 -0.7318984616598277 64 35 19
-0.012649609343830082 0.21232299314244185 -0.7490658960960622 59 31 13
-0.014998211103250225 0.2120400907079848 -0.7515705659945181 59 31 12
-0.015209569246499521 0.2119439590513072 -0.7548408026263522 59 31 13
-0.011266284170879381 0.21221043539767137 -0.7596190864615093 59 30 12
-0.08687842966971879 0.2038026196486173 -0.8100929387418315 62 29 10
-0.1013275561225195 0.20247959007539304 -0.8075169094876935 62 29 10
-0.10364931814620852 0.20220405785714465 -0.8098147091007994 63 30 11
-0.10089988003681052 0.20236604980965345 -0.8141720638952036 63 30 11
-0.09223307186131946 0.20296228767756874 -0.8242191718359282 66 32 13
-0.09428232109771793 0.20271011350502907 -0.8266342528330285 71 36 17
-0.09627770393254405 0.2024627044849149 -0.8290661368868912 72 37 18
-0.10413880314309673 0.20171064971162006 -0.8290543399900395 73 38 18
-0.10728143583453609 0.2013650330050834 -0.8309870015350174 79 43 21
-0.10929096958667583 0.20111704909682682 -0.8333853063778147 82 44 22
-0.11216355467707487 0.20079502101366492 -0.8354151506023888 80 43 17
-0.11790100212439189 0.20022709403911357 -0.8362267475764099 81 42 16
-0.12044878647993489 0.19993344812692734 -0.8383730103718373 82 43 15
-0.11564254463049739 0.2002711085943801 -0.8436425868723534 84 45 15
-0.10981445537067883 0.20069602466857478 -0.8493661791088785 85 46 17
-0.10712430168764765 0.2008513972999064 -0.8537642756693584 85 45 19
-0.1098677379231739 0.20054083907528478 -0.8558324661178786 86 47 21
-0.11567815103696669 0.1999677230449132 -0.8565667726241395 87 50 26
-0.11893029051720994 0.19961408857603696 -0.8583933474298748 90 55 31
-0.11405060839335306 0.19995667759951224 -0.8637533946373249 92 58 34
-0.11510432239502216 0.19979124927655278 -0.8665359623321228 87 58 34
-0.11440789665822432 0.1997755307852467 -0.870084702158103 84 57 34
-0.11740765630964407 0.1994438021051246 -0.8720081141433935 83 57 37
-0.11714049750198703 0.19939138394011904 -0.8753680461717144 75 51 34
-0.1187472356777823 0.19917889177206766 -0.8778980535315739 73 50 34
-0.11460440171686481 0.19945725968790223 -0.8829867906227272 74 51 36
-0.10921096668518963 0.19984197378592058 -0.888650254421779 68 43 30
-0.1077758596508218 0.19988867511804748 -0.8925554689616161 65 39 26
-0.10633809617071602 0.19993546059348902 -0.896468011441139 62 36 24
-0.10328120688727027 0.2001200550234745 -0.9011192595755342 61 35 23
-0.09841340422241437 0.20045860220197306 -0.9066044629714592 60 33 22
-0.10090950711550713 0.2001698990966206 -0.9087508657788242 58 32 19
-0.10167392551978044 0.20002869901181064 -0.9116824231552509 59 33 19
-0.09688743766071442 0.20035960653979645 -0.9171614915195652 68 42 27
-0.0959887847220329 0.2003596191458481 -0.9208663065187916 73 46 32
-0.09466934138746189 0.2003952841224181 -0.9247701003594746 74 47 31
-0.09194837878256609 0.20054984373046278 -0.9293302574993275 76 48 31
-0.09468411744912733 0.20024094470955606 -0.931358702056262 74 47 28
-0.09159863320027639 0.2004261600096639 -0.9361011045422957 73 46 28
-0.09052208694397976 0.2004407229184954 -0.9399125334738916 74 45 29
-0.08904241048424427 0.2004893446624634 -0.9439187796503992 74 45 29
-0.0876142890670067 0.20053345109474638 -0.9479069889629623 73 44 27
-0.09685448840126654 0.19967387523957092 -0.946841252573844 74 43 23
-0.09667201129239313 0.19961266395122454 -0.9502308630576165 74 41 22
-0.10904841993183391 0.19848873273004322 -0.9476232268026904 73 41 20
-0.08488069444833693 0.20037928163949792 -0.965820449072482 75 47 29
-0.11899240645695022 0.19719173594898998 -0.962501361163549 100 77 68
-0.1256269274003409 0.19655613732363436 -0.9625296636431735 99 77 66
-0.12584764110528154 0.1964617222916227 -0.9656873663895966 98 75 64
-0.12912038371872928 0.19611012344589734 -0.9673412872547489 98 76 66
-0.13208619153411294 0.19578460212075696 -0.9691372542915969 99 76 66
-0.13459127421259315 0.19549806882217566 -0.9711531478251685 99 77 66
-0.1428920824068726 0.19472402608183886 -0.9702756519923181 98 76 65
-0.14323564521405496 0.19461984797833395 -0.9733474490263279 102 79 69
-0.14435583967971527 0.19445037856133895 -0.9760300077287773 106 84 72
-0.14507693723055784 0.1943145012809431 -0.9789108606173156 104 82 69
-0.14483629799223965 0.19425942309763303 -0.9822760498741938 106 84 71
-0.14675075887749878 0.1940233810740638 -0.9845518609262498 108 86 74
-0.14718232087263383 0.19391188589733852 -0.987576063791329 104 82 68
-0.14989099353420007 0.19360941723961686 -0.9894390634549839 100 77 63
-0.1525933287755925 0.19330766311300876 -0.9912974090888148 101 78 64
-0.15891503201499607 0.1927028283333382 -0.9912901097019181 101 78 64
-0.15856972171403733 0.19265682212097046 -0.9946960275557266 101 78 64
-0.1475006933221599 0.19350844079563156 -1.003645283182764 98 73 59
-0.15287819470682798 0.19298306436356483 -1.0041077840613744 92 62 43
-0.16188628898819554 0.19215445301393408 -1.0026650033127131 85 48 27
-0.16584891580042818 0.19174828144352907 -1.0038255686601634 77 40 14
-0.16936872856614307 0.1913793910558123 -1.005205746155567 77 39 12
-0.17156324100743048 0.19112142766753212 -1.0072712940385322 76 39 12
-0.1704592978224066 0.19113893796521134 -1.0110687022891578 76 39 12
-0.16182610584063112 0.19178451661388707 -1.0188514148836656 78 41 14
-0.16277609324932826 0.1916302084612678 -1.021582572710911 78 41 15
-0.17114481735173165 0.19085756773399942 -1.0203646395262511 78 41 15
-0.17281108954016816 0.19064396726237617 -1.022696924022707 79 42 15
-0.17766207574363685 0.19016526461904923 -1.0233194875093028 79 44 16
-0.18080548130113747 0.1898290462227257 -1.0248440475195415 81 46 20
-0.1812004495225652 0.18972170227974158 -1.0278402842647818 82 48 21
-0.18253555256359866 0.18953618260128016 -1.0303282302982448 82 48 23
-0.1832132992576979 0.18940537488209477 -1.0331694130866935 80 46 21
-0.18359837776193377 0.1892989041390369 -1.0361688067070938 80 46 20
-0.18417993889242995 0.1891761185964727 -1.0390609594959705 80 47 26
-0.1851449086486476 0.18902152770239708 -1.0417425231426893 80 49 28
-0.18591994759538208 0.18888273908631859 -1.0445263943035477 81 50 30
-0.18527477080998678 0.1888617401968732 -1.0480913221756847 81 53 33
-0.18609148078509824 0.1887195040691487 -1.0508519057222148 83 54 36
-0.1865423858275967 0.18860760444737731 -1.0538137776642755 82 55 36
-0.1874279918727421 0.18845971872354103 -1.0565336924707571 82 55 36
-0.1898699398257752 0.18818307617853317 -1.0583837742228306 80 55 36
-0.1861093628933686 0.1884196481173044 -1.0636971044942518 77 51 34
-0.1864056113957874 0.18832048550744304 -1.0667479030953013 75 49 34
-0.18614949314175505 0.1882669615762908 -1.0701099529125475 72 49 36
-0.18157412724300262 0.18857014074446457 -1.0759131584545023 69 45 33
-0.1784019376250939 0.18875708203851854 -1.080938705275398 64 40 28
-0.174984356185478 0.1889639875064551 -1.0861159282013972 54 30 18
-0.17392831633804173 0.18897581728704335 -1.0899605578943592 48 24 13
-0.1745929638266552 0.18884568460772372 -1.092826668522002 48 24 14
-0.17621796593213682 0.1886364447653732 -1.0951412468719322 48 25 13
-0.17771133098513223 0.18843814542138104 -1.0975272377147212 51 25 12
-0.17927915672670033 0.18823380566428122 -1.0998664534596392 59 28 11
-0.17778585453688192 0.1882814176854741 -1.1039723844206797 65 32 12
-0.1794901802589024 0.188065919779153 -1.1062295138973812 71 37 12
-0.18323281269231761 0.1876829881083431 -1.1072959050206213 80 43 15
-0.18533106990629594 0.18743542046922046 -1.1093104476426974 84 50 21
-0.185562339593592 0.18734129861044393 -1.1124119945688804 85 53 24
-0.18808022937028115 0.18705949021931856 -1.11417151449291 88 57 29
-0.18571871162786704 0.18717813443682518 -1.1187969668002178 86 56 30
-0.18735370145647892 0.18696886609567792 -1.1210715912471212 85 55 29
-0.19074421168671776 0.18661582612848582 -1.122302017414303 84 54 30
-0.18796209451193674 0.18676865276781252 -1.1271889921367464 82 52 30
-0.18900712854436472 0.1866078813956972 -1.129806710299674 81 51 30
-0.1937651910205782 0.1861433136820302 -1.1302034338962008 80 53 31
-0.19402017990415138 0.18604741887894483 -1.1332835661399283 83 57 34
-0.1854104746138284 0.1866762265587115 -1.1416919944697472 83 57 35
-0.18295351355163947 0.18680155320904995 -1.1464230775714 80 53 32
-0.18903069787068394 0.18622964983837212 -1.146005177474223 77 52 36
-0.1843262564695632 0.186538327547959 -1.1521036937648534 62 44 31
-0.17736275961845416 0.1870309130638702 -1.1595933833844363 66 53 36
-0.17925514001101 0.18680070091980372 -1.1617090642126313 87 76 61
-0.18146420570645144 0.18654479744017932 -1.16362585692229 126 120 111
-0.18441222955880998 0.186228838621576 -1.1650831624094935 156 156 150
0.023782174346146892 0.23855206789400268 0.095573255004963 136 125 118
0.017952455561671434 0.2379073618449015 0.09218777350547029 102 79 67
0.013258034209749919 0.2373747563533168 0.08887717209804805 105 78 59
0.008813334860679123 0.23686701186610837 0.0855918684674602 107 76 52
0.004553677197521049 0.23637774190864824 0.08232760232673195 96 63 41
0.0028163644603978865 0.23613671429111877 0.07919421116152894 73 40 21
0.0020860367939254144 0.23599474358848702 0.07611099096403029 62 30 9
0.00014401525404620676 0.235733753855366 0.07297500578312531 59 26 6
-0.0005042491469766999 0.23559993033192192 0.06989911673869052 59 26 6
-0.00102827198758439 0.23547832197190852 0.06682913739875986 59 26 7
-0.002717913414901317 0.23524232661521663 0.06371301669751525 59 26 7
-0.0019578408965164606 0.2352467561272558 0.060694922549184904 60 27 8
-0.003009524072881818 0.23507342155251612 0.05760645764680637 62 27 7
-0.003570047928228348 0.23494828518228128 0.05453737890460956 62 27 7
-0.002650132179599231 0.23496825121269366 0.05151911425715599 63 28 8
-0.0006243100954372582 0.23509647422957317 0.048532888072435866 65 30 8
-0.000543417287943904 0.23503405178565795 0.04547916575585843 65 32 9
-0.0017337207609461058 0.23484714378875968 0.042386515343406435 65 32 9
-0.0011022202654976249 0.23483858719346107 0.039347308578932885 66 33 10
-0.00407331271045751 0.23447750483051283 0.03620944472278275 66 32 10
-0.0036030020706569067 0.23445316723952364 0.033165474928808704 67 31 7
-0.0029304262500206794 0.23444854507809523 0.03012370336623758 68 32 8
-0.0021831377044591316 0.23445115166181588 0.02708040891363152 68 32 8
-0.0022223524527265528 0.23437684136666728 0.024017535431203045 68 33 10
-0.0022614615111565053 0.23430251721006579 0.020953613285191987 67 32 10
-0.0017648656156386833 0.23428046859612522 0.01789806262713241 65 31 8
0.00047361620562596726 0.2344283557072372 0.014867897810268052 63 31 8
0.00046329837610699365 0.23435667099265126 0.011797036036393415 64 29 7
0.0024647981062059024 0.23448116196669358 0.00875140339182526 63 28 7
-0.003369301130177433 0.2338415932284152 0.005607622651169165 62 27 7
-0.0027507849629694325 0.2338312444907894 0.002545399423299408 61 26 6
-0.0023077888318099454 0.23380372676262945 -0.0005213596668296734 61 26 6
-0.0018466671545447726 0.23377791670547984 -0.0035904887353663834 62 27 7
-0.0014203578932929506 0.23374865876858925 -0.006662368451959964 61 26 6
-0.0009761634455442807 0.23372108494622204 -0.009736626314810195 61 26 6
-0.0005315703670731725 0.2336934922012442 -0.012813390110513433 62 27 7
-0.006175246916975678 0.23307376341949337 -0.015899539761997455 64 29 9
-0.0026780021554092433 0.23334302730382842 -0.018973323498458556 65 30 10
-0.0030269412476960737 0.23323825057533362 -0.0220515811414927 65 30 10
-0.0022424914267179 0.23324357439383203 -0.02513379041830228 65 30 10
-9.785196837512611e-05 0.23338090605502881 -0.02822616231047773 64 29 9
-0.0012419061186673998 0.23319880812976612 -0.031305189121553875 64 31 11
-0.000783366908094326 0.23317228053531996 -0.03439458429690758 66 34 13
-0.001850901368937924 0.2329976540555656 -0.03747222214083429 65 33 12
-0.0009764058832874845 0.23301139772969 -0.04056897104369773 64 32 12
-0.00032293860782673864 0.23300362763344856 -0.043666794753092895 65 32 13
0.0015480187757607768 0.23311376372729006 -0.0467846856623852 65 32 13
0.0011361355363592313 0.23300260741759682 -0.04987423766581063 63 30 11
-0.005654681728313335 0.23227375539019357 -0.05285588793323632 61 28 10
-0.005852356503614112 0.23218355803449256 -0.0559396633591785 54 27 14
-0.014689600738712458 0.23125734343748067 -0.058851918594950245 71 49 39
-0.02209279931581319 0.23047042998469747 -0.06176943588000807 74 50 38
-0.046333330745872016 0.22784655979760593 -0.07337537967212472 100 66 42
-0.0607328456703342 0.22617818569629758 -0.0850368188770628 91 59 39
-0.06424139516875467 0.22577045763781417 -0.08793105666400983 83 51 30
-0.06359436810221972 0.22576347015835746 -0.09096767508202402 76 43 25
-0.06599385266605054 0.22546288824457886 -0.09389147840245703 71 39 25
-0.06811908366620287 0.22518886098050336 -0.0968200222480909 91 62 45
-0.07354451896681505 0.22459722025935383 -0.09960769561731535 94 64 44
-0.08149502620173035 0.22376291230405898 -0.10227250671293889 96 60 38
-0.087003200370592 0.2231641038256846 -0.10502210511626636 96 62 43
-0.09334384149911398 0.22248559299631687 -0.10771815116285577 99 69 55
-0.11330153659216995 0.22036266345854966 -0.11565068557896627 114 82 62
-0.10524501186633284 0.2210684540507872 -0.11901731088149164 139 107 85
-0.10251742557804289 0.2212620880372054 -0.12212591132799264 128 96 74
-0.12312334457061365 0.21908105889845925 -0.12984457253716508 90 50 21
-0.12600612921856053 0.21873703449203805 -0.13261434072087525 85 46 20
-0.12626559870861329 0.21864455931584972 -0.13553605888279135 81 44 19
-0.12858376553528283 0.21835487850866406 -0.13832973365795745 74 38 19
-0.1274466186875599 0.21839618944397576 -0.1413382211301953 70 35 19
-0.12858116451819301 0.21821995383748904 -0.1442027142488996 70 37 22
-0.12640467948809891 0.21836057906560297 -0.14728650790495598 68 39 26
-0.1273051103870056 0.218206726820476 -0.1501674238148196 68 42 31
-0.1251117321489988 0.21834871731494576 -0.15326325831842982 68 46 35
-0.11881260463197417 0.21888294247306359 -0.15666055494380282 68 48 37
-0.11557455574968913 0.21912423753976143 -0.15985464223427434 70 51 39
-0.12251289391315537 0.2183933663302955 -0.16230089156890218 69 52 42
-0.11700667314399774 0.21885105677902061 -0.16567411518697267 69 51 41
-0.10762309250976906 0.21967837381489297 -0.16936632574795943 68 50 40
-0.10812593553313689 0.21956182893901588 -0.17230577821847964 67 49 39
-0.10523727447137313 0.21976872637409428 -0.17551850793455992 66 48 38
-0.09979487302408724 0.22021884307341055 -0.17895121151490678 66 48 38
-0.09419085955453457 0.2206839502932992 -0.18241527860824908 66 48 38
-0.09358402105424385 0.22067260474195524 -0.1854714834464155 65 47 37
-0.0956787850056557 0.2204039303669173 -0.18829615601163896 64 46 36
-0.09267688909454694 0.22062052509696184 -0.19156587612910497 64 46 36
-0.0918305031876809 0.22063177549794452 -0.19465221417483589 64 46 36
-0.09278081307940197 0.2204720398378572 -0.19757805491166622 64 46 36
-0.08776156465289547 0.2208799504967976 -0.2010570646731065 65 45 34
-0.09142787021019387 0.2204619343913169 -0.20373192086598801 64 44 33
-0.08748200846883245 0.220767403199016 -0.20712768504165852 64 44 33
-0.08649729690172253 0.22079132383828096 -0.21024783314131798 65 45 34
-0.08552859365415241 0.22081362796275736 -0.2133705940001412 65 45 34
-0.07981609600857281 0.2212860534354121 -0.21697494555288926 65 45 34
-0.07905370601428632 0.22128842514901897 -0.22009223267665182 66 46 35
-0.07953321034673255 0.22117293988874884 -0.22308423109713862 65 45 36
-0.08044105536125451 0.22101685472535954 -0.22603084214288424 64 44 35
-0.079448166165274 0.2210409293762179 -0.229178841232901 63 43 34
-0.07995290044404439 0.2209230376965366 -0.2321688188584122 63 43 34
-0.07479516825561368 0.22120073135438673 -0.24189024548958457 64 44 35
-0.0641565397442714 0.22213665671452545 -0.24616512596569673 65 44 33
-0.06461378871547228 0.2220226649317784 -0.24918624461278976 64 42 31
-0.06852809307039426 0.22158193086599648 -0.2518005697957201 63 41 30
-0.06883138542263229 0.2214826181010724 -0.25483424926919784 63 41 30
-0.06879648909510594 0.22141523970112073 -0.2579090013479226 63 41 30
-0.06795324761373889 0.22142414669555355 -0.26108386998893507 62 40 29
-0.06552087474936275 0.22158293838598667 -0.26445926417867577 63 41 30
-0.06152361649678661 0.22188915753855049 -0.26803952703224804 65 42 32
-0.06264782926094407 0.22171209703354106 -0.27098350583342223 67 43 33
-0.05950371669195069 0.221937450357287 -0.274473418502353 64 40 30
-0.06224763510607714 0.2216077161165241 -0.2772089000737739 64 40 30
-0.06267103164574914 0.22149673257290675 -0.2802423139161736 65 41 31
-0.06011092837570908 0.2216666771164449 -0.2836726888378776 65 41 31
-0.061008499436020804 0.22151096099546477 -0.28664666341730444 64 40 30
-0.06253042462528662 0.2212965369014942 -0.28953402210656026 58 35 25
-0.04643316233205652 0.22223609837064903 -0.3167081546109127 79 47 29
-0.05470524489802064 0.22138845610378813 -0.3185939620311818 80 47 28
-0.06284019831661944 0.2205542323078629 -0.32047601741398174 81 50 29
-0.06621761420475897 0.2201663187599428 -0.3230632930368602 79 45 25
