ply
format ascii 1.0
element vertex 697
property float x
property float y
property float z
property uchar diffuse_red
property uchar diffuse_green
property uchar diffuse_blue
end_header
0.08389206055493964 0.15470183344858812 0.08692205819303964 54 22 9
0.08825064492747323 0.15270532739129783 0.0837216382910106 54 22 9
0.08605512091336631 0.15389675929655133 0.08095573476245722 55 23 8
0.08879641098607949 0.1526864996616873 0.07787220887860757 54 22 7
0.08500395934089792 0.15465540541401857 0.07519512434304074 53 21 6
0.0861534188826503 0.15421967354714852 0.0722110829504855 54 22 7
0.08675687542463295 0.15404960618892938 0.06926118888144445 55 23 8
0.08658842851394397 0.1542552942402764 0.06635541596919459 55 24 6
0.08641985889061003 0.15446111415126343 0.06344795008122242 56 25 6
0.08629543847633618 0.1546455066047559 0.06053645297155673 54 23 5
0.08633046392239509 0.15475230757585373 0.05761524632504597 53 22 4
0.08596775738113521 0.15505289405609576 0.05471268927189264 52 21 3
0.0839140193184143 0.15617742714045527 0.051888682717628816 53 21 4
0.08189657198514179 0.15728461340053893 0.049055079020047465 53 21 6
0.08089253505306326 0.1578982695118394 0.046168532807412774 52 20 5
0.08555379191257559 0.1557508730971891 0.04303453910453786 52 20 5
0.08644177772946378 0.15544221460154511 0.04007038364611747 53 21 6
0.0839596797677696 0.15677651830759523 0.03724142206451084 53 21 6
0.08055074197564291 0.1585631517029064 0.03443826829285777 52 20 5
0.0817517092572186 0.15810217035201615 0.031455431053911936 51 19 4
0.07834319903053107 0.1598893261657449 0.028635033490824077 51 19 4
0.0893057125767395 0.15466658450042928 0.025328302485528226 52 20 5
0.08858613977408131 0.1551418894917493 0.02242258879268257 51 19 6
0.08643265541294551 0.15631703179281503 0.019555878553121925 51 19 7
0.08592809715804194 0.15668780465178328 0.016634694138784926 50 18 7
0.0839284524582687 0.15778844563290326 0.01375008317404409 49 17 6
0.08261105800822338 0.15855636423638686 0.010840837192387685 49 17 6
0.08392857971622177 0.15803805053647135 0.007865356025711197 52 20 7
0.08446142496889611 0.1579027649826004 0.004909860446729918 51 21 7
0.08427144879074819 0.15812046449378234 0.0019692269905858487 50 21 7
0.08316348769443337 0.15878662923642717 -0.0009566178722972031 49 20 6
0.0803906636798293 0.16026631797806168 -0.003859997433481635 47 18 4
0.08814431492184442 0.15660331302685254 -0.006928923495185115 46 17 3
0.08719455204045208 0.1571922817707624 -0.009859413014704659 47 18 4
0.08495952218464553 0.15840958404029512 -0.012779548384027034 48 19 5
0.0853519460920155 0.15834294667086055 -0.015733909154536003 49 20 6
0.08522217105591663 0.1585315920497862 -0.01868390503725917 50 21 7
0.08404529788861052 0.15923227662087375 -0.0216287701740045 50 21 7
0.08317619350215265 0.15978267380145966 -0.024580186355472395 50 21 7
0.08236495779807297 0.16030494071102783 -0.027535845150032306 48 20 7
0.08218627996499457 0.1605179530395609 -0.03049628107657958 45 19 6
0.08328868748056273 0.16010430029883368 -0.033458179009173125 43 17 5
0.08413087869191321 0.15981786421657657 -0.036418067591626996 42 16 6
0.08516192929034164 0.159438937008012 -0.03937564288071547 41 17 7
0.08254698249817148 0.1608444036855914 -0.04235006224847852 40 18 7
0.0823695707262174 0.1610570952601733 -0.04531753680685812 42 18 8
0.08236719833630299 0.16118416604086364 -0.048285275922360045 39 15 7
0.08260771958603846 0.16119235396017478 -0.05125170751085271 33 12 4
0.08621558098256282 0.15955149829240275 -0.05417835626663203 38 17 10
0.08373709299122598 0.16089122942807133 -0.05717687034309718 41 17 8
0.09500140359361464 0.1556245278776727 -0.06292746274229775 54 34 27
0.10373688179859052 0.1514694062752725 -0.06571846062736739 108 91 85
0.12806189387370281 0.1396730262785353 -0.06816501903742375 66 43 37
0.13658662439155134 0.13561770968678535 -0.0708783275582239 99 77 70
0.12410049624935633 0.14186114852251513 -0.07406099099780056 134 116 110
0.13947164519971283 0.13444826818564573 -0.07658130145066673 129 111 103
0.1410070669485911 0.13381775223334125 -0.07942473888643385 92 69 58
0.1478103532602958 0.1306035349002873 -0.08211310260505666 54 22 10
0.13870776948485175 0.13519028345262385 -0.08526259851752 52 20 6
0.1411054324395959 0.13413664576153606 -0.088075399698913 54 24 8
0.1415746547504527 0.13402889686533107 -0.09094630891370348 58 29 13
0.145597325849613 0.1321773903490281 -0.09369100872240427 68 41 28
0.1485278863136637 0.1308613541781823 -0.09646381963786756 101 78 70
0.1520863028504947 0.12923675873431179 -0.09920358006744291 102 77 70
0.15637254046828214 0.12725439333745647 -0.10190307217393131 94 66 58
0.1621477368435994 0.12454038088670216 -0.10452654970092158 97 69 57
0.1672700569787411 0.122146202287672 -0.10716031634249587 123 95 81
0.17525805247330867 0.11834387481663527 -0.10964758361109027 106 78 66
0.1794132879903354 0.11642317149294663 -0.11228988914164996 128 102 91
0.18320206610430317 0.11468195801616682 -0.11493721804383057 167 147 138
0.18663928919495976 0.11311299029877164 -0.11759066376640098 149 128 119
0.19038927390364024 0.11138987700907962 -0.12021729425941324 127 98 80
0.1864350537516119 0.11345291986572122 -0.12324787201542464 102 65 37
0.18873822208689034 0.11244059861818738 -0.1259449004114281 92 51 23
0.19098244974708461 0.11145697290900258 -0.12863864860797333 72 33 9
0.1908978743914299 0.11161818925634685 -0.13146332981537495 66 29 10
0.18667058739286324 0.11381681181442727 -0.13454083852303797 65 30 10
0.19087971695006653 0.11186653342870449 -0.13710750110012215 64 29 9
0.19045208555254844 0.112196679353392 -0.13995813714008734 64 29 9
0.19039014636399199 0.11234701170337176 -0.14278729603110082 65 33 13
0.189365490292808 0.11297113232659785 -0.1456827354282117 67 41 24
0.18795623815617446 0.11378472689245982 -0.14860937010073746 64 42 28
0.18768190274267232 0.11403994149517449 -0.15146150247418744 65 42 34
0.18633902868969615 0.11482127815393857 -0.15439321171629805 64 45 38
0.18325624525609668 0.11645952740960952 -0.15745977999415925 64 45 38
0.1821067757107453 0.11714623236636218 -0.16039113154001117 63 44 37
0.18028134802591916 0.11816606687521214 -0.16337999933559044 61 42 35
0.17958346436635653 0.11863080525394674 -0.16628675147088626 60 41 34
0.17595295357544471 0.12054046201094235 -0.16943465293189686 61 42 35
0.1743207471748839 0.12146607466095477 -0.17243071041280988 61 42 35
0.1730169759759556 0.12223011910818221 -0.17540573052149055 59 40 33
0.17210538070961842 0.12280110851464146 -0.17835255095139477 59 40 33
0.16665053978772235 0.12561183602228465 -0.18170267993549508 58 39 32
0.16627977991884899 0.12603919863354654 -0.18750052448321883 57 38 31
0.1643890445959003 0.12709400489747769 -0.19056062715123337 56 37 30
0.16238659598653787 0.12820423404435213 -0.19363890219664356 56 37 30
0.16131164571565298 0.1288572635724334 -0.19663579263228467 55 37 30
0.16083821753135982 0.1292137211933021 -0.19957852222228029 55 38 30
0.15491432107055564 0.13225982178288165 -0.2030678039877909 54 37 29
0.1532716742767753 0.13319394351275776 -0.2061440352257217 53 36 28
0.157467361770054 0.13124658965173894 -0.2086246298470957 53 36 28
0.15689668197711645 0.1316516697625569 -0.2115920015564636 53 36 28
0.15962331735510157 0.13042887102915662 -0.21421099462149534 53 36 28
0.15707355793850114 0.132182011494366 -0.22613185844617417 54 38 31
0.14379364545953194 0.13936639657792152 -0.24233980468058447 56 36 29
0.14911893758232625 0.13685812081148566 -0.24462472917057176 56 36 29
0.14829358706761356 0.13739084575223998 -0.2476641295225446 55 35 28
0.13901976093827578 0.14210244859089607 -0.2517818890022604 54 36 26
0.1393023361016092 0.14208805723537024 -0.2547010423847593 53 35 25
0.14888336980945677 0.1374732007184152 -0.2564060187688652 54 36 26
0.14700532941080882 0.13865224816609573 -0.2625409066726037 59 39 30
0.14602654361917272 0.13926173578741471 -0.26562037016218537 57 37 28
0.14511672379271157 0.13983727512620076 -0.26869490633170456 57 37 28
0.1443012875633697 0.14036626635877106 -0.2717606232913084 55 37 25
0.14096098550530395 0.1421457276637348 -0.27518616445373434 53 35 23
0.14026203847617041 0.1426175494244696 -0.2782476122829106 52 34 22
0.13964132621602468 0.14305077109626982 -0.2813013665397443 51 32 20
0.1342351881100653 0.14585490264602863 -0.2850576169202334 51 31 20
0.1381990848664489 0.1440171411069289 -0.2874485654513199 42 22 13
0.1385967066276882 0.1439461556964329 -0.290360377861504 41 21 14
0.13756553126015983 0.14458332326500997 -0.2934881638129384 50 30 21
0.1387955194169797 0.1440998173816804 -0.29627472974739877 52 30 18
0.14037320182779003 0.14344380181525718 -0.2990044397419346 45 23 11
0.141034651871545 0.14324192310945744 -0.3018732516721621 58 39 31
0.1427991887074424 0.14249294708083252 -0.30456646686198435 73 55 47
0.14319655776185158 0.1424218791680314 -0.3074734207176296 66 46 34
0.1443043633056608 0.14199837435716714 -0.31026534693515556 52 23 11
0.14870924254028206 0.1399389216089023 -0.31251591915256993 54 22 9
0.14833842324987767 0.14024867553368872 -0.3155410077701706 56 25 12
0.14811751112589758 0.14048413654997627 -0.31854356400465644 57 28 14
0.1465292816976152 0.14139837399977673 -0.32177860126294316 59 30 16
0.14799926939550004 0.1407946684303257 -0.3244994500068759 67 38 22
0.14542721032964925 0.14219773688800078 -0.3279118791259791 68 42 25
0.14618120610148833 0.14194955170521245 -0.33075637472993835 59 34 24
0.13941101855001786 0.145565076727375 -0.33790860961905583 22 11 5
0.13423128189659767 0.1482652621534473 -0.341825445013472 37 20 13
0.13143484121678511 0.14978204079447527 -0.34533072149784527 49 29 17
0.1300217916207664 0.15061179624806775 -0.3485944846292673 50 28 17
0.12190211341322135 0.154775220643186 -0.35309994868336025 48 26 15
0.11528357867861565 0.15819366909748564 -0.3573557338576711 47 25 14
0.12063518572798217 0.1556618358408031 -0.35938883775375996 44 21 11
0.13222043548719456 0.15002956175417284 -0.36022351509664735 38 18 10
0.13334632946361089 0.149597352440744 -0.36301885059374533 27 12 6
0.13341667735699003 0.1496900585002005 -0.366015137685879 37 20 13
0.13205522166469452 0.15049509319766835 -0.3692911524851963 49 29 20
0.1360509923845462 0.14863489492871268 -0.37152079807902827 47 26 14
0.139364701937982 0.14711356624760516 -0.3738728804892722 49 27 16
0.13040618597602952 0.15169965860088047 -0.3786681492276859 43 19 11
0.12690824144881746 0.15356901130800454 -0.3823946883428122 46 22 12
0.1310652694813668 0.15162793594119348 -0.38457748834478 47 23 11
0.13489673948798966 0.14984839768660696 -0.3868137694921345 49 26 12
0.13832591261743069 0.14826868423484083 -0.3891211113997009 71 48 35
0.14187021779023787 0.14663116965591755 -0.3913936465623674 61 33 23
0.14517977903729262 0.14511011633495985 -0.3937043853523366 56 26 15
0.14952976977107843 0.14307026262920142 -0.39578399577654244 54 25 14
0.15230281202504065 0.1418155942780189 -0.39818692838429415 52 24 12
0.15996096536630455 0.13812599060838837 -0.39952773286490323 54 21 10
0.1660866674639747 0.13519913469398476 -0.4011760945011962 62 25 14
0.17154853786253113 0.13260234817181313 -0.40294967298545364 76 40 27
0.1762968575537122 0.1303605682060244 -0.404862936786717 88 62 50
0.16961420853299444 0.13381834484823676 -0.40930639970442745 114 92 79
0.17593510160195447 0.13079180043171615 -0.4108558130379892 87 56 38
0.18882190237597724 0.12448920349255355 -0.4108989145102785 75 38 18
0.1861097641459724 0.1259668543395512 -0.4144540254215761 72 31 10
0.17750196186137326 0.13038667501328718 -0.4193742866054954 72 32 11
0.18049515502663288 0.1290185055208782 -0.4216405149847938 72 34 13
0.18076408943345257 0.1290096493667559 -0.424532843700669 73 32 10
0.17770154998856086 0.1306638304539953 -0.4282083623991263 72 33 12
0.18013488824785295 0.129574642094284 -0.4305945944120077 74 38 16
0.17510476773836128 0.13221191405095573 -0.4347537583252512 74 42 24
0.1068377936745516 0.16708738429852651 -0.4695951966787183 68 40 25
0.10930124645117602 0.16598740885624533 -0.4720744232129172 69 40 23
0.11015931787850901 0.16568970400904395 -0.4749518178204018 68 39 21
0.1094927479451213 0.16615426018836268 -0.4782153526634981 68 39 21
0.10719132956995636 0.1674365337051738 -0.48190135601570744 61 32 15
0.10836781402768463 0.1669796969826338 -0.4846995729770606 56 27 11
0.11005204373703889 0.16626874484140963 -0.4873630042385653 59 30 13
0.10580757125455284 0.16852378672750398 -0.4915721677593762 59 30 12
0.10390921703519089 0.16960555593394777 -0.4951799416181015 58 27 11
0.10444921830330124 0.16946736221373235 -0.49814940657512197 58 27 11
0.10492705901838642 0.16936025470439414 -0.5011348119042948 57 26 10
0.10523890314965033 0.16933622896951026 -0.5041643793630786 60 29 12
0.10757798583627713 0.16829719797513187 -0.5066459781111268 63 32 14
0.10930684970710902 0.16756344305374735 -0.5092866158064798 62 31 13
0.11026336382024467 0.16721630334033039 -0.5121339546095033 60 29 11
0.10997270034161383 0.16749380101113706 -0.5153230271387232 61 30 12
0.11015176310757173 0.16753606887326328 -0.5183840577563328 68 37 19
0.10877720049712644 0.16835682965256132 -0.5218796055537731 73 42 24
0.10856874615772184 0.16859346881952553 -0.5250535813069226 71 40 22
0.10745889916661852 0.16928198522924026 -0.5284845152549739 69 38 19
0.1078206195903236 0.16923304022709612 -0.5315018497165681 68 36 16
0.10930614414871413 0.16862065701315693 -0.5341973187269049 64 32 11
0.10937631112757869 0.1687178230328251 -0.5372966422533653 63 31 9
0.10892411880505758 0.16907700500905376 -0.5405484554759215 65 33 12
0.10955889588107824 0.1688910929301006 -0.5434860405981405 74 42 21
0.1113259288420541 0.16813712110215026 -0.5460902860620941 75 43 22
0.11171000441482894 0.1680768275681387 -0.549097908588222 75 42 23
0.11099507791758145 0.16856803198391795 -0.5524319526559377 76 43 24
0.10917307654254023 0.16961503603813555 -0.5561007231186366 77 44 25
0.1081753270944929 0.17024861910180597 -0.5595294540619932 75 41 21
0.10743483360465997 0.17075325306220154 -0.5628852245108643 72 37 17
0.1079024723528875 0.1706514215251827 -0.565877347601386 73 38 18
0.11160154622028966 0.16892674646789285 -0.5678801161066442 73 38 18
0.10838798976737274 0.1706736125576358 -0.5719988766266596 73 38 18
0.11186357556383059 0.16906071716196333 -0.5740592929470085 72 37 17
0.11114940039374341 0.16955240143039899 -0.5774133108010426 71 36 16
0.11029094141743334 0.17011675205515298 -0.5808163654524432 71 36 16
0.11074250221276283 0.17002289779270569 -0.5838111210425337 71 36 16
0.11042560051392483 0.17031530197172862 -0.5870489925157634 73 38 18
0.1109875888365242 0.17016596241569537 -0.5900092786593704 71 36 16
0.1105696716015043 0.17050929698301692 -0.5932827884002596 69 34 14
0.11156957402156623 0.17013974973765056 -0.596102283857645 70 35 15
0.11210151738583948 0.17000546999228353 -0.599071086998334 66 31 11
0.11263338962742726 0.1698711995975934 -0.6020392904246196 71 36 16
0.11208071470644321 0.17028255346023083 -0.6053621496656542 73 41 20
0.1110556099877517 0.17093176852503772 -0.6088438989713935 74 41 21
0.11925353015193775 0.16693955488243556 -0.6092761264186329 72 39 20
0.11829353844916066 0.1675557139759027 -0.6127295522484786 71 39 19
0.11864739587418174 0.16751065732394016 -0.615747868355695 69 37 16
0.12042285686057183 0.16674982970277186 -0.6182877039821195 69 37 16
0.10760914726578909 0.17333548898127207 -0.6257592748629934 69 37 16
0.10785410691357164 0.17334617940805247 -0.6288358702489305 69 36 17
0.10659424385847704 0.1741149050847283 -0.6324275311665185 72 39 20
0.11314732403664768 0.17094770158516193 -0.6333389086003949 68 35 16
0.1138523875900615 0.17072624032157596 -0.6362490594455777 64 31 12
0.11455689456098624 0.17050500653501507 -0.6391581540617814 59 26 8
0.11515274773307797 0.17033848478945915 -0.6421039451222487 58 25 10
0.11337002055274406 0.17137099011225027 -0.6458838453069768 57 23 11
0.1122062716147665 0.17209174432846985 -0.6494530926937437 57 25 10
0.11211642074989772 0.1722712060827173 -0.652646991751974 56 24 9
0.11219973423192126 0.17236340336234768 -0.6557807923895057 55 23 10
0.11018922275647913 0.1735118021220084 -0.6596657636893136 54 24 10
0.10962975569625884 0.1739285237144993 -0.6630368220157938 54 25 11
0.10845817136893524 0.1746542427631886 -0.6666327424090075 53 24 10
0.1084987280402872 0.17476849452234122 -0.6697933465999616 52 23 9
0.10872689336284877 0.17478810506650133 -0.6728865371052679 53 24 10
0.10901959046794044 0.17477516038530058 -0.6759565046855612 54 25 11
0.10975570997131756 0.17453835209171897 -0.6788630263911765 53 24 10
0.11523930991501925 0.17190422229389238 -0.6800069755019698 54 25 10
0.10929747144156399 0.17503951506694423 -0.6853916542594511 54 25 9
0.11859176386393122 0.17047987038925666 -0.6850915884933675 54 25 9
0.12194690448562405 0.16891922543104648 -0.6869947147129827 54 25 9
0.12083594015244287 0.16961467801692495 -0.6905762523161809 54 25 9
0.12216061231185349 0.16907953115044708 -0.6932374224212742 56 27 11
0.12273018236765634 0.16892587731769657 -0.696183444447774 56 27 11
0.12381081016861617 0.16851385359649101 -0.6989325979092472 57 28 12
0.1235747703603906 0.1687673894432137 -0.702186746460477 57 28 12
0.11886964864834709 0.17128080885913605 -0.707174217034292 57 28 12
0.11485782628116913 0.17344439161904796 -0.7119103407662654 58 29 13
0.11178207538255525 0.17513518184155388 -0.7162964066749231 58 29 12
0.11562559046468321 0.17332616995193895 -0.7179768769597187 58 29 11
0.11701976703222393 0.1727558853248987 -0.720611292165755 56 27 10
0.12378533479180488 0.1694673158513461 -0.7211122234689362 54 25 10
0.14106975404531197 0.16178831158043502 -0.739421751658446 57 27 13
0.1445373298330508 0.16016485807490805 -0.7411409472183715 57 27 13
0.13629106421076254 0.16447766330221467 -0.7477076867582877 56 26 12
0.1346735602703619 0.16543174042523343 -0.7515441935196956 54 25 11
0.13440964411522435 0.16569989666813287 -0.7548215081043836 54 25 11
0.13363407852817427 0.16622758070217789 -0.7583161606413028 54 25 11
0.14526532993718194 0.16059732092962614 -0.7597287589520371 53 24 10
0.1483244304561966 0.15917924929387167 -0.7615787541854698 51 23 9
0.1454376560159569 0.16077745584754652 -0.7659616754906953 52 24 10
0.152355589440137 0.157400884564951 -0.7661453004958795 53 25 11
0.16344435806387497 0.15217168916880075 -0.7707557569513034 55 27 13
0.16310483390849087 0.1524767500125994 -0.7740310911200873 55 27 13
0.1606346855587141 0.1538639126109675 -0.7782437425261032 56 28 14
0.1604317556477485 0.15409997976927928 -0.7814679378115439 55 27 13
0.15909437544846977 0.1549124188705789 -0.7851960900021089 55 27 13
0.15394964923651605 0.1576594995911802 -0.7906219649091824 55 27 13
0.16454266613080046 0.15241042307935215 -0.7890473263093262 56 28 14
0.16640468881846143 0.15159701641167675 -0.7913459977821503 55 27 13
0.16593473002143636 0.152367626669963 -0.8040904301273746 63 34 18
0.16348236129347837 0.1537480155621654 -0.8083484393586813 63 34 18
0.16550115616823372 0.15285439861815536 -0.8105642646294047 61 32 16
0.16713360309646175 0.15215708234019948 -0.8129519921565057 62 33 17
0.16678388313276907 0.15246818985532093 -0.816252280698933 62 33 17
0.16765388868200445 0.15215865493385194 -0.8189884488709521 58 30 15
0.17135112533311683 0.15040995747188074 -0.8204038174922342 57 29 15
0.17569218273903128 0.1483329728468972 -0.8215052316038882 58 30 16
0.18081729618993028 0.1458561456025995 -0.8222231553825324 60 32 18
0.1749113723525742 0.1489960518439128 -0.8281307050116723 61 32 18
0.17730200666686405 0.14791132061536252 -0.8301295755810967 62 33 16
0.19351939255988973 0.13978289922026121 -0.8255422974206345 61 32 14
0.17437345033214605 0.14966889774582914 -0.8377871222687882 63 32 14
0.1786950390341673 0.14759987328069973 -0.8388516668804235 65 34 16
0.18244128354136568 0.1458234389939658 -0.8401783779581197 71 36 19
0.1824308062247729 0.1459613349344305 -0.8433078116658292 66 30 15
0.1831144466472563 0.14574542907913957 -0.8461018759091938 63 28 11
0.1849705941704619 0.14493163757096733 -0.8483237303170422 63 25 11
0.18726437366609489 0.1438944351286743 -0.8503260394615197 66 28 9
0.18616029908365897 0.1445899462876881 -0.8539884030635847 76 38 14
0.1907591874091887 0.14237653048446014 -0.8548471318651649 83 43 17
0.19411129470130273 0.14079853962594083 -0.8563064330093734 84 47 20
0.19441979260221168 0.14077314078290393 -0.8592650506767999 89 59 35
0.19399870283157747 0.1411200942124332 -0.8625872756774269 91 64 43
0.19357274390847418 0.14146965514872747 -0.8659148143831953 92 65 44
0.19387111619693465 0.14144956081493937 -0.8688817028749868 92 65 45
0.19065381664832526 0.14322453902967405 -0.8736199128368191 90 65 42
0.19065917319097944 0.14335437406086599 -0.8767419281177046 90 65 44
0.18818736882236697 0.144749469466995 -0.8811224626157319 92 67 47
0.1863290036700752 0.14583165179984992 -0.8852010861588187 89 64 44
0.18150771026692242 0.14842796733391728 -0.8908028715380948 86 61 41
0.18039748063040006 0.14912880103904472 -0.8945197154326645 84 57 37
0.1756000722619372 0.1517142612611805 -0.9001410552568286 82 54 33
0.1751908615653003 0.15205753127033667 -0.903513438054655 83 52 31
0.17467551476172893 0.15245518231326288 -0.9069437467551795 79 45 24
0.17738533246715743 0.15120392717106781 -0.9086980901943061 83 50 27
0.17751419243351696 0.15127216018845305 -0.9117922407519391 93 61 37
0.17744092615043205 0.15144380951297037 -0.9149932346665961 96 66 43
0.17840826362455017 0.15108321128982344 -0.9176481562041302 95 67 45
0.17632169731143787 0.1522849679567347 -0.9219138038129913 90 62 41
0.17682633492427205 0.15216118316934674 -0.9248151147274052 82 53 34
0.17667556345419125 0.1523728025293323 -0.9280645050281742 80 51 36
0.17590883886294553 0.15289978712081267 -0.9316446166358008 65 35 23
0.17538672848834086 0.15330172202550277 -0.9350979067562267 53 23 12
0.1779801979477887 0.1521085436339592 -0.9368795294867918 46 17 7
0.18831047005218982 0.14695295409855103 -0.9344787073218835 48 19 11
0.1779069937973182 0.15241527596019633 -0.9432651852554097 49 21 11
0.18852123720625716 0.14711268204960293 -0.9406738881016545 49 21 10
0.18398852794876513 0.14956890895641708 -0.9463013951386265 54 26 12
0.1831425393910664 0.15013675059686954 -0.9499305298884568 68 41 24
0.1848925225442339 0.14937433495442307 -0.9521391516187461 67 41 25
0.19223966578043666 0.1457426709011054 -0.9512593657504766 70 44 29
0.19055906028520475 0.14673810329004208 -0.9553430068298367 81 59 46
0.19226442895788243 0.14599771633156416 -0.9575564033958345 86 67 58
0.194149685500634 0.14516486049147628 -0.9596645608140194 85 66 60
0.19531504101642982 0.14470100032317978 -0.9621689057878274 87 70 65
0.19727236042971824 0.1438307415833858 -0.9642264198400475 94 79 71
0.19884486084260128 0.14315766260744162 -0.9664941869484069 91 76 71
0.20143319111570168 0.1419631153795374 -0.9681842860782216 91 75 70
0.20379675752420753 0.14088356300432373 -0.9699931048857645 96 79 72
0.20559827519999777 0.1400921911149758 -0.9721134618209193 99 85 76
0.20729847835696055 0.1393525990060382 -0.9742860298856341 93 79 70
0.20945627217886315 0.13837782956598546 -0.9761918581143867 89 74 66
0.2120941838833557 0.1371562030371913 -0.9778154116000521 94 77 70
0.21407703332338016 0.13627066799193344 -0.9798072443324221 98 81 74
0.21484513277999237 0.13600890163053603 -0.9824942565994501 97 80 73
0.21754585643152338 0.134754097327892 -0.9840600821647363 96 79 72
0.21938793210005866 0.13394014995898265 -0.9861160009520133 100 81 74
0.22076705483447093 0.13336389795750148 -0.9884361783288066 104 85 78
0.22199499414815932 0.1328651926915892 -0.9908408653012413 101 82 75
0.22322175416300558 0.1323669510745111 -0.9932428821676133 86 65 56
0.224592172621405 0.13179469802804075 -0.995556947445915 81 55 38
0.2253971398951951 0.13151307871885157 -0.998201141173677 78 45 24
0.23383665334726 0.12730448017605314 -0.9963189155502178 76 41 17
0.2376648641179542 0.12546681291228112 -0.99714749703861 75 37 14
0.2359702865784248 0.1264701771593369 -1.0012569832781706 71 33 10
0.23698982566551743 0.12607717892248319 -1.0037501616308515 68 28 6
0.23618727096497433 0.12662187410913472 -1.0073345616710623 72 31 9
0.23681260938590465 0.126431725242062 -1.0100634477552246 71 30 8
0.2392954903442061 0.12528518095788338 -1.0116690587313044 71 30 10
0.24028245540113943 0.12490857799636762 -1.0141730687532966 69 28 8
0.242781039032026 0.12375337284340719 -1.0157556073758343 69 28 8
0.24520319064263824 0.12263718654989138 -1.017376497528919 73 33 12
0.24507136004175128 0.12283640181997023 -1.0205519261748157 72 32 11
0.24571419267095929 0.12263654646233134 -1.0232537524170235 73 34 12
0.246574967435333 0.12232432901632606 -1.025820252935483 74 36 12
0.24532069555478597 0.12310215634304776 -1.029690913964158 77 37 12
0.24326962642976058 0.12429099096317238 -1.0340613017104654 84 47 21
0.2440696466764674 0.12401025350458054 -1.0366692369598227 89 56 30
0.24745667644806024 0.12239542223759768 -1.0376628886018078 95 64 38
0.2467271767944282 0.12290316271215243 -1.0412186499297633 97 67 42
0.2485623576759456 0.12208815447095082 -1.0431700601642218 96 68 44
0.24816656545942206 0.12242387400392554 -1.0465192039600963 96 68 44
0.24794524642690918 0.12266968815841539 -1.0497610946108797 97 69 45
0.24808815941016704 0.12272762557052758 -1.0527746194959933 97 69 45
0.24380631463366292 0.1250694379566522 -1.0585980505091488 94 66 42
0.24371984391255913 0.12524621793978455 -1.061767715736089 91 63 39
0.24402798893468597 0.12521932247323483 -1.0646869885248849 89 60 39
0.24368905585240544 0.12552658155779373 -1.068020951501928 87 60 38
0.24380309162185126 0.12560000388580017 -1.0710664784479385 85 59 39
0.24234240350866548 0.12648690349175692 -1.0751278281236232 85 60 39
0.23207102796302068 0.13192607142847418 -1.0848918088264294 81 54 35
0.23602460259404345 0.13001660509263646 -1.085473630593208 68 43 28
0.23965008505620666 0.12827610691900337 -1.086254864411035 60 37 26
0.2430196471419344 0.12666735256480735 -1.0871903315261102 37 18 9
0.24672314350664704 0.12488546733340719 -1.0878956353092537 38 17 11
0.24745756766473315 0.12463819653583652 -1.0905360038188807 44 21 13
0.2543027842580715 0.12123075846139758 -1.0891535950346414 48 23 12
0.25100796953472 0.12306684736263741 -1.0944383774714141 53 25 11
0.24142998464662024 0.12815381353675434 -1.1038963180087547 59 29 12
0.24263021102608778 0.12766596536563057 -1.1062373532174474 69 34 11
0.24378050303525692 0.12720381560609106 -1.108608316387094 78 39 13
0.23902344154317676 0.12979886144132077 -1.114920829942128 80 44 13
0.2409964503797205 0.1289110712248093 -1.116746036069664 88 49 18
0.242804670580288 0.12810832561971439 -1.1186755977550358 93 58 28
0.2442068617475169 0.12751557792729637 -1.120872968012504 98 66 40
0.24540254823504076 0.1270295996164199 -1.1232057270733014 95 67 44
0.2471129942451879 0.12627685677116576 -1.12518643837095 96 66 44
0.24469856236033005 0.1276607446074786 -1.129964366797525 93 65 41
0.24948646695645532 0.12531338703578143 -1.1298455877027915 90 62 38
0.25054413961758554 0.12489832494091306 -1.1322584311097732 86 58 34
0.24913818996917583 0.12576001321659022 -1.1363567292740278 86 58 34
0.248692939404273 0.1261239917068833 -1.1398016428219429 86 58 37
0.23511043608918036 0.13329916836116792 -1.1523033820795403 86 59 39
0.05092067132099208 0.16614541166741006 0.1185518985092522 150 140 135
0.059772940870060624 0.1619866446617781 0.11487068102289216 131 111 101
0.07168619576725432 0.15634534951996754 0.11097063607026805 139 111 97
0.08207183858851727 0.15144184848115705 0.10722895937028329 154 124 102
0.09288633285883563 0.14632936141806563 0.10348695862578328 103 65 38
0.10131614241063294 0.14236998480726248 0.0999596207193258 82 41 15
0.0939654524289841 0.14605078085649 0.09762681772304181 65 30 14
0.09381202973802055 0.14624705672199081 0.09474785910516147 57 27 10
0.09012223025768397 0.1481562873031777 0.0921174466995699 55 25 9
0.09279924787962357 0.1469817929666474 0.08903382069815059 55 23 9
0.09234861562838335 0.14732232286829905 0.0861688489730287 54 22 8
0.09221248500930702 0.14751056521687642 0.08328056126406674 54 22 7
0.09181732566127693 0.14782440967107233 0.08040731711013477 54 22 7
0.09189013188624255 0.1479115302834628 0.07750236962146602 54 22 7
0.08506298908441082 0.15134362602167015 0.07501676100134541 52 20 5
0.08487449471295133 0.1515579914476183 0.07211416847080282 49 18 3
0.08451226692199855 0.15185667734787434 0.06921982337960741 49 20 5
0.08473570198070961 0.1518714240350958 0.06629036046721637 50 21 5
0.08456658107999838 0.15207659908437213 0.06338181512826241 53 23 6
0.08445608101791502 0.15225340760054962 0.06046847912713334 50 22 4
0.0841956202179077 0.1525030398136137 0.057561286996808673 48 21 2
0.08233453543370164 0.1535294800219456 0.05473115191443511 49 22 3
0.08108853700164066 0.15425770608223272 0.05186436987771364 50 22 4
0.07953893741439776 0.15513352253447188 0.049006328220392754 50 21 5
0.07813706975343195 0.15593788353313598 0.046135460091136525 50 21 5
0.07986959440543093 0.15522061216371347 0.04312465440319914 50 20 4
0.0829260950679066 0.15386021143579992 0.040063923071586224 50 21 5
0.08177891944261546 0.15454107650742138 0.03717818431204182 51 21 5
0.08395539024850644 0.1536076888991991 0.03416169610980437 50 21 5
0.08596490294588124 0.15275515816023968 0.03115728605142123 49 20 4
0.08658950095926468 0.15257531125745277 0.028206209671115173 51 19 4
0.08697393725574969 0.15251213467183675 0.025263945234035787 50 18 4
0.08417589789206038 0.15399572836989128 0.02242122918387404 51 19 6
0.08448859846743895 0.15396763463743918 0.01947605925176562 49 17 5
0.08413516943249195 0.15426339731719724 0.01654937580944576 49 17 5
0.08249707670379672 0.15518391107194496 0.013654125359274377 49 17 5
0.08057676994543404 0.15624194569268068 0.010759240941234274 50 18 5
0.07859514305941312 0.15733012254976775 0.007858242926851002 51 19 7
0.08370096077160687 0.15497095102232197 0.004798487035570016 51 21 7
0.0841746078649969 0.15486474920833967 0.0018455263013885728 50 21 7
0.07906906947153258 0.15747329569756616 -0.0010066390652059979 48 19 5
0.07946479571418967 0.15740537074634192 -0.003966763154303591 48 19 5
0.0816464125343146 0.1564681961328402 -0.006952944145913988 48 19 5
0.08169711147125304 0.15656809219133228 -0.00990531554181405 48 19 5
0.0825391796098761 0.15628273761237163 -0.01286766684782406 48 19 5
0.08363632583009901 0.15587310674116905 -0.01583085655230631 47 18 4
0.08328263718380649 0.15616994036799503 -0.018779917248072646 48 19 5
0.08344043289134609 0.15621773958526286 -0.021734575280914544 50 21 7
0.08283564121988637 0.1566370596750243 -0.024686290188072127 50 21 7
0.08255667651947846 0.15689776476967604 -0.027642174746629992 47 18 6
0.08291524105545986 0.1568478969553169 -0.030601030503740127 43 17 4
0.08363742846573254 0.1566208128227711 -0.033559753493517926 43 16 5
0.0839884714109992 0.15657458352985046 -0.03651796696908242 42 16 6
0.08482455269324156 0.15629189768563095 -0.039474419766404645 40 16 7
0.07930237841096699 0.1591092450099474 -0.04246292901687256 39 16 8
0.07801148470834109 0.15986407146922527 -0.04544156577357406 40 16 6
0.07860968838479712 0.1596977940449578 -0.04840937637080128 39 16 8
0.07932289626054574 0.1594753849258406 -0.05137518054022502 36 16 8
0.08536029223081427 0.1566555042840919 -0.0542760268303735 39 17 11
0.0827363998458297 0.15806086722694268 -0.057276055720729586 42 18 9
0.09607085388167594 0.15180352034827133 -0.0629902612847926 63 44 36
0.11996912746590707 0.1402624290207599 -0.06549409422077629 99 83 77
0.12314986326866822 0.13883243320219163 -0.06834040886375523 74 52 45
0.12923682231092481 0.1359829960393496 -0.07111325815756701 100 78 71
0.13273291541669255 0.13439798893195137 -0.07392823315121275 131 113 108
0.1412278040775119 0.13037103453641186 -0.07660586454180279 121 103 96
0.14182748021631947 0.13019964825123315 -0.07946962852671738 81 58 47
0.14556814345822783 0.1284936663857616 -0.08224233094750788 56 24 11
0.1376062643687569 0.13250541909386812 -0.0853592911223689 53 21 8
0.1408890493593558 0.13102306843875922 -0.08814349388884782 52 22 8
0.14167973190590527 0.1307583706571407 -0.0910019268913996 52 22 9
0.1429897719258241 0.13023972491000116 -0.09384044799804162 69 42 31
0.14579444859295757 0.12899019325974898 -0.09662024575165361 101 79 71
0.15145354815041662 0.12634454283029067 -0.0992810333196199 98 74 66
0.15405960935337462 0.12519124308647475 -0.10204749483932492 104 77 67
0.1601045147582641 0.1223555909422177 -0.10466136391801889 120 91 78
0.16499296387985918 0.12008486389005887 -0.10730672146471058 120 93 77
0.17435206214975496 0.1156261410012593 -0.10973324212241915 113 85 73
0.17891259336743945 0.11351426544380228 -0.11235588917512118 131 105 96
0.18275179375408546 0.11175481605559962 -0.11499956136114477 165 146 136
0.186306860233842 0.11013394635634595 -0.11764578603835876 141 118 110
0.18880079349439388 0.1090320992951754 -0.12033660214773863 120 89 72
0.18574326614893696 0.11064807557723627 -0.12331962835398774 98 60 32
0.1876615779463412 0.109827887548782 -0.12603725013396566 82 41 14
0.19023656940677058 0.10868585352761034 -0.12871187267377818 66 27 3
0.1901828075563098 0.10883116377443701 -0.13153405679360308 65 29 10
0.18612519738354233 0.11093805275056225 -0.1346005993163218 65 30 10
0.18818800194009902 0.11004668152764666 -0.13730009509476865 62 27 7
0.18579953502926783 0.11133641924521613 -0.14027900790500875 61 26 6
0.18886155525930667 0.10995513254816078 -0.14290860229897803 64 30 11
0.1879063662550747 0.11054267245395405 -0.1458000049356897 64 36 19
0.1871069860201512 0.11105400856900968 -0.14868499195002355 62 40 27
0.185515039615323 0.11195413193983711 -0.15162997410787182 63 42 33
0.18421646184085091 0.11271065985342177 -0.15456019546528643 63 44 37
0.18189564935162772 0.11396880814013516 -0.15757184832874263 63 44 37
0.1795801727483995 0.11522471888191363 -0.16059209942118166 61 42 35
0.17991694476918865 0.11517975141396022 -0.16341542105012236 60 41 34
0.17842307351085784 0.11603307289969067 -0.16638397394288806 60 41 34
0.1788961572939341 0.11592133866269719 -0.16919934465281147 61 42 35
0.17142528295011894 0.11970879139204564 -0.17267147770508542 61 42 35
0.1726283486788333 0.11923923113921028 -0.17543777555072781 58 39 32
0.17337262487095523 0.11899480432610944 -0.17824064478337356 58 39 32
0.16712387603057538 0.1221842755063653 -0.18165634610567616 59 40 33
0.16839037158397313 0.12168375804210554 -0.18442158146064883 58 39 32
0.16636626025591247 0.12279944715869578 -0.18748387821428897 57 38 31
0.1643366885876551 0.12391815819387106 -0.19055472460520007 58 39 32
0.16207277399818212 0.12515235212839215 -0.19365581528314174 57 38 31
0.16106452241455094 0.12576987024368122 -0.1966447968161294 55 37 29
0.1603144036472059 0.12626071362363953 -0.1996130616879647 55 37 29
0.1554743216529375 0.12876216683131642 -0.20299304084490258 56 38 30
0.15485447740692937 0.1291895716108047 -0.20596249912698228 55 37 29
0.16752232526851546 0.1230835332494504 -0.2075643615439188 55 37 29
0.15571238189029774 0.12962775210749436 -0.22625117245365894 54 37 30
0.15455656802420514 0.130319698617111 -0.229299727354224 54 37 30
0.14833763681132844 0.13350432798587605 -0.23294501749831711 56 37 31
0.14918462229476956 0.13321099240297324 -0.23577504839904875 57 37 30
0.14042318236995815 0.13777335034988725 -0.24270535364818877 58 38 31
0.14710422869262402 0.13460687872053573 -0.24482643987507738 57 37 29
0.14082140469968998 0.13782602061824606 -0.24855168643320674 55 35 27
0.135372093492886 0.14063543967664688 -0.25219370939696806 54 36 26
0.14124366711293612 0.13786692854977906 -0.2543969183663611 53 35 25
0.14773676551803644 0.13479129267890033 -0.2564999924549046 54 36 26
0.1460024568648205 0.13577030645861887 -0.25967031700886944 57 38 29
0.14562759865312894 0.13607940824114026 -0.2626656099545135 58 38 29
0.1454755080540917 0.1362787730214114 -0.26563313935109395 58 38 29
0.14445288396753608 0.1369075120633661 -0.2687220272660143 56 36 27
0.14385181011300838 0.13732853219479563 -0.27175695346165524 57 39 27
0.1426025474983431 0.1380694371862768 -0.2748864581303426 54 36 24
0.1398659446422906 0.13954437766489297 -0.2782335656954394 52 34 22
0.13935451708437743 0.13992177770378098 -0.2812701222756672 50 31 20
0.13590144349063163 0.14175103982049533 -0.28473928683955085 49 29 18
0.1369764723248865 0.1413458527998952 -0.28755237483864604 45 25 16
0.13734815824458707 0.1412877701886126 -0.29046810456575234 42 22 15
0.13760439622461262 0.1412866840237478 -0.293401206194184 41 22 13
0.13758903832543112 0.14141972590064128 -0.29637616229485897 55 33 20
0.1398287769266841 0.14043908214229794 -0.2990035296009065 47 26 14
0.14166412432088 0.13965791086616267 -0.30168760666751954 55 36 28
0.14345375112539727 0.13889910923167798 -0.30437376465108046 64 46 38
0.14325764679221356 0.1392465347091695 -0.31034121107889606 50 21 10
0.1432946148390704 0.13935361208145577 -0.3133051830262694 53 21 9
0.14780642571230496 0.13724875631830624 -0.31553157253187847 57 26 13
0.14875515371194267 0.1369048342432764 -0.31833784954205047 59 30 16
0.1459163489575745 0.13843360885721748 -0.3217803561399803 59 30 16
0.14745490920258753 0.13779809530334955 -0.32448858295930105 64 36 20
0.14687571061624338 0.13820986494452803 -0.32755692644518375 69 42 26
0.13566122923151974 0.14426176201228771 -0.3414545866513241 37 21 14
0.13325377003396485 0.14557980187438915 -0.3448847829239137 48 28 16
0.1291916236985765 0.14771739327588168 -0.3486264093135847 47 26 15
0.12269848362170223 0.15105926575843376 -0.35283107024215155 47 26 15
0.11718870566698095 0.15391518870058732 -0.3568767342070847 47 26 15
0.11992456048758846 0.15268818382930943 -0.35939558071529004 47 25 14
0.12939887704432557 0.14812299635589374 -0.3606299784501281 38 20 12
0.13173260494880082 0.14709401425782867 -0.36319733155519596 24 11 5
0.13189883634664884 0.1471387075843478 -0.3661758073453925 34 18 11
0.1320649306979307 0.14718349572985542 -0.3691549472714768 54 34 25
0.13223109902874455 0.14722827414908946 -0.3721347110012125 50 29 17
0.13239723591132027 0.14727309510346903 -0.3751151194197997 48 25 15
0.12794506319592486 0.1496076175978766 -0.37901911370500513 43 18 10
0.1342854270402511 0.14659130750050509 -0.38076419387277516 47 23 13
0.13024513721219785 0.1487221853157229 -0.3845991303763288 49 25 13
0.13453363155093662 0.146722607456008 -0.38674129092106174 58 35 21
0.13909678907375808 0.14458619425427355 -0.3888128690159869 67 44 31
0.14418484506255183 0.14218873010472788 -0.39076022007471567 60 32 21
0.14907526892891773 0.13988863579794605 -0.392732552055251 57 27 16
0.15022395872872546 0.13944488715983971 -0.39548253986751525 56 26 15
0.15828611114040686 0.13556936787520596 -0.39675137593440124 56 28 15
0.1605138299265011 0.134589190775497 -0.39925100476760145 61 28 16
0.16503252575648825 0.13247121844951043 -0.401246112275936 64 26 14
0.16929133238491398 0.13048168779789995 -0.40328352096508824 79 44 31
0.17527112893461005 0.1276368162146143 -0.4049271179425488 95 71 59
0.17914815625280556 0.12583564428246036 -0.4070190112779892 116 94 82
0.17967879340352588 0.12569649026735433 -0.4098492787577263 82 51 34
0.18428167152272643 0.12353384978941565 -0.4117580897925568 75 37 19
0.1855550858929165 0.1230252033844019 -0.4144106109684947 68 28 9
0.17838730957867785 0.12671201896163078 -0.4189981858073216 68 28 8
0.1805607785984336 0.12575629286988826 -0.42145072318757065 71 34 11
0.18013062460050963 0.12609478325413165 -0.42450383751117227 74 35 12
0.17875827272522996 0.12690190703695667 -0.42778099248612383 73 35 14
0.1780409294840597 0.1273835260641089 -0.4309091616654216 73 39 16
0.17370441002137957 0.12966551798545334 -0.4349039693476719 75 44 26
0.18032890711492294 0.12649526805868502 -0.43628254591987053 77 49 34
0.10775783726258156 0.1631197501579867 -0.4660694725717673 68 45 27
0.1079341801334266 0.16316246129428125 -0.4691177417419443 68 40 26
0.1092556165898535 0.16263502112141848 -0.4718794847297863 67 38 21
0.10890227637232353 0.16294148588240143 -0.47506076911772926 68 39 21
0.10900801032355104 0.163019400532428 -0.47812781414583916 71 42 24
0.10752277117702806 0.16388990420347846 -0.4816031590454464 66 37 20
0.10972528967338893 0.16292333160076186 -0.4841341397539514 52 23 8
0.11034228201375071 0.16274655826541484 -0.4870702169028818 51 22 9
0.10869180828681796 0.1636998042403888 -0.4905980591538808 53 23 11
0.10598006685300297 0.1651823434863413 -0.4944122924824814 56 24 13
0.10669224577881015 0.1649584184214467 -0.49733029628385206 54 22 11
0.10822975402690818 0.16432292797453585 -0.5000269229563538 55 23 12
0.10937744843748223 0.16388165263733961 -0.5028240192334821 56 24 12
0.11061682762923421 0.16339453077401928 -0.5055935315652732 57 26 8
0.11209146275395676 0.16278992434762307 -0.5082959148958622 62 31 13
0.11226291193216602 0.16283531409996307 -0.5113511426913611 65 34 16
0.11231949786848151 0.16293804583328508 -0.5144386811278513 64 33 15
0.1125246557073668 0.16296667724181246 -0.5174860777927045 62 31 13
0.11093745926476983 0.16388994607440419 -0.521034317913263 59 28 10
0.10942102154763714 0.16477818370075195 -0.5245695946749543 63 32 14
0.10914191471540385 0.1650489300298905 -0.527761755239261 65 34 16
0.1098817424663956 0.1648109633512373 -0.5306663238972069 65 33 15
0.11112182873365173 0.16432309571729264 -0.533426330682133 68 35 16
0.10798436755789076 0.16602169736479994 -0.5374440703292047 68 36 15
0.10827313193103325 0.16600915396780394 -0.5404812935774888 67 35 14
0.10874882623090283 0.16590322061042048 -0.5434642546792221 68 36 15
0.10921195916771015 0.1658035467948507 -0.546450480636542 69 37 16
0.11186013343618313 0.1646117626545192 -0.5487913809903312 73 41 21
0.11114176372071569 0.16510250236755264 -0.5521238029759628 75 42 22
0.10955167926151747 0.1660292229402746 -0.55572048013072 75 42 23
0.10865932679304152 0.1666073495529307 -0.5591144315169062 74 40 21
0.10895064777744778 0.1665937020205281 -0.5621550151181062 74 39 19
0.10920575242881031 0.16659817933719703 -0.5652068512025362 74 39 19
0.10626210970279848 0.16820286937868265 -0.5692375121351911 72 37 17
0.1069341692934553 0.16799900312127322 -0.5721675228356178 72 37 17
0.10669327845609614 0.16825193770931984 -0.5753789402463672 72 37 17
0.1064520089276978 0.16850515248822587 -0.5785926236754884 69 34 14
0.10649689272232918 0.16861522121696915 -0.581718877798709 67 32 12
0.10655022694157489 0.16872110690192374 -0.5848435977314753 68 33 13
0.10697371619692106 0.16864169816243296 -0.5878522104000019 73 38 18
0.10685441379977101 0.1688341025568603 -0.5910334329569882 77 42 22
0.10766613598690888 0.16856026414703532 -0.5939182371448519 72 37 17
0.10729655086263862 0.16887811920315024 -0.597181819869465 70 35 15
0.10779370022399531 0.16876183858411992 -0.600167359114874 67 32 12
0.11127293048588474 0.16715124646616153 -0.6021814032697945 67 32 12
0.11148079997732421 0.16717967496923175 -0.6052553043465172 67 35 14
0.1107420337916195 0.1676826195977783 -0.6086413872704123 67 34 14
0.11015717717001944 0.16810857331351683 -0.6119804739369532 69 36 17
0.11017354577243368 0.16823321996569393 -0.615122866403177 70 38 18
0.10989820851859493 0.1685042003097351 -0.6183640998862949 71 38 18
0.10876727964838252 0.16920439529704626 -0.6218954470121933 70 38 17
0.10763426583540935 0.16990586281173303 -0.6254328701298963 69 37 17
0.10956395201474667 0.1690710079703311 -0.627934318648196 68 35 16
0.10727298967116658 0.17035372500485238 -0.6318727902751494 66 33 14
0.11295047593617502 0.16763788022782533 -0.6330827068302768 65 32 13
0.11391678928217877 0.16728588607834471 -0.6359007858545921 65 32 13
0.11467350628563458 0.16703901722882783 -0.6387894502518605 62 29 11
0.11550155439670065 0.16675627390921258 -0.6416517804023111 60 27 11
0.11280036698084286 0.16824568171406046 -0.6457506271233867 59 25 11
0.115195606842318 0.16717597200335882 -0.6480632715867954 58 26 11
0.1103627259731422 0.1697366905506562 -0.6529306380229163 55 23 8
0.11039231700535115 0.16985537475459997 -0.6560844384608217 53 21 7
0.10806369525613685 0.17115901760112184 -0.660083865167234 54 23 10
0.11068351279738867 0.16997629926931418 -0.6623121295212412 57 28 14
0.11078982260041206 0.17005655744640744 -0.665441351621329 55 26 12
0.11090927111496603 0.17013024977283991 -0.6685667179490201 54 25 11
0.11046060901192034 0.17048960573613356 -0.6719005045399223 54 25 11
0.10957530191875617 0.17106864930295046 -0.6753975367823026 54 25 11
0.10687058811834604 0.17256289839504332 -0.6795703731204299 55 26 12
0.10418905093229666 0.1740459594795616 -0.683745746105407 53 24 10
0.10868458994971948 0.17191889705823207 -0.6852580758002088 53 24 8
0.11654800776992791 0.1680966551072065 -0.685494433437767 52 23 8
0.11996330471200282 0.16651167191644647 -0.687377003746865 52 23 7
0.11510071729119478 0.16909250109759197 -0.6923778437963276 52 23 8
0.11173869551714466 0.170918778137162 -0.696827675594473 52 23 8
0.1165746121123471 0.16861832352611553 -0.6981620628713174 53 24 8
0.1210484755841475 0.16649948692226424 -0.6996190028974294 55 26 10
0.11132283792355038 0.17153102820942784 -0.7065323418442196 54 25 10
0.11689043405774072 0.16886111942722323 -0.7075617409755172 56 27 11
0.11163271013957754 0.17164381400412865 -0.7127828547345909 56 27 11
0.11114045698902723 0.17202633484873447 -0.7161621549682956 56 27 11
0.12467625709038507 0.16534000175424504 -0.7140369396080454 57 29 12
0.12681206463125477 0.16439717602851625 -0.7163602530313826 55 26 11
0.1268110890229923 0.16453116867172116 -0.7195238121389448 54 25 11
0.12768816249880818 0.16422254917804935 -0.7223391384920738 54 25 11
0.12828584081752673 0.1640547280000483 -0.7252643049306841 54 25 11
0.12776013128568675 0.16445339801215725 -0.7286399155844563 54 25 11
0.1302204737959227 0.1633460982649399 -0.7308136557252818 54 25 11
0.13212440250040938 0.1625191610899551 -0.733205278287379 55 26 12
0.1348680388756888 0.1612683232213045 -0.7352492805762196 55 26 12
0.13596604956293315 0.1608475193330881 -0.7379577187605395 53 24 10
0.13610820717341227 0.16090900990187712 -0.7410562033784563 52 23 9
0.1375845670647306 0.16029707261116602 -0.7436048053120832 53 24 10
0.1360252104491168 0.16121752608473053 -0.7474078109594823 51 23 9
0.13711166101228306 0.160802350895566 -0.7501161283273305 51 23 9
0.1366336243939683 0.1611771273704173 -0.7534760947676196 53 24 10
0.12888632160504146 0.165223569326184 -0.75989274326523 53 24 10
0.14697802680407965 0.15635135657954247 -0.7585833014467447 52 23 9
0.1424872405223787 0.15888664498672447 -0.7667983682605091 52 24 10
0.14631966613101488 0.15708277362609296 -0.768311275365475 53 25 11
0.1604636130229119 0.15032950374817358 -0.7716224653217044 54 26 12
0.16207977335639867 0.14964419693220954 -0.7740469550500141 56 28 14
0.15913079742872355 0.15126798201475206 -0.7784684706390688 57 29 15
0.1570352786820997 0.15246049063895703 -0.7825263730913145 56 28 14
0.15402017670400245 0.15411869785839835 -0.786999915271043 55 27 13
0.1509447666247006 0.15580795107586506 -0.7915126708920817 55 27 13
0.1566718405194047 0.15304223264898828 -0.7921134795226656 55 27 13
0.16147081182559322 0.1507455217108073 -0.7931099539556475 56 28 14
0.16450816753170427 0.14934005971520417 -0.7948819315149629 59 31 17
0.16661421229413861 0.14840579344484897 -0.7970643754079687 62 33 17
0.16690238025273724 0.14852412079213095 -0.8031955660557115 64 35 19
0.16983144097855657 0.14717237239092615 -0.8049897283686402 63 34 18
0.16690199945124068 0.1487887891662091 -0.809462227209563 64 35 19
0.16707038889705142 0.14883577160678677 -0.8125198607815824 66 37 21
0.16919327980298798 0.14789210962583593 -0.814674208683683 65 36 20
0.16984792544661054 0.1476924912524184 -0.8175037861024105 57 29 14
0.17048138127300272 0.1475035692739964 -0.8203421205855408 57 29 15
0.1774011373555885 0.14412680563400504 -0.8202369781922781 58 30 16
0.18001364364123026 0.14293356676159433 -0.8221315439196547 58 30 16
0.16992875728502957 0.14818084106025528 -0.830008140642722 61 32 17
0.17791012551542978 0.1442640635070717 -0.829366569372776 62 33 17
