ply
format ascii 1.0
element vertex 695
property float x
property float y
property float z
property uchar diffuse_red
property uchar diffuse_green
property uchar diffuse_blue
end_header
0.18942012077365714 0.1888295047031645 -0.13343664169084507 76 37 14
0.19802102550488454 0.19540209828901722 -0.13546083227386113 72 37 15
0.19309300225241016 0.19177947768863324 -0.1387329089581546 69 37 17
0.19307246794636831 0.19185504325766206 -0.14155139717669543 63 34 16
0.1947349993765605 0.19319864940284442 -0.14420552689449723 62 36 23
0.1924882001051405 0.19159708349785906 -0.1472464153518293 63 40 31
0.189905704136056 0.1897429608105923 -0.15033125059889058 64 42 31
0.18973495323884623 0.18970572774438077 -0.1531760478165933 62 43 33
0.14220975862769025 0.1540039015667182 -0.16104044497346534 62 44 35
0.14779089606253007 0.15830133276843433 -0.16335841852970268 62 44 36
0.1530833489003674 0.16238072972096845 -0.16568799933580192 62 44 37
0.165365490896724 0.171722456014113 -0.16721803831229498 63 44 37
0.239003304417733 0.22725718290908092 -0.16173394995308862 63 44 37
0.17939848522512297 0.18247316003331673 -0.17135737300390527 61 44 36
0.1906771605611257 0.19105572522407496 -0.17288831876667948 59 42 34
0.14274223394577926 0.15506616080405072 -0.1814411402813854 59 42 34
0.1424020629702954 0.15490474234606194 -0.18440945311031176 59 42 35
0.15496138688710615 0.16445141452210815 -0.1857921965197363 60 43 36
0.15441479614461362 0.16413402288458512 -0.18876661460266772 60 43 36
0.15320797981525724 0.163319939332363 -0.19182807383846653 61 44 37
0.15623148529969666 0.16568895027504504 -0.19435027946997707 62 45 37
0.15864182510592223 0.16759631507179737 -0.19694225555562184 63 46 38
0.1712880762695136 0.1772036881196281 -0.19816828339631815 62 45 37
0.168624929364972 0.17529353121839203 -0.2014073035980972 62 45 37
0.14832920989002776 0.16012129394460362 -0.20706424045506436 62 45 37
0.15166026063963942 0.16272116234234757 -0.20953009736045736 62 45 37
0.15501646724029816 0.1653395740379715 -0.21198083160759737 62 45 37
0.16291752365315815 0.17137520025698036 -0.2137734583378269 62 45 35
0.16829602997636328 0.17551315839374865 -0.21590057777595517 62 45 37
0.17064585569000418 0.1773733843609073 -0.21845060734543698 61 42 36
0.17023616887519558 0.17715879742587143 -0.22140112952440436 60 41 35
0.16783426324087078 0.17544670277504537 -0.22465300622339593 61 42 36
0.1679530403892619 0.1756296409351238 -0.22753256765757107 61 42 36
0.16133880865308464 0.17075208298482436 -0.23144795185806435 62 43 36
0.15608494354483646 0.16689774859778383 -0.23517814677717735 62 43 36
0.151497434080165 0.1635448534514351 -0.23882468897887782 59 40 33
0.14460302243344517 0.1584591319780242 -0.242857994412723 59 39 30
0.13725895879010894 0.1530364594740092 -0.2469915737400625 58 38 29
0.13491585764619368 0.15137189998708395 -0.25033767488347347 57 37 28
0.1323947872374362 0.14957397517857057 -0.25372339111358577 56 36 27
0.13157964367459316 0.14905783199663042 -0.2568347665352677 57 37 28
0.12889940144323894 0.14714095122219448 -0.260265908596638 57 36 29
0.1325494114312911 0.1499787071155046 -0.2626257488269199 58 37 29
0.1347526635850581 0.15172956564000012 -0.2652229703313962 58 37 27
0.1362791689747118 0.15297200923707058 -0.26793125249848876 58 37 26
0.13871558613453305 0.1548975096110437 -0.2704739225335251 60 38 26
0.13864914451396249 0.15494362476147033 -0.27345581200748065 60 38 26
0.13849900567415535 0.1549269527822313 -0.2764542681253211 60 38 26
0.13901760922536613 0.15541233904496468 -0.27933235632344006 65 42 31
0.1399685950954353 0.1562222459311653 -0.28212982468805053 65 41 31
0.14089280725371364 0.15701197763208655 -0.2849297971410424 63 39 29
0.1363698874757042 0.153713684996132 -0.2887538010731709 59 35 25
0.13622860781481483 0.15370404252000824 -0.2917623719062777 56 34 21
0.13303115993561881 0.15140125464447185 -0.2953603923318879 62 40 27
0.13167819187158766 0.15048279903563905 -0.2986137172508876 67 45 32
0.1250164661511082 0.1455817798061197 -0.30291493342862036 64 43 33
0.1240096251304723 0.1449237250717375 -0.3061228522128018 67 48 40
0.12041501224109528 0.14232474413500812 -0.3098535699786733 75 56 49
0.11358400865010528 0.13729883452254044 -0.3142531621332056 83 64 57
0.1065811307820865 0.13214491916583537 -0.3187155204928402 80 57 45
0.11476054673153485 0.1383773251739556 -0.3200806448999537 67 39 24
0.14310735689581158 0.15973127447861724 -0.3172241320149362 66 37 22
0.1430236671324431 0.15976486402360954 -0.32022222624119334 68 40 26
0.14224119926270326 0.1592746113278149 -0.3233697717131442 69 40 26
0.14166769588686662 0.15894114833570713 -0.3264769099157505 70 42 29
0.13954463471896258 0.15744624883056274 -0.3299215441031045 73 47 34
0.13521215208217882 0.15429561344141407 -0.33385626484152975 66 40 32
0.1094847048484042 0.13511060523267132 -0.3425048624766486 35 14 7
0.1072913229209113 0.13356554902481485 -0.3460437248277113 43 24 16
0.10698575763795576 0.13343543926852977 -0.34917066158387644 66 45 33
0.11057069783024345 0.13622050312351297 -0.351423384046157 68 46 35
0.1142823123289235 0.13910006197373653 -0.35363456645213454 67 45 34
0.11596201630991482 0.14045696955590212 -0.3562982634572299 66 44 33
0.11389086561183603 0.13900395690181225 -0.3598237407859194 64 41 31
0.12034370860572255 0.1439359916668372 -0.3613713375156278 65 43 31
0.12374376137549621 0.1465808057053099 -0.3636126137229649 51 33 25
0.12520114795409895 0.14777035540850175 -0.36630230717632467 36 20 18
0.12914516560083988 0.15082185635173806 -0.36839324560929804 48 30 28
0.12885754390236723 0.15070433267684388 -0.3714895706278171 62 42 35
0.1330243758060927 0.1539220074281597 -0.37350625009700844 60 37 30
0.13364112998108252 0.15448141736218685 -0.37637710141929265 59 36 28
0.13113092703913318 0.15269997984061806 -0.3800185299532462 53 31 20
0.1269288951213776 0.14965252025908898 -0.3840918843217237 62 40 27
0.12461122337236101 0.14801600667975756 -0.38771045184208486 62 40 27
0.13143467562889866 0.15322104338651288 -0.3890294465084908 68 45 35
0.1376646035798616 0.15798109889141487 -0.39047405215984143 44 22 11
0.14330623552088573 0.16230019776974858 -0.3920464040118905 49 24 14
0.14291418825090207 0.1621041623642428 -0.3951579900843944 49 21 14
0.1491695130863736 0.166881423150383 -0.3965404357146322 47 20 12
0.16001470661248807 0.1750915313140069 -0.39669468003642416 50 22 13
0.14967645246977082 0.1674546715430097 -0.40240982258743146 56 27 17
0.14877470034540433 0.16687725111791263 -0.40565262242875233 61 30 17
0.14703202439178797 0.1656710639265805 -0.4091258794220687 75 46 33
0.1459584339308754 0.16496549882855843 -0.41242630604409014 98 74 62
0.14737690774170178 0.16612358832110768 -0.4150535025788628 93 70 59
0.15011651271993032 0.16826934836734808 -0.4173139430481509 91 64 49
0.17610432194495654 0.18779603690469487 -0.413142039830478 86 53 33
0.17990985790767294 0.19073655988912258 -0.4150409399777488 79 40 19
0.17439497255028472 0.18670952384170958 -0.41953771110332716 73 35 14
0.17833355755467106 0.18974919504600601 -0.4213898212048844 70 32 11
0.17680125634537566 0.18869955528393503 -0.42478216614110426 72 34 13
0.17674126981539356 0.18875043863498153 -0.42776048190132987 74 36 16
0.177856583863682 0.18967961801729583 -0.43040162400847426 76 41 21
0.17773409780138874 0.1896838198394047 -0.43339861380324074 80 49 28
0.1716578262092839 0.18523983763524565 -0.4381360983006485 82 54 38
0.15183725499455983 0.1705288009570638 -0.446940011756712 86 58 45
0.12085120070923712 0.1474797212618463 -0.4591285510907298 86 65 51
0.11582151531944182 0.14382238985331697 -0.46370631915432636 98 80 66
0.10498027207189 0.13582525191033717 -0.47004848574779334 107 87 73
0.10588929263081799 0.13660473354456848 -0.4728869266999881 98 76 56
0.10470161474767559 0.1358184423872489 -0.4763602594475109 98 76 58
0.10566184945701028 0.13663614744510286 -0.4791825029383312 95 74 56
0.09554581851764066 0.12918405354999812 -0.48541242263525036 96 74 56
0.09587640365284011 0.12953223778606396 -0.48844664332483917 93 70 53
0.09620698449024825 0.1298804174517828 -0.49148082321409403 93 70 52
0.09804120894196536 0.13135095084875636 -0.4940430629136083 91 69 51
0.0979086660620528 0.1313533745448317 -0.4972204378894345 92 70 50
0.0964209267990371 0.13034447967529392 -0.5008303006910217 91 68 50
0.09653625342316755 0.13053207446330345 -0.5039346942722344 88 66 48
0.09651839485650632 0.13062031719859318 -0.5070827585181259 87 62 46
0.08963019445103501 0.12558262407643828 -0.5124565807274944 86 60 44
0.09364503185678195 0.12867994078533024 -0.5143073111350848 88 62 46
0.0945403795194106 0.12944972447786862 -0.5171657544148929 87 61 45
0.09636873132085538 0.13091537093305605 -0.5197142612109223 84 59 41
0.0981728575289873 0.13236275474910492 -0.522264799428641 84 59 40
0.09857337614658282 0.13276316392851484 -0.5252778440735677 87 61 43
0.09984296587743005 0.1338116432859955 -0.527998805761792 91 66 49
0.10188818432966894 0.1354383492743408 -0.5304540419269893 92 67 50
0.10220337526961498 0.13577494605960752 -0.5334900972190699 91 65 45
0.10277193330361206 0.13630043438970568 -0.5364395941011497 92 65 46
0.10324771902834078 0.1367567327007529 -0.5394199828563411 89 63 46
0.10360460852581536 0.13712438633438684 -0.5424408497139568 89 63 45
0.10414470814149479 0.13762858700158973 -0.5453978662561377 93 67 47
0.10417580058255982 0.13775341413790598 -0.548531997638969 94 68 47
0.10406598218183286 0.13777327180511076 -0.5517168399768816 92 68 44
0.10374613789286023 0.13763668730010503 -0.5549776852476536 94 68 45
0.10471216927815152 0.13845825371569245 -0.5577837104243726 97 70 47
0.107731055755488 0.1408091256420762 -0.5598528467547725 97 70 48
0.1078100586362359 0.1409696077694614 -0.5629686474420227 98 72 50
0.10815405957119718 0.14132751179361672 -0.5659895594679594 97 71 49
0.1109141032173084 0.14348490921880977 -0.5681316355842209 95 69 47
0.11107284911099705 0.1437046820969501 -0.5712152535347048 95 67 47
0.11094302253963377 0.1437095810170494 -0.5744056272017735 94 66 45
0.11043607747610885 0.14343372927341896 -0.577737232471956 94 67 46
0.10576481663375549 0.14005743445478802 -0.5826201783645284 97 69 48
0.10415220378209816 0.13895891197882124 -0.5863800196750291 102 74 53
0.10433743336862722 0.1391989945020554 -0.5894720818404952 102 74 53
0.10452290307012077 0.13943927331829586 -0.5925645966225518 97 70 49
0.10470824270272647 0.13967947286646645 -0.5956577034912962 92 64 46
0.10474989418269591 0.1398127533453534 -0.5988062122396085 90 62 43
0.10426822255694562 0.13955663283398073 -0.6021566948553945 89 61 43
0.10501457693404005 0.14021438733074876 -0.605036618516159 90 62 44
0.10445861566783177 0.13990312189563645 -0.608419902066263 91 63 46
0.10488196093107242 0.14032054224649843 -0.6114249421154201 90 62 45
0.1051263690643201 0.14060483759467024 -0.6144996867622586 88 59 42
0.10548629051071079 0.1409750659119477 -0.6175292412958512 85 57 38
0.10538787147187872 0.14100438863494746 -0.6207400922054032 82 55 35
0.10617597998864448 0.1416930819386824 -0.6235998744719828 81 54 34
0.10652016366377166 0.14205159363828607 -0.6266353094211647 82 54 35
0.10661417674562614 0.142224081563004 -0.629771206346873 80 52 34
0.1068027889028152 0.14246693447879047 -0.6328698041357067 82 54 35
0.10676224981192653 0.14253944337077484 -0.6360619707433799 82 54 36
0.1107223516459449 0.1455859935425518 -0.6376232645288509 80 55 37
0.10897605086422621 0.1443904187669508 -0.641509693742183 80 55 38
0.10637833361937188 0.1425623003579923 -0.6457553292436431 80 56 38
0.10700152139923555 0.1431282861781292 -0.6486790359455465 81 56 38
0.11063199778798179 0.1459290015670129 -0.6503501338275004 75 47 30
0.1109384006598691 0.1462593235386864 -0.6533977585228408 73 45 28
0.11038329382090764 0.14594955721132652 -0.6568074221597264 70 42 26
0.11000026031440431 0.145767742584609 -0.6601479883609086 70 42 27
0.11093200861862332 0.14656271303047308 -0.6629336408710711 69 41 26
0.11213184000264599 0.14755673265831734 -0.6656025394283865 69 41 26
0.11253292124111071 0.14795738584181034 -0.6686099639783877 68 41 26
0.11162359634750474 0.1473848442358998 -0.6721809582485145 69 41 29
0.11134111489650841 0.14727795361993093 -0.6754859327029544 70 42 30
0.11115180935737248 0.147240327924259 -0.6787528855770151 70 42 30
0.11250225561240534 0.14834597538927324 -0.681349930563461 70 42 30
0.11385099233534521 0.14945021825408217 -0.6839435345157541 69 41 29
0.11513144693284824 0.15050363796076693 -0.6865630301443933 68 40 28
0.11322822413574266 0.14919380263345297 -0.690587491390783 68 40 28
0.11320501296949334 0.14927960104126922 -0.6937852196811436 67 41 26
0.11592337359093244 0.15140005318833924 -0.6957599443863329 65 39 24
0.11762569585165643 0.15276622155369726 -0.6981807323975204 63 37 22
0.11783255492309383 0.15302257361185745 -0.701269866787452 62 35 21
0.11836310139228637 0.15351909537282243 -0.7042129208635726 62 34 20
0.12122763194268779 0.15574709807163187 -0.7060936903175069 63 35 21
0.12249854724618328 0.15679261740514255 -0.708692047494028 62 34 20
0.124803461049295 0.15860496515653943 -0.7108120599103536 61 33 19
0.1253462469927816 0.1591101329287998 -0.7137361187008172 61 33 19
0.12587958297480487 0.15960826296888417 -0.7166636364516464 61 33 19
0.12915360338796292 0.16213868593019132 -0.718315881699318 61 33 19
0.12927131674791165 0.16232840546877708 -0.7214301452304034 62 34 20
0.1176495272678306 0.15381441933666912 -0.7300520665998472 62 32 20
0.1313148953968057 0.16404837826935187 -0.7268092529293673 60 31 18
0.1428098968131588 0.17267173485188703 -0.7245387245976604 60 30 18
0.14583407763114514 0.1750149802658643 -0.7262479888322089 61 31 19
0.12861719990808235 0.16235639838596821 -0.7376069030732914 62 32 20
0.13010957428518805 0.16356508559055344 -0.7400697239529324 61 32 20
0.1289939536139827 0.16284107231890563 -0.7437831891539096 62 34 20
0.13030351832180376 0.16391416977964798 -0.746330103798484 61 33 20
0.13002797801197766 0.1638127709122181 -0.7496425128314499 61 33 18
0.12859533765112743 0.16285426130858527 -0.753521512119912 57 29 14
0.12720239762663943 0.16192539220345178 -0.7573882756854763 55 27 13
0.12580650373010988 0.16099456288828878 -0.7612635346416459 54 26 12
0.12341419699891443 0.1593260093097322 -0.7656378066882193 54 26 13
0.13747163532779366 0.1698395535167786 -0.7618677365416167 53 26 14
0.1333915765061479 0.1669208870073972 -0.7670707047402378 53 25 13
0.13453587800681013 0.16787097184511435 -0.7696801195113903 53 25 14
0.1353806388264865 0.16859918383941272 -0.7724364881200033 53 26 14
0.14693477247219275 0.17725521886896717 -0.7697928757575272 53 25 13
0.14784649728930424 0.17803214370713266 -0.7724889167945085 53 25 13
0.14937116671575235 0.17926265554702822 -0.7748710280206308 52 24 12
0.1511910030295308 0.18071145195170266 -0.7770975472750694 53 25 13
0.15209647216116223 0.18148340729381643 -0.7797862669321964 55 27 14
0.15806126643858287 0.18599889329852048 -0.7798702828264699 54 26 13
0.15826381911244908 0.18625028203604507 -0.7829066605056946 51 23 10
0.1590940294349158 0.18696603229860562 -0.7856180670261561 50 21 12
0.15766585731433302 0.1860110933108503 -0.7895029473152366 49 21 11
0.1609021893916055 0.1885066046610832 -0.7909572562956766 50 22 10
0.1620756573741845 0.18947601385307222 -0.7934818371254467 52 24 12
0.16229413711046342 0.1897390547811681 -0.7965059104629867 55 27 15
0.16425245883838208 0.19128867660133136 -0.7986102812514406 56 28 16
0.1532134386901113 0.18322775049456572 -0.8076082727038203 56 28 16
0.15521071398617084 0.18480660250834535 -0.8097051931299792 56 29 16
0.1605961140785775 0.18888997822441228 -0.8099822809838667 57 31 18
0.16736562585111575 0.1939958171160528 -0.8094948615032159 58 32 19
0.1687334458676554 0.195108189299242 -0.8118932935361863 59 33 20
0.17053712873986157 0.1965425536502614 -0.8140514125004292 56 29 17
0.17185447525229672 0.19761731287772266 -0.8164675925724375 55 28 17
0.17246932000039666 0.19817283223504367 -0.8192627705820578 51 24 13
0.17060659896936708 0.19689771169828763 -0.823413225761438 50 23 14
0.1712678192196304 0.19748757853920224 -0.8261855492149642 50 23 13
0.1689881707672794 0.1959048743098194 -0.8305788710290126 49 20 11
0.1748450741954461 0.20033273099466162 -0.8304771786463575 53 24 13
0.1758003523289226 0.20113949639267262 -0.8330769879349607 50 21 9
0.17870096503858746 0.20338286972408243 -0.8345887300397705 53 23 12
0.1825597918162351 0.20633350258749011 -0.8355530478728778 65 35 19
0.18634320265575532 0.20922796995080614 -0.8365449549484965 67 35 16
0.1861466589203119 0.20918344419761073 -0.8397678560515378 67 34 17
0.18967639929948157 0.21188996697477708 -0.8408827193523449 67 34 16
0.18841406705031488 0.21105856527076144 -0.8447078336670628 68 35 15
0.18653346318200129 0.20977101182647095 -0.8488922175866107 72 36 14
0.18628320029841502 0.20968704550311207 -0.8521522937804177 75 38 14
0.18725435465960966 0.21050455281577263 -0.8547128264779287 78 42 16
0.1881417827438966 0.21126018688995526 -0.8573188799340218 89 54 29
0.18584160658565752 0.20966374291482898 -0.8617676071509249 94 61 38
0.1840242470725116 0.2084238697303906 -0.8659467819377467 95 66 42
0.18299145469261346 0.20776307769310554 -0.8696774495586729 93 65 43
0.18654142859047027 0.21048296832268693 -0.8707322877685879 93 64 43
0.18628155531372942 0.2103923251065557 -0.8740107417497783 88 59 38
0.1868673516352245 0.21092545697996187 -0.8767932232941766 83 55 34
0.18381051371987528 0.2087722847911285 -0.8817288402523001 85 58 39
0.1832077309234651 0.20842915003218382 -0.885222087720935 84 56 37
0.18389251351369743 0.20903548178162873 -0.8879522861213293 81 53 34
0.18431635353353748 0.20944938337622077 -0.8908368822529213 83 54 34
0.180156645950526 0.20648436960604924 -0.8964702728354481 84 53 33
0.1788181259872618 0.20559949512564302 -0.9004243486176928 80 49 30
0.17891621354115403 0.20577368821398767 -0.9035176299843729 71 38 20
0.176151560310434 0.2038381388658066 -0.9083469860526318 76 44 22
0.1746635486600996 0.20284377575344475 -0.9124128081256656 92 63 39
0.17440138622026008 0.2027529125563252 -0.9157380380743396 95 67 44
0.17379092899110432 0.2024055139358703 -0.9192790032718465 93 65 43
0.1798561286884016 0.20697622263962662 -0.9187213403832769 88 60 40
0.17189291350691777 0.20121231774723491 -0.9267901608621426 86 58 39
0.1713119370780618 0.20088705781077826 -0.9303260047128219 83 56 39
0.18213361609672896 0.20895996622725072 -0.9267859593740144 69 42 31
0.17952915727361896 0.20714401740883367 -0.9315658957960895 50 25 16
0.18180678989538301 0.20892345660594874 -0.9333063454440949 42 19 11
0.18258734306655575 0.20960033625557975 -0.9359774824774973 40 18 10
0.1899311676460262 0.2151092029687413 -0.9345161757696043 39 18 9
0.1792938639803905 0.2073801633907234 -0.9443792196568557 40 17 8
0.18340057717022937 0.21050553356911408 -0.9449473600818215 45 19 10
0.18075742324234936 0.20866234184640614 -0.9497901798613866 48 24 13
0.18215068019424863 0.20979016089257513 -0.9520711124613074 54 33 20
0.18496611579003314 0.211964390340674 -0.9534373953714862 61 43 30
0.18782799986000162 0.2141724543773318 -0.9547632477423498 69 51 42
0.19064277372339444 0.21634550773173505 -0.956108633626902 78 59 52
0.19434438828574185 0.21917064728654234 -0.9568702570182777 79 62 55
0.1927259360484565 0.21808182893900196 -0.9610670054217814 80 63 56
0.19511643295696596 0.21994202210481967 -0.9626640419638139 80 63 56
0.19708904253559656 0.22149458511070647 -0.964524975820828 80 63 55
0.1985442949307219 0.22266645337217772 -0.9667175949112777 81 64 56
0.19887767989615296 0.22301321581101927 -0.9696422932604611 85 68 60
0.2015741043294061 0.22509743831849593 -0.9710095988211694 87 70 62
0.20509719630961945 0.2277890965401735 -0.9718201994621453 83 66 59
0.2061021934962428 0.22862918867834936 -0.9742873129534697 84 66 59
0.2105518655156629 0.2320012274136518 -0.9744593541385717 86 67 60
0.21212622621314464 0.23325936769996147 -0.9765331260109115 86 67 60
0.213613682218857 0.23445346527971161 -0.9786596958107708 89 69 62
0.2159410124435881 0.23626458454588353 -0.9802170070193458 93 74 65
0.21719703962254683 0.2372882485388758 -0.9824876853263091 99 79 70
0.21860976731788606 0.23842691185400122 -0.9846483722431042 100 79 70
0.22063772204451215 0.24001739682572001 -0.9863870891387955 98 75 65
0.2225139365162268 0.241496179147261 -0.9882216865568896 95 70 58
0.22367917643544521 0.2424525278599315 -0.9905347939670616 90 58 42
0.22523014575646008 0.24369205258898147 -0.9925801524197081 87 50 28
0.22696139350854438 0.24506379622958502 -0.9944963781979479 89 49 22
0.2283366147886574 0.24617391206158395 -0.9966517641123196 94 50 18
0.22847662129648383 0.24637694581843345 -0.9996561341082957 100 55 21
0.22936016205836846 0.2471258773932598 -1.002145814968388 97 52 17
0.2303257603812962 0.24793496671419496 -1.0045759602792665 94 49 16
0.23187522312518055 0.24917253502572495 -1.0065960550658573 92 47 14
0.2309565291733261 0.2485984152239209 -1.0103375217835868 84 39 10
0.2323059333476437 0.24968898932070865 -1.012492618484129 79 33 6
0.23263972054484808 0.2500341422929578 -1.0153581082307745 79 34 6
0.23249847829873543 0.25003073979941903 -1.0185588559237602 83 37 8
0.23410308352562942 0.25130828796411736 -1.020525144396294 86 40 10
0.23544735257950544 0.25239467084711803 -1.022670769494895 88 43 10
0.23668270743142863 0.25340101643204305 -1.0248895216326925 89 46 12
0.23765101095114174 0.2542113586462846 -1.0272951092498954 91 50 14
0.23861840811246315 0.2550209436962147 -1.0296984865670702 94 56 21
0.23937828102773784 0.2556782526259722 -1.0322482009845082 101 65 33
0.24029606713572432 0.25645128948920703 -1.034682081049619 102 68 40
0.23972603303366763 0.25613338472876485 -1.0381893556801887 102 69 40
0.23961350030587986 0.25615100547700215 -1.041368525629935 104 70 41
0.23980732362748614 0.2563932588912522 -1.0443265999051545 106 72 44
0.2412651508483209 0.25756201936954776 -1.0463628022244407 108 74 46
0.24007549309709345 0.25679024521331784 -1.0503316041996111 108 74 47
0.23984640348989872 0.2567226242547404 -1.0536017769755992 107 73 46
0.2397906803462827 0.25678211577984233 -1.0567466206921445 107 73 46
0.23991169576031196 0.25697115426806016 -1.0597625237131783 102 68 41
0.24081306982144804 0.25773193462551436 -1.0622013636950507 100 66 39
0.2416054997344364 0.2584128229880118 -1.0647185270462503 94 62 38
0.2325790889540009 0.251901410171591 -1.0745468374068001 90 59 35
0.22748436826973994 0.24827096305912372 -1.0814786132194383 85 55 31
0.22434820965178687 0.24607563068895144 -1.0869665136778397 77 48 24
0.2232353527941213 0.24536241008570775 -1.0909491907760287 63 37 22
0.22008260060070062 0.24315575010908258 -1.0964750384286148 42 17 10
0.22398963111467457 0.24611834624810244 -1.0966811860360002 46 18 9
0.2242894712852715 0.24643971117014854 -1.0996053086218336 50 22 11
0.22659929544383273 0.24823239132560504 -1.1010019096567358 59 27 13
0.23019272394226864 0.2509643026959196 -1.1014115170651189 60 27 10
0.2318637009440615 0.25228878245981223 -1.1032762317801499 66 29 10
0.23282007602389587 0.25309013035325273 -1.1056827583941446 79 38 14
0.2351235442231512 0.2548770848354612 -1.107050990513636 82 38 10
0.2343198745862925 0.2543904152004647 -1.110805652019186 81 37 8
0.23669064057171102 0.2562262603349235 -1.11211124471313 86 41 14
0.23535929001419512 0.25535367483554205 -1.1162777049713972 88 46 21
0.23674661212771067 0.25646986821712586 -1.1183378776422919 88 51 26
0.23787383704835632 0.25739568189800127 -1.120596097513062 89 53 30
0.23908845632365167 0.258385291358372 -1.1227824186361366 88 52 29
0.23988895517882508 0.25907195552598594 -1.1252894066164163 92 56 32
0.2396982682648372 0.259033835168328 -1.1285733890538667 94 58 33
0.2392083054047099 0.25877698739056987 -1.1320954418854168 93 58 33
0.2393622032113863 0.2589909256585974 -1.1351120263255494 91 57 32
0.24121001740303818 0.260443049590632 -1.1367866230094636 87 55 30
0.24239244045161387 0.26140863657581936 -1.138983343892866 87 56 33
0.24284651643243732 0.26184181883802854 -1.1417567215356839 75 47 30
0.24330895999538965 0.26228109448433096 -1.144522758893919 68 45 35
0.24412740538618616 0.2629804659705836 -1.147002816898769 80 64 53
0.24243292182381113 0.2618438327548105 -1.1514999106143562 109 100 88
0.24169067771363056 0.26140311587857906 -1.1552384903110662 147 141 134
0.24338169183793554 0.26273992795106094 -1.1570157392597331 169 164 163
0.24376022305650746 0.26311792965939257 -1.159850193763419 179 177 175
0.2499946334362539 0.2677725360097837 -1.1579274940431161 185 184 182
0.2514508419422793 0.268937065515477 -1.1598706872708444 190 189 187
0.27604567722946644 0.2869965538541385 -1.1429114510350098 194 192 193
0.2678032406323442 0.28107814732746916 -1.1527359493670208 197 195 196
0.27270370128266447 0.2847556324002099 -1.1518064194342097 198 196 197
0.27303529243981045 0.28509738717419586 -1.1546181777419926 200 198 199
0.275452082089026 0.28696109402029435 -1.1557084944038913 201 199 200
0.2763584686701968 0.28772218557433366 -1.158039635664034 202 200 201
0.2710382570322549 0.2839393701597945 -1.1655354378834613 202 200 201
0.03634182158358829 0.06179118142140323 0.09464782274981616 182 182 184
0.023906397823369507 0.052428563325292894 0.09230998308155927 182 182 184
0.024899605769616428 0.05328165126887528 0.08921358626416558 182 182 184
0.007405065704486596 0.040073443986792905 0.08706530332119508 182 182 184
0.009177194510370523 0.04151984313893995 0.08390138473227264 182 182 184
0.012331277800055288 0.04401698030383791 0.08067720302872679 182 182 184
0.005501776446574909 0.038922343998845324 0.07791891306338963 182 182 185
0.00870697059724659 0.04145826377708771 0.07469494629691945 183 181 186
0.010991574484425781 0.0432939421924652 0.07152020472006135 182 181 185
0.01915155149387813 0.04959593294653719 0.06811717407225422 182 181 185
0.02336221347805904 0.05289490276890916 0.0648940961257057 181 181 183
0.04231877650104869 0.06740171392443824 0.061148740188381526 181 180 183
0.043243462237493493 0.06820142537990037 0.05809515083681458 180 180 181
0.044137241051043385 0.06897757649571284 0.05504480972652642 180 179 178
0.045821512538174625 0.07035436925024705 0.051972209493628845 150 140 136
0.0496627150844257 0.07336996322430192 0.04884211719508757 95 72 62
0.0541472048389027 0.07687390832764295 0.04570760060663151 88 60 42
0.05502226875860798 0.0776351329363026 0.04267980843342417 89 62 41
0.055936234079220166 0.07842584393467535 0.03965317002887491 90 63 42
0.04805249042749053 0.07253355697217534 0.036818673642694276 89 62 41
0.047715604513979756 0.07237455031170838 0.033804835748535184 88 60 40
0.046729163248307726 0.07172228283456053 0.030800180271769707 83 54 36
0.04627025952030056 0.07147080531938726 0.027782227341244192 83 54 36
0.04464538305967215 0.07033400018775146 0.024777907422177836 84 55 37
0.04460153590560363 0.07039793975832859 0.02174690107240361 84 55 37
0.04412079277004073 0.07013020316933627 0.018719112045797313 81 52 34
0.0467892710246297 0.07225346539683994 0.01566127276894959 84 55 38
0.04686121078800344 0.0724052984049321 0.012629661418536706 85 56 40
0.04663186638974324 0.07232846055266606 0.009598599310518215 86 58 41
0.04652484283016705 0.072344532860851 0.0065651257043933256 87 60 43
0.04610864883752258 0.07212600626290953 0.0035304219174908946 85 59 42
0.04590225996020659 0.07206678997582927 0.0004931255367053734 83 57 39
0.042725754907830676 0.06975377417210467 -0.0025537534643603945 82 55 37
0.04248827396980645 0.06967126892450501 -0.00560064333857262 82 55 38
0.04163858496685578 0.06912433162620915 -0.00865346684920896 81 53 39
0.04093052400186089 0.06868498287990049 -0.011709500040436164 77 51 36
0.04043390630550692 0.0684061596953576 -0.014767253127089871 77 51 36
0.042491086830640165 0.07006461169735687 -0.017797695140321954 77 51 36
0.040652090286629514 0.06876765370535846 -0.02087525353372106 79 53 38
0.04241561776068383 0.07020320861467942 -0.02390459438306141 81 55 40
0.0418096571005174 0.06984164717138516 -0.026969994528835584 81 55 40
0.049605499946440576 0.0758513505392939 -0.029876190623048488 81 55 40
0.0476151472236491 0.07443979525682595 -0.03296220699558546 81 55 40
0.0450529019531703 0.0725949151740787 -0.03607007773028477 80 54 40
0.04239266730685594 0.07067609263243971 -0.039191183677592736 75 55 44
0.03913476811840583 0.06830455781489568 -0.042339495197539906 83 69 64
0.0473953796845879 0.07466457364212961 -0.04517042986450959 172 165 165
0.05044806355957647 0.07707629873220911 -0.04813093575581969 179 179 182
0.041478657786070974 0.07037630308325216 -0.05147150043822476 180 180 184
0.03635325226575627 0.06659051355031878 -0.05471489612168789 180 179 184
0.0619263978963127 0.08606773676162928 -0.056866954071771184 179 180 181
0.057130468968531606 0.08253105766112734 -0.060081078027364794 165 163 162
0.05010664111621617 0.07730703369455738 -0.06340344906507714 80 72 69
0.07535661467293574 0.09653409528750843 -0.06540282855014715 86 74 69
0.074571176746899 0.09603564128592418 -0.06844696278855653 86 72 68
0.055710330174801787 0.08184581048095568 -0.07231956895035371 91 75 69
0.07860938707601539 0.09928748604164447 -0.07428129967829117 87 67 57
0.07906976605492744 0.0997326059192957 -0.07726580556635801 89 64 52
0.0891481653080432 0.10746129204330002 -0.0797568625018612 94 67 53
0.1311458013745367 0.13935883572322558 -0.08051529053135237 91 67 55
0.13516534541015254 0.14249568625298203 -0.08320602525308914 70 46 35
0.13461494086244707 0.14217216181705583 -0.08614278126712652 71 45 33
0.1366957036162601 0.14384064879005493 -0.08892809428484265 67 41 26
0.14199324269541716 0.14794396600948667 -0.09151155744540132 67 42 27
0.14595582006444238 0.15103621648476545 -0.09415969042751589 74 52 41
0.15092900440507506 0.1548929140632835 -0.09672889061192014 80 60 53
0.1557663342215373 0.15864623118206606 -0.09928946881733905 80 57 49
0.16251218781217244 0.16384325688418436 -0.10170272573334475 94 66 54
0.16930052915643956 0.1690716512026677 -0.10408865314938007 104 76 62
0.1728545147642268 0.17185208158230814 -0.10668291012838987 105 74 60
0.1777245100044178 0.1756277561187582 -0.1091676226359012 104 72 57
0.17952276021379587 0.1770791056568423 -0.11186780394274957 107 75 60
0.18173569865712483 0.17884395874313297 -0.11453009414523646 123 92 74
0.1873757564949202 0.1832007734408478 -0.11691246311880654 128 97 79
0.1924867029779836 0.18715676345459284 -0.11931769145927856 117 83 63
0.1943977017938578 0.18869219011438224 -0.12197138495512472 111 78 54
0.19153323687516127 0.1866162395845377 -0.12502602764338389 101 64 38
0.19057513505280893 0.18598213892698495 -0.12792652387481007 90 47 21
0.1948586722015068 0.18931125289863837 -0.1303650744603292 82 40 15
0.19754177932983139 0.19142993663665353 -0.1329340201465915 73 36 12
0.19499905444124255 0.18959785448685398 -0.13597901598843024 69 35 13
0.19702684729320896 0.19122092859640932 -0.13860181483591502 68 36 16
0.196682030306328 0.19105050274842794 -0.14144728987466332 67 38 20
0.19840717214956097 0.1924445645809544 -0.14409123691192816 66 41 28
0.19677390810079676 0.1913004788431401 -0.14706702830174262 65 42 33
0.19646316670625547 0.1911559879055868 -0.14991480926355738 65 43 32
0.18005321787338924 0.17884724117647938 -0.15444299539473444 63 44 34
0.1809594025997967 0.17962329813945188 -0.15719685450633544 62 45 36
0.1776661719579094 0.17722677566413425 -0.1604021094324826 62 45 37
0.17328530145859633 0.1740090860883315 -0.163740624138905 62 45 37
0.1781368907657849 0.17776562642321553 -0.16606428997599126 62 45 37
0.1755499363124221 0.17590342559326666 -0.1692168001544414 62 45 37
0.17543808403379024 0.1759108217558588 -0.1720940258873434 62 45 37
0.17628870413201678 0.17664508659215872 -0.17485965382162835 60 43 35
0.16010127223013565 0.1645139092542735 -0.1796589279532489 60 43 35
0.16021422120513787 0.16469211443491621 -0.182542416080398 61 44 36
0.160845686992573 0.16526180944063001 -0.18536268954379578 61 44 37
0.15890505850390932 0.16388975716718243 -0.18850376153621196 61 44 37
0.1584118101828731 0.16361053684319715 -0.19146940708040258 63 46 39
0.16199310624736576 0.16640683988896388 -0.19391232558114854 64 47 39
0.1657169220163472 0.16931030419291096 -0.19632403317536365 65 48 40
0.18709496216572397 0.1855364153910652 -0.1963770248768033 65 48 40
0.16387148140002414 0.1681033643226978 -0.20236064779802318 64 47 39
0.16333531825801056 0.16779179444122433 -0.20533314433080063 63 46 38
0.15594654410019226 0.1623101485137765 -0.20925869340507702 63 46 38
0.15848482468584715 0.1643186325388255 -0.2118187012956351 62 45 37
0.1638553871298051 0.16846340189858056 -0.21396669003810173 61 44 34
0.16989054468457018 0.17310885064572834 -0.2159992886958803 61 44 36
0.17439991408604427 0.17660278761670561 -0.21823307474827366 63 44 37
0.16681824173709772 0.1709774399435848 -0.22224262517307186 62 43 37
0.1633266962864679 0.16843748441701217 -0.22566842582761368 61 42 36
0.1654948113325906 0.17016567557476367 -0.22824827665433445 61 42 35
0.15923467537406763 0.1655388153593631 -0.23211862881384288 60 41 34
0.14995700862918157 0.1586377611349655 -0.2364846218781918 59 40 33
0.14293652138612747 0.1534395026172655 -0.2405312610969502 59 40 33
0.13578983375742998 0.14814701790819057 -0.24462625486356881 58 38 29
0.1316935664763228 0.14515468858150415 -0.24825680236631498 58 38 29
0.13043887418011169 0.14430454687153824 -0.2514394592803926 59 39 30
0.12967141292722917 0.14382178544465407 -0.254547494495028 59 39 30
0.12965355599651038 0.14390402758385235 -0.2575341607977787 59 39 30
0.13013999568525045 0.14436629580958898 -0.2604366726056016 60 38 31
0.13418107005766167 0.1475067264386472 -0.26272958036488114 62 37 30
0.13713400037065474 0.14982691709600918 -0.2651965841890567 61 37 29
0.1381990493345305 0.1507246190354342 -0.2679840631534869 62 39 28
0.13892656940204584 0.1513679839185303 -0.27082839077243004 64 42 29
0.1397040143549812 0.15204889949378264 -0.2736621570584055 68 46 33
0.13996742844056664 0.1523426274190458 -0.2765871252388196 65 43 30
0.1400780958663184 0.15252133297216358 -0.2795401995521824 67 44 33
0.14112598542381777 0.15340579180333175 -0.28232080878589644 67 43 33
0.141094476825702 0.15347743817920345 -0.2853001445670316 65 41 31
0.13984907394951354 0.15263521417199555 -0.28850985436997406 63 39 29
0.13370834577663984 0.14810791194355616 -0.2926588115699069 61 39 26
0.12627818109288022 0.1426107850700567 -0.2970810722395557 65 43 30
0.13000958578025548 0.14551582248455894 -0.2993622585070079 68 46 33
0.12471004807647015 0.14162349578844763 -0.3034043319497462 68 47 36
0.12289143357041218 0.14035149022024618 -0.3067775788318128 61 41 33
0.12122446679288097 0.1391938651914649 -0.31012871128966113 81 61 54
0.1129332036649873 0.13305209387998823 -0.3148274583303475 78 58 51
0.10826292398179015 0.12963574558045698 -0.31882015615049025 75 51 39
0.11727525516294263 0.1365136717327437 -0.32001140095568353 73 44 29
0.11894056540515939 0.13786368662198756 -0.3226977806796079 70 42 26
0.11928338964993655 0.13821876973961905 -0.3256566869959696 68 40 26
0.14329119066895749 0.1563729720853448 -0.32359861369464016 69 40 26
0.14054848475549972 0.15440604520768186 -0.32717134702857564 69 41 29
0.1428054331875129 0.15619926163472783 -0.3296765906350189 70 43 33
0.1333382626295338 0.14917637736580086 -0.33472818201149646 63 38 32
0.12600624756919124 0.14376009456921374 -0.33934859380814236 34 14 8
0.10303348249745303 0.12658578639966672 -0.3474668916695525 52 34 26
0.10744580279772904 0.13000124951942277 -0.3495503849386887 70 50 40
0.11015736255688266 0.13213775218468204 -0.3520016465972163 71 49 38
0.1171642702179411 0.1375024638319825 -0.35346598727463685 69 47 36
0.11722976255117322 0.1376494013594196 -0.3564975256725599 66 44 33
0.11418187207563693 0.13545665046986968 -0.3602507591592305 65 42 31
0.11237773569606378 0.13419892908380074 -0.3637267782583532 63 41 32
0.12016418995563159 0.14014763761401172 -0.364953433291861 46 27 22
0.12162418772777978 0.14134224176686283 -0.36765249686477375 43 27 26
0.12583760247626605 0.14460521498584095 -0.3696881401962556 59 41 39
0.12488389562023504 0.14398620675210905 -0.3729551938857293 66 47 39
0.1348433804624799 0.1515645560417871 -0.37357279283077616 64 42 34
0.13570281995532518 0.1523069704005855 -0.3763838229687952 59 36 28
0.13203248252664554 0.14964744495369073 -0.3803122263651759 59 35 25
0.13015120967159124 0.14833189836317634 -0.3838105655062489 63 39 28
0.12802698295308645 0.1468341993345808 -0.3873785018520967 66 42 30
0.13164256665322274 0.1496463318405098 -0.38950364203234095 74 51 40
0.13861729869326703 0.1549799295744972 -0.3907592494684473 45 23 12
0.1453393877929495 0.16012303216546966 -0.3920536071473385 48 23 14
0.14621976819561622 0.16088039892631223 -0.3948353219761533 51 23 14
0.15582868492515792 0.16818899392287479 -0.3953376238356321 51 24 14
0.15367417045689177 0.16666798326854748 -0.39889541555781816 55 27 16
0.15239746493123552 0.16580602168668285 -0.40223042658976177 61 33 21
0.14993409611815606 0.16405382120279344 -0.4058882571824078 61 29 16
0.13368500220982918 0.1519584199794099 -0.4132619915803667 84 55 44
0.1297256443923217 0.14908543087717585 -0.41737379152832893 96 72 60
0.1367411054107365 0.15444609782685803 -0.4185096389256793 94 71 58
0.13182717838464342 0.15085745396693012 -0.42289565987486344 95 68 53
0.17934427752159238 0.18659567657173387 -0.4127979094117373 93 62 41
0.1760760739290431 0.18423931851575287 -0.41666322176005255 81 45 23
0.17617807708985453 0.1844108296992825 -0.41959700289907575 70 32 11
0.17993059244434484 0.18731976184811178 -0.42150010201900817 66 28 7
0.18131328633796007 0.18845135827040568 -0.4240638663144774 71 33 12
0.1766206982652599 0.185027939259571 -0.42836397122303244 76 38 17
0.18082586958927682 0.18827559066456417 -0.4301169667223712 82 48 27
0.17877232076376676 0.18683113142749427 -0.43367244122540266 82 52 31
0.1743047232311134 0.18357752281423903 -0.4379431947582596 83 56 40
0.08703338228548962 0.11826429447824441 -0.4666116209322665 88 61 48
0.08650884949398252 0.11797217491775164 -0.4699153427119887 90 69 54
0.08437849237520348 0.11647682434829455 -0.47370155557091936 108 90 76
0.08147732453124777 0.11440422062495596 -0.4777290028280564 105 86 72
0.09590616235192859 0.12531621511008867 -0.4765296852917033 101 80 63
0.09745590561218893 0.12657780952593128 -0.47919382405823346 101 81 65
0.0973410652979868 0.1265923005674695 -0.48236295572165905 104 85 70
0.08979035942232269 0.12103708042781702 -0.48782621352634664 104 84 68
0.09012264104354223 0.1213870396870914 -0.4908748262887213 102 82 65
0.09045473218199976 0.12173685491588396 -0.49392345564968243 102 81 64
0.09691863145721144 0.12667847140444655 -0.495045137714372 102 82 65
0.09699553499338781 0.12683681215307538 -0.498162194962431 99 78 60
0.097492703180735 0.12730984539854953 -0.5011464818558786 93 72 55
0.0976441023072467 0.12752399317311636 -0.5042407846112076 91 69 53
0.0949734739565642 0.12562560812977558 -0.5082450232192119 89 67 52
0.09551073260169096 0.12612880690655945 -0.5112211953131055 93 70 56
0.09554444755760937 0.1262550922996864 -0.5143607537990579 94 71 56
0.09653388940352661 0.1270966831787603 -0.5171878088652513 91 68 53
0.09763452212371834 0.128021397046568 -0.5199754870231491 89 67 51
0.0981702112976392 0.12852327801348096 -0.5229477090965065 92 70 53
0.09873348169441949 0.1290457680344693 -0.5259098565919891 92 71 54
0.09778688942277172 0.12843862769494263 -0.5293785824954064 97 74 59
0.09866452306596482 0.1291963220428492 -0.5322355041426058 98 76 60
0.09870124508280873 0.1293249272138939 -0.535376235935071 102 78 60
0.09873789691734643 0.1294535162840807 -0.5385181263775651 101 75 59
0.09652224581931 0.1278976652318477 -0.5424362710737374 97 73 59
0.09631569497677006 0.1278445981903153 -0.5456691205281526 97 73 57
0.09731614348945747 0.12869414768918416 -0.5484838710034107 98 74 57
0.09874883839219298 0.12986679989112077 -0.551144554075092 99 76 56
0.09871732831774901 0.12994461984865222 -0.5543164042194113 98 75 55
0.0989846940642164 0.13024591564366797 -0.5573838193332815 99 75 55
0.09870291124524683 0.13013672674819515 -0.5606470318355042 100 74 55
0.0990030351413781 0.13046255646188998 -0.5637042459596591 99 73 53
0.099303167633092 0.13078839531627875 -0.5667615416844812 100 75 54
0.10436599099895574 0.13467345572753675 -0.5680940132664802 101 76 56
0.10473348374068128 0.13504932826079594 -0.5711173887066293 101 76 55
0.10580467579587716 0.13595098745306294 -0.5738828898437401 100 73 54
0.10603319626882643 0.13622297360970514 -0.5769556413889462 97 70 51
0.1049305619799592 0.13550052583029212 -0.580521559768115 95 68 50
0.1033753100117053 0.13444016043228074 -0.5842616691446759 98 71 52
0.10391176411056251 0.13494238657590343 -0.5872265535914865 98 71 52
0.1018931382445406 0.13353629420624163 -0.5911518863174915 98 71 52
0.10259095527580814 0.1341591349512392 -0.594059141989735 97 70 51
0.10294890526998095 0.1345281373642449 -0.5970941201748416 93 66 49
0.10096573481803961 0.1331490960383002 -0.6010239084402562 93 66 48
0.10117706953401345 0.1334087768470002 -0.6041196511733264 93 66 49
0.10138863397836964 0.13366864342066598 -0.6072157498792774 95 68 51
0.1016000586840608 0.13392841992601656 -0.610312346914069 95 67 51
0.09835341944379444 0.13160708069025673 -0.6147592213341404 90 63 47
0.10024976041756951 0.1331246371850824 -0.6172025915287115 87 59 43
0.10177208581517061 0.1343628696548253 -0.6197871100277593 91 65 48
0.10215576344593323 0.13475127090477126 -0.6228181408123173 99 73 56
0.10279677723917474 0.1353316754843601 -0.6257463932859301 97 71 54
0.10318219626838883 0.13572134324566743 -0.6287757065982525 94 68 52
0.105201489122907 0.13732990554350366 -0.6311471827831535 93 66 51
0.10673610256410945 0.13857669835257994 -0.6337078373432115 88 62 46
0.10706575750947725 0.13892456674539636 -0.6367534131779573 91 65 49
0.10724078130782622 0.13915710620423893 -0.6398621275871512 88 64 46
0.10778346813608244 0.13966385318135793 -0.6428204844784644 82 59 41
0.1075526895692271 0.13959380178741862 -0.6460970692791491 80 56 39
0.10950290949739926 0.14115004085825839 -0.6484716074456632 80 55 38
0.1094625466061075 0.14122195850897268 -0.6516689097261857 79 53 35
0.11122588765750394 0.1426385848554661 -0.6541125084717289 78 52 34
0.1118968964670724 0.1432407605857975 -0.6570098033707494 80 54 35
0.11174788107633982 0.1432316692778634 -0.6602523310439268 74 48 33
0.1118781836410988 0.14343081619186604 -0.6633781212810163 73 47 34
0.11163273258523909 0.14334996145856216 -0.6666650582708954 71 45 31
0.11245960063307123 0.14406824530654574 -0.6694944490441308 68 42 28
0.11116900619535908 0.1432087224903158 -0.6732341326871093 68 42 29
0.10876238231326713 0.14151791914600634 -0.677463509851097 70 44 31
0.10957759377755105 0.14222767030573008 -0.6803026851705133 70 44 31
0.11206768617380064 0.14418499795966425 -0.6824079642409293 70 43 31
0.1129060345879414 0.1449117441678765 -0.6852295474073652 69 41 29
0.11352998031099001 0.14547873937262243 -0.6881435851234963 69 41 29
0.11436831550025489 0.14620535445278315 -0.6909613929147946 69 41 29
0.11535039744685793 0.14703894308854876 -0.6937131033169929 68 42 28
0.1168475272570833 0.14825594268990405 -0.6962317986780846 68 42 28
0.11821403980806656 0.1493755409570059 -0.6988043655181827 69 43 29
0.1184394352108894 0.14964549156836668 -0.7018875978518413 70 44 30
0.12046416553630407 0.15125486092790258 -0.7041555760695913 68 42 27
0.12276096008417559 0.15306651072917032 -0.7062927022051708 67 41 26
0.1242782461290679 0.15429774535967353 -0.7087782829071073 65 39 24
0.12778721871905319 0.157011021729255 -0.7103439076233774 65 37 23
0.12572764136034678 0.15558016967081803 -0.7144662717262014 64 36 22
0.12586329518479683 0.15578301711238746 -0.717580816155593 63 35 21
0.1220319669740282 0.15303447050072622 -0.722543060187568 62 34 21
0.11977810719646459 0.15145999578889882 -0.7267846449246551 64 34 23
0.11246947661316156 0.14612579572444398 -0.7334109061698817 65 35 25
0.12581936323005727 0.15615837510050534 -0.7303232073237617 65 35 25
0.12699933181671993 0.15713807294039472 -0.7329479401270625 64 34 23
0.13719334963353785 0.16482110775641 -0.7312799383258386 63 33 22
0.13841174903828404 0.16582856238285015 -0.7338607267800025 62 32 22
0.1410634292130675 0.16790159290612325 -0.7357499192218956 62 32 21
0.13357253155994903 0.16243362090996802 -0.7425182210496227 61 33 21
0.1336746808360557 0.1626113748283255 -0.7456431803169135 63 35 22
0.13673150737655598 0.16498547915157072 -0.7473327259607806 63 35 22
0.13375492234922065 0.1628747601494628 -0.7519563261466524 61 33 20
0.1300797853941531 0.16024530867957046 -0.7569359391118982 62 34 20
0.12681566528150445 0.15792182753640344 -0.7617296626166981 60 32 18
0.12192812500782682 0.1543925000314572 -0.7673406854383904 59 31 17
0.14256772251136343 0.1698307043609663 -0.760301279275416 56 29 17
0.136429216147965 0.1653716721492303 -0.7665261814827781 54 27 16
0.136555213183237 0.16556723553545905 -0.7696421214551039 53 26 15
0.13699146879604568 0.16599328707796024 -0.7726029191382237 52 26 14
0.15203548898122343 0.17726912813602144 -0.7681912447115412 52 26 13
0.15614991703709624 0.18042587138035537 -0.7692570640288698 52 26 13
0.15784290543390547 0.18178392617202546 -0.7715391955980928 52 26 13
0.15563237319498022 0.18024326422316594 -0.775809783396834 54 26 14
0.1561877239931932 0.18075654221825152 -0.7786721112286922 56 28 16
0.15829149409635118 0.182419351506802 -0.780736010040699 59 31 19
0.1580453822934259 0.18233750146221525 -0.784007549775595 59 31 19
0.15886337820504992 0.18304558960511075 -0.7867289905916433 54 26 15
0.1579704235291487 0.18248372344896252 -0.7903401080548117 53 25 13
0.15989569995490657 0.18401355422442497 -0.7924814992488828 54 26 12
0.1620194008244406 0.18569041730741379 -0.7945119678712901 56 28 15
0.1613220537531863 0.18527378789341858 -0.7980228323182721 58 30 18
0.16257979871651007 0.18630786489682455 -0.8005026634655641 58 30 18
0.1572627601722652 0.18246412251339011 -0.8064735964685698 59 31 19
0.1600675413138605 0.18464599657389924 -0.8081336560126968 59 32 19
0.16353045035355168 0.18731570238511647 -0.8094307889326213 58 32 19
0.16701179356140028 0.18999866066714033 -0.8107049203009816 60 34 21
0.1670024093134913 0.1900924296929297 -0.8138504918257897 60 34 21
0.16714136603760246 0.19029624334362055 -0.8169170080193652 55 29 17
0.16885970298034628 0.19167115741368876 -0.8191249840126702 53 26 15
0.1705457375807738 0.19302193448027652 -0.8213447507531166 52 25 15
0.17195968842174375 0.19417082005484113 -0.8237079584993954 51 24 15
0.1736102082297465 0.1954949219255554 -0.8259363928540028 51 24 13
0.17240428045316375 0.19470161250541632 -0.829737104900095 52 24 12
0.1758588912115781 0.19736264010875126 -0.8309600218146274 61 33 20
0.1764507719070603 0.1979017412160719 -0.833763096606704 54 25 11
0.17754369918362456 0.19881208582777674 -0.8362850960979705 51 20 8
0.18076015259531947 0.20129573976608064 -0.8376131080897089 61 30 12
0.18486416074225615 0.2044365733856695 -0.8384294524477833 65 33 14
0.18822289171697676 0.20702478979494537 -0.839650958263557 68 35 18
0.19300931124905346 0.21067014762326047 -0.8400502205436814 68 35 16
0.19016417141753866 0.20866239297717049 -0.8447738022055612 70 37 17
0.18803239295356072 0.20718338325823848 -0.8491031204008258 72 37 15
0.1852978632247792 0.2052583388610444 -0.8537881988982383 75 38 13
0.18633914406712482 0.20612959471648817 -0.856313541066234 75 39 13
0.18845822127335465 0.20779876063293862 -0.8582134323525288 86 51 27
0.1889889453714953 0.20829176191787302 -0.8610262871602872 93 61 37
0.18690555401860504 0.2068495748445465 -0.8653587315894291 97 68 44
0.18531655348655648 0.2057736605836592 -0.8694126123035819 95 67 45
0.18825189131354664 0.2080466378792697 -0.8708238720294362 92 64 42
0.18747106098055344 0.20756903370945082 -0.8744090365901904 87 59 38
0.186931391611812 0.20727003647432432 -0.8778564857905108 85 58 37
0.18543397427078162 0.20626248139964326 -0.8818746384756253 87 61 41
0.18348739462455088 0.204922848905125 -0.8861673069526408 84 56 38
