ply
format ascii 1.0
element vertex 880
property float x
property float y
property float z
property float nx
property float ny
property float nz
property uchar diffuse_red
property uchar diffuse_green
property uchar diffuse_blue
property uchar class
property uchar detection
end_header
0.0886 0.1517 0.0682 0.581 -0.814 -0.026 75 39 15 0 0
0.0907 0.1486 0.0595 0.509 -0.860 0.028 78 40 17 0 0
0.0851 0.1594 0.0177 0.487 -0.860 -0.155 73 37 15 0 0
0.0863 0.1578 0.0059 0.752 -0.614 0.239 70 34 10 0 0
0.0870 0.1571 0.0000 0.722 -0.624 0.298 69 33 11 0 0
0.0865 0.1580 -0.0030 0.708 -0.701 0.087 69 33 11 0 0
0.0850 0.1622 -0.0482 0.575 -0.817 0.039 54 25 9 0 0
0.0905 0.1537 -0.0595 0.518 -0.066 0.853 68 41 27 0 0
0.1256 0.0978 -0.0892 0.609 -0.771 0.185 55 26 13 0 0
0.1440 0.0686 -0.1088 0.701 -0.519 0.489 100 73 63 0 0
0.1482 0.0642 -0.1685 0.546 -0.773 -0.322 65 47 37 0 0
0.1197 0.1155 -0.2941 0.270 -0.962 0.030 52 32 21 0 0
0.1202 0.1151 -0.3031 0.736 -0.631 -0.244 65 47 42 0 0
0.1262 0.1060 -0.3190 0.731 -0.644 -0.225 73 41 19 0 0
0.1258 0.1067 -0.3222 0.731 -0.644 -0.225 71 38 19 0 0
0.1235 0.1107 -0.3263 0.694 -0.615 -0.375 70 38 20 0 0
0.1217 0.1158 -0.3825 0.760 -0.649 -0.045 55 26 10 0 0
0.1216 0.1162 -0.3888 0.473 -0.713 0.518 73 47 35 0 0
0.1237 0.1131 -0.3970 0.733 -0.520 0.438 60 30 17 0 0
0.1052 0.1516 -0.6090 0.781 -0.366 0.507 86 51 29 0 0
0.1058 0.1508 -0.6119 0.740 -0.523 0.423 89 55 33 0 0
0.1130 0.1402 -0.6428 0.558 -0.828 0.054 84 49 27 0 0
0.1218 0.1277 -0.6853 0.917 -0.360 0.170 66 33 15 0 0
0.1341 0.1109 -0.7639 0.844 -0.519 0.133 62 31 12 0 0
0.1363 0.1080 -0.7817 0.824 -0.565 -0.027 69 40 24 0 0
0.1381 0.1053 -0.7866 0.796 -0.499 0.342 65 36 19 0 0
0.1569 0.0776 -0.8610 0.574 -0.815 -0.081 93 56 30 0 0
0.1660 0.0668 -0.9636 0.484 -0.874 0.048 88 70 62 0 0
0.1662 0.0669 -0.9701 0.580 -0.782 0.228 88 71 63 0 0
0.0844 0.1529 0.0682 0.715 -0.698 0.041 70 34 10 0 0
0.0884 0.1469 0.0565 0.846 -0.526 0.090 70 32 9 0 0
0.0822 0.1585 0.0147 0.650 -0.711 0.269 66 30 8 0 0
0.1425 0.0656 -0.1086 0.788 -0.469 0.399 110 83 73 0 0
0.1433 0.0645 -0.1113 0.729 -0.594 0.340 104 76 64 0 0
0.1459 0.0625 -0.1685 0.630 -0.626 -0.460 66 48 38 0 0
0.1341 0.0833 -0.2130 -0.067 -0.892 0.447 61 42 35 0 0
0.1236 0.1047 -0.3222 0.785 -0.576 -0.229 69 36 17 0 0
0.1209 0.1092 -0.3263 0.778 -0.606 -0.164 72 39 21 0 0
0.1217 0.1106 -0.3969 0.847 -0.356 0.394 59 30 16 0 0
0.1484 0.0688 -0.4323 0.635 -0.736 0.236 79 47 24 0 0
0.1010 0.1476 -0.4835 0.530 -0.792 0.302 83 55 34 0 0
0.1117 0.1371 -0.6583 0.701 -0.701 -0.131 72 40 18 0 0
0.1155 0.1311 -0.6620 0.781 -0.331 0.530 75 43 22 0 0
0.1206 0.1235 -0.6778 0.835 -0.537 0.117 71 38 19 0 0
0.1324 0.1065 -0.7304 0.515 -0.857 -0.031 64 33 15 0 0
0.1352 0.1022 -0.7379 0.484 -0.690 0.538 60 28 13 0 0
0.1351 0.1025 -0.7412 0.455 -0.826 0.333 60 28 13 0 0
0.1356 0.1017 -0.7440 0.603 -0.789 0.120 60 28 13 0 0
0.1634 0.0653 -0.9638 0.484 -0.874 0.048 94 77 69 0 0
0.1634 0.0654 -0.9671 0.480 -0.877 0.002 93 76 69 0 0
0.0825 0.1505 0.0652 0.783 -0.618 0.072 68 32 8 0 0
0.0826 0.1503 0.0623 0.783 -0.618 0.072 72 34 11 0 0
0.0800 0.1564 0.0147 0.650 -0.711 0.269 72 36 12 0 0
0.0799 0.1566 0.0117 0.603 -0.768 0.216 70 34 10 0 0
0.0803 0.1561 0.0087 0.507 -0.838 0.199 70 34 10 0 0
0.0817 0.1541 0.0059 0.368 -0.854 0.368 72 36 13 0 0
0.0822 0.1535 -0.0030 0.516 -0.826 0.226 68 33 11 0 0
0.0826 0.1530 -0.0060 0.516 -0.826 0.226 67 32 10 0 0
0.0818 0.1559 -0.0480 0.745 -0.652 0.140 50 21 5 0 0
0.1309 0.0787 -0.1019 0.409 -0.413 0.813 101 79 69 0 0
0.1413 0.0621 -0.1084 0.858 -0.496 0.134 109 82 71 0 0
0.1413 0.0623 -0.1113 0.755 -0.635 0.163 113 85 73 0 0
0.1438 0.0604 -0.1685 0.630 -0.626 -0.460 65 47 37 0 0
0.1180 0.1065 -0.2838 0.768 -0.333 0.546 59 39 28 0 0
0.1165 0.1101 -0.3149 0.557 -0.827 -0.082 61 28 10 0 0
0.1190 0.1066 -0.3262 0.713 -0.697 0.075 74 42 23 0 0
0.1111 0.1202 -0.3449 0.762 -0.603 -0.236 45 27 17 0 0
0.1164 0.1128 -0.3797 0.649 -0.689 0.323 52 25 13 0 0
0.1172 0.1117 -0.3824 0.585 -0.809 0.053 54 26 13 0 0
0.1173 0.1116 -0.3854 0.585 -0.809 0.053 60 32 18 0 0
0.1198 0.1079 -0.3935 0.618 -0.387 0.685 61 34 21 0 0
0.1216 0.1052 -0.3958 0.774 -0.275 0.570 56 28 14 0 0
0.1491 0.0616 -0.4185 0.421 -0.873 0.248 75 38 13 0 0
0.1497 0.0608 -0.4243 0.719 -0.695 0.027 79 42 16 0 0
0.1498 0.0608 -0.4272 0.719 -0.695 0.027 82 46 20 0 0
0.1045 0.1364 -0.4898 0.475 -0.872 -0.117 78 48 28 0 0
0.1037 0.1378 -0.4934 0.140 -0.922 0.361 73 43 24 0 0
0.1056 0.1349 -0.4956 0.199 -0.958 0.208 72 42 24 0 0
0.1039 0.1378 -0.4998 0.712 -0.698 0.080 72 40 20 0 0
0.1033 0.1388 -0.5033 0.539 -0.787 -0.300 68 36 16 0 0
0.1063 0.1393 -0.6408 0.417 -0.909 -0.024 85 51 26 0 0
0.1070 0.1383 -0.6436 0.589 -0.792 0.159 81 46 24 0 0
0.1125 0.1296 -0.6493 0.492 -0.832 0.256 73 38 16 0 0
0.1116 0.1314 -0.6598 0.658 -0.727 0.193 68 36 15 0 0
0.1182 0.1216 -0.6777 0.620 -0.784 0.028 68 36 16 0 0
0.1180 0.1220 -0.6844 0.670 -0.742 0.004 66 33 15 0 0
0.1398 0.0915 -0.8036 0.765 -0.561 0.316 58 29 15 0 0
0.1411 0.0896 -0.8057 0.804 -0.546 0.235 52 23 9 0 0
0.1955 0.0110 -1.0487 0.514 -0.852 -0.095 102 74 50 0 0
0.1882 0.0246 -1.0942 0.875 -0.478 0.081 51 27 17 0 0
0.0803 0.1494 0.0356 0.896 -0.328 0.300 70 34 8 0 0
0.0789 0.1528 0.0058 0.485 -0.745 0.458 66 30 7 0 0
0.1150 0.0979 -0.0782 0.640 -0.644 0.418 109 89 81 0 0
0.1283 0.0775 -0.1020 0.284 -0.402 0.871 98 75 66 0 0
0.1306 0.0738 -0.1044 0.284 -0.402 0.871 107 82 72 0 0
0.1421 0.0570 -0.1481 0.576 -0.608 0.546 65 44 27 0 0
0.1436 0.0546 -0.1506 0.669 -0.625 0.402 65 50 37 0 0
0.1399 0.0621 -0.1894 0.293 -0.781 0.552 64 45 38 0 0
0.1171 0.1025 -0.2833 0.895 -0.427 0.131 59 39 28 0 0
0.1174 0.1036 -0.3259 0.650 -0.756 0.074 70 39 21 0 0
0.1095 0.1168 -0.3415 0.658 -0.748 -0.080 26 11 7 0 0
0.1099 0.1163 -0.3444 0.699 -0.699 0.150 43 25 17 0 0
0.1098 0.1166 -0.3476 0.584 -0.796 0.157 48 27 14 0 0
0.1101 0.1162 -0.3505 0.547 -0.831 -0.099 49 27 15 0 0
0.1165 0.1075 -0.3940 0.687 -0.282 0.669 59 33 20 0 0
0.1474 0.0589 -0.4212 0.645 -0.764 0.036 77 40 14 0 0
0.1476 0.0587 -0.4241 0.630 -0.775 -0.050 77 40 14 0 0
0.1452 0.0628 -0.4315 0.629 -0.776 0.054 82 51 28 0 0
0.1022 0.1340 -0.4833 0.677 -0.710 -0.195 81 53 32 0 0
0.1018 0.1349 -0.4899 0.475 -0.872 -0.117 83 53 32 0 0
0.1025 0.1339 -0.4927 0.557 -0.830 0.018 82 52 31 0 0
0.1026 0.1339 -0.4959 0.557 -0.830 0.018 81 51 31 0 0
0.1013 0.1362 -0.4999 0.529 -0.833 -0.160 79 47 26 0 0
0.1001 0.1384 -0.5101 0.525 -0.740 0.421 71 39 18 0 0
0.1001 0.1386 -0.5134 0.522 -0.780 0.345 74 42 21 0 0
0.1024 0.1364 -0.5539 0.865 -0.502 -0.009 82 49 23 0 0
0.1067 0.1319 -0.6159 0.774 -0.536 0.337 85 51 24 0 0
0.1479 0.0769 -0.9121 0.812 -0.545 0.208 75 48 27 0 0
0.1653 0.0508 -0.9662 0.818 -0.431 0.380 93 76 73 0 0
0.1860 0.0224 -1.0938 0.670 -0.742 0.027 47 26 15 0 0
0.1127 0.0962 -0.0811 0.411 -0.735 0.540 69 37 22 0 0
0.1210 0.0834 -0.0971 0.404 -0.408 0.819 85 67 60 0 0
0.1237 0.0794 -0.0995 0.281 -0.400 0.872 89 69 62 0 0
0.1260 0.0757 -0.1020 0.281 -0.400 0.872 104 80 72 0 0
0.1277 0.0730 -0.1045 0.377 -0.332 0.864 116 92 81 0 0
0.1283 0.0721 -0.1073 0.853 -0.260 0.452 115 91 81 0 0
0.1458 0.0447 -0.1237 0.243 -0.953 0.179 95 53 18 0 0
0.1473 0.0429 -0.1377 0.699 -0.666 0.262 71 37 12 0 0
0.1400 0.0549 -0.1481 0.616 -0.779 0.115 66 44 27 0 0
0.1421 0.0517 -0.1504 0.482 -0.715 0.506 65 50 38 0 0
0.1466 0.0447 -0.1551 0.761 -0.639 0.110 65 51 39 0 0
0.1370 0.0614 -0.1896 0.248 -0.687 0.683 64 45 38 0 0
0.1151 0.1009 -0.3075 0.258 -0.843 0.473 93 73 65 0 0
0.1137 0.1038 -0.3233 0.388 -0.802 0.454 65 34 17 0 0
0.1077 0.1142 -0.3443 0.699 -0.699 0.150 41 25 17 0 0
0.1074 0.1148 -0.3476 0.703 -0.711 0.020 50 30 18 0 0
0.1343 0.0735 -0.3994 0.249 -0.590 0.768 70 36 23 0 0
0.1424 0.0618 -0.4318 0.424 -0.845 0.325 80 51 28 0 0
0.1429 0.0610 -0.4345 0.271 -0.950 -0.153 80 54 33 0 0
0.1011 0.1301 -0.4858 0.523 -0.851 0.052 82 55 33 0 0
0.1066 0.1278 -0.6566 0.397 -0.855 0.334 69 37 15 0 0
0.1071 0.1270 -0.6595 0.473 -0.846 0.245 67 34 15 0 0
0.1352 0.0864 -0.7772 0.421 -0.896 0.139 54 25 11 0 0
0.1355 0.0860 -0.7801 0.563 -0.716 0.412 55 26 12 0 0
0.1357 0.0858 -0.7832 0.723 -0.675 0.144 55 26 12 0 0
0.1364 0.0848 -0.7859 0.797 -0.521 0.307 56 27 12 0 0
0.1483 0.0670 -0.8206 0.776 -0.627 0.067 58 26 12 0 0
0.1488 0.0664 -0.8234 0.700 -0.714 -0.002 58 26 11 0 0
0.1534 0.0604 -0.8613 0.825 -0.564 -0.040 95 67 40 0 0
0.1531 0.0610 -0.8649 0.740 -0.670 0.062 94 67 44 0 0
0.1466 0.0731 -0.9109 0.808 -0.587 0.053 72 44 24 0 0
0.0791 0.1387 0.0740 0.629 -0.775 0.064 79 43 19 0 0
0.0793 0.1386 0.0711 0.629 -0.775 0.064 78 42 18 0 0
0.0794 0.1384 0.0681 0.494 -0.869 0.021 76 40 16 0 0
0.0791 0.1390 0.0652 0.681 -0.730 -0.055 75 39 15 0 0
0.0788 0.1411 0.0239 0.852 -0.505 -0.137 67 31 7 0 0
0.0788 0.1412 0.0210 0.860 -0.511 0.002 66 30 8 0 0
0.0799 0.1399 0.0092 0.708 -0.612 0.353 68 32 10 0 0
0.1389 0.0513 -0.1478 0.451 -0.888 0.090 66 44 27 0 0
0.1456 0.0407 -0.1519 0.369 -0.922 -0.117 66 52 41 0 0
0.1114 0.1010 -0.2989 0.641 -0.755 0.139 52 32 20 0 0
0.1119 0.1003 -0.3018 0.547 -0.758 0.356 53 34 24 0 0
0.1052 0.1125 -0.3444 0.730 -0.681 -0.052 41 24 16 0 0
0.1064 0.1113 -0.3624 0.707 -0.702 0.086 39 21 13 0 0
0.1393 0.0614 -0.4352 0.111 -0.989 0.100 82 55 33 0 0
0.0984 0.1286 -0.4827 0.523 -0.851 0.052 83 55 34 0 0
0.0985 0.1285 -0.4858 0.523 -0.851 0.052 81 54 32 0 0
0.0961 0.1334 -0.5128 0.723 -0.583 0.371 73 41 20 0 0
0.0967 0.1327 -0.5189 0.466 -0.872 -0.149 72 40 19 0 0
0.0955 0.1350 -0.5325 0.431 -0.830 0.354 83 50 26 0 0
0.1058 0.1234 -0.6619 0.415 -0.841 0.347 65 32 13 0 0
0.1046 0.1258 -0.6759 0.682 -0.730 0.047 65 32 12 0 0
0.1464 0.0644 -0.8233 0.776 -0.627 0.067 58 26 11 0 0
0.1482 0.0619 -0.8314 0.367 -0.804 0.467 60 27 11 0 0
0.1479 0.0661 -0.9302 0.551 -0.783 0.287 69 39 22 0 0
0.1815 0.0183 -1.0902 0.678 -0.679 -0.282 47 28 18 0 0
0.1815 0.0183 -1.0934 0.707 -0.656 0.263 42 22 11 0 0
0.0767 0.1371 0.0710 0.432 -0.900 0.062 80 44 20 0 0
0.0768 0.1370 0.0681 0.432 -0.900 0.062 79 43 19 0 0
0.0771 0.1382 0.0239 0.852 -0.505 -0.137 72 36 12 0 0
0.0781 0.1370 0.0122 0.525 -0.787 0.324 68 32 10 0 0
0.0787 0.1362 0.0093 0.525 -0.787 0.324 71 35 13 0 0
0.1331 0.0559 -0.1690 0.038 -0.615 -0.787 64 45 38 0 0
0.1191 0.0810 -0.2440 0.309 -0.942 -0.126 61 42 35 0 0
0.1170 0.0868 -0.3109 0.572 -0.816 0.077 67 34 14 0 0
0.1112 0.0966 -0.3255 0.744 -0.665 -0.063 68 37 16 0 0
0.1056 0.1069 -0.3617 0.593 -0.796 0.122 43 25 17 0 0
0.1132 0.0955 -0.3829 0.746 -0.579 0.329 55 27 14 0 0
0.1138 0.0947 -0.3857 0.507 -0.568 0.649 60 36 24 0 0
0.1360 0.0612 -0.4357 0.033 -0.993 0.113 78 50 27 0 0
0.1035 0.1212 -0.6585 0.693 -0.718 -0.066 74 42 20 0 0
0.1024 0.1235 -0.6757 0.587 -0.720 0.369 70 38 18 0 0
0.1154 0.1047 -0.7309 0.398 -0.916 -0.056 63 32 12 0 0
0.1361 0.0746 -0.8046 0.875 -0.333 0.350 59 27 12 0 0
0.1486 0.0558 -0.8384 0.451 -0.864 -0.223 70 34 14 0 0
0.1486 0.0560 -0.8417 0.402 -0.916 0.007 75 37 16 0 0
0.1484 0.0575 -0.8777 0.378 -0.882 -0.279 79 53 38 0 0
0.1422 0.0690 -0.9202 0.677 -0.736 -0.016 92 68 44 0 0
0.1423 0.0692 -0.9268 0.677 -0.736 -0.016 91 67 42 0 0
0.1439 0.0673 -0.9483 0.847 -0.515 0.133 46 18 7 0 0
0.1836 0.0074 -1.0385 0.575 -0.813 0.090 93 61 36 0 0
0.1837 0.0073 -1.0416 0.607 -0.775 0.175 96 66 40 0 0
0.1841 0.0067 -1.0444 0.634 -0.764 0.120 98 68 42 0 0
0.1801 0.0149 -1.0922 0.648 -0.649 0.398 42 22 11 0 0
0.1806 0.0142 -1.0948 0.694 -0.682 0.231 50 27 16 0 0
0.1915 -0.0022 -1.1238 0.577 -0.817 0.021 93 66 37 0 0
0.0628 0.1521 0.1150 0.197 -0.223 0.955 127 109 100 0 0
0.0767 0.1339 0.0063 0.771 -0.586 0.251 75 39 18 0 0
0.0798 0.1312 -0.0558 0.444 -0.887 0.126 58 27 11 0 0
0.1055 0.0912 -0.0783 0.896 -0.314 0.315 123 102 94 0 0
0.1337 0.0490 -0.1509 0.527 -0.743 0.413 67 49 38 0 0
0.1297 0.0568 -0.1926 0.219 -0.976 -0.018 66 47 40 0 0
0.1284 0.0591 -0.1959 0.217 -0.909 -0.357 62 43 36 0 0
0.1147 0.0833 -0.2656 0.610 -0.638 -0.470 58 39 31 0 0
0.1005 0.1089 -0.3475 0.616 -0.758 -0.212 45 27 17 0 0
0.1032 0.1051 -0.3617 0.593 -0.796 0.122 41 24 16 0 0
0.1114 0.0929 -0.3857 0.449 -0.613 0.650 55 28 15 0 0
0.1257 0.0706 -0.3972 0.440 -0.313 0.842 63 33 20 0 0
0.1262 0.0703 -0.4091 0.549 -0.677 -0.490 99 76 62 0 0
0.1348 0.0574 -0.4321 0.577 -0.775 0.259 80 48 25 0 0
0.1336 0.0594 -0.4358 0.616 -0.775 0.139 79 51 30 0 0
0.0988 0.1222 -0.6405 0.383 -0.912 0.148 80 46 19 0 0
0.1148 0.0996 -0.7197 0.731 -0.551 0.403 59 30 12 0 0
0.1135 0.1020 -0.7305 0.653 -0.753 0.082 62 32 14 0 0
0.1149 0.1000 -0.7327 0.486 -0.686 0.541 61 32 13 0 0
0.1319 0.0750 -0.7931 0.918 -0.361 0.165 58 29 11 0 0
0.1336 0.0729 -0.8047 0.840 -0.488 0.237 58 26 11 0 0
0.1446 0.0566 -0.8400 0.450 -0.752 -0.483 70 34 13 0 0
0.1434 0.0587 -0.8444 0.364 -0.910 -0.197 73 37 12 0 0
0.1380 0.0697 -0.9122 0.607 -0.755 0.247 70 43 25 0 0
0.1406 0.0662 -0.9293 0.738 -0.673 -0.048 85 55 32 0 0
0.1822 0.0044 -1.0471 0.624 -0.671 0.401 93 66 40 0 0
0.0777 0.1243 0.0740 0.660 -0.751 -0.022 75 40 15 0 0
0.0746 0.1310 0.0240 0.702 -0.710 0.059 70 34 10 0 0
0.0776 0.1290 -0.0558 0.626 -0.776 -0.077 55 27 10 0 0
0.1239 0.0575 -0.1064 0.217 -0.517 0.828 111 87 76 0 0
0.1311 0.0475 -0.1452 0.625 -0.713 0.319 63 33 14 0 0
0.1317 0.0467 -0.1479 0.590 -0.803 0.087 64 41 26 0 0
0.1315 0.0475 -0.1624 0.649 -0.697 0.306 65 47 39 0 0
0.1173 0.0722 -0.2222 0.204 -0.975 -0.091 60 41 34 0 0
0.1169 0.0729 -0.2253 0.282 -0.930 0.237 60 41 34 0 0
0.1163 0.0739 -0.2285 0.423 -0.906 0.033 60 41 34 0 0
0.1145 0.0770 -0.2320 0.761 -0.310 0.570 61 42 35 0 0
0.1158 0.0750 -0.2346 0.768 -0.300 0.565 62 43 36 0 0
0.1146 0.0772 -0.2439 0.543 -0.833 -0.106 60 41 34 0 0
0.1132 0.0798 -0.2534 0.880 -0.449 0.153 58 39 32 0 0
0.1083 0.0885 -0.2792 0.486 -0.807 -0.335 57 37 26 0 0
0.1023 0.1007 -0.3549 0.644 -0.761 -0.085 43 23 14 0 0
0.1313 0.0576 -0.4357 0.616 -0.775 0.139 80 51 30 0 0
0.1002 0.1114 -0.5635 0.527 -0.827 0.193 88 54 27 0 0
0.1109 0.1004 -0.7306 0.685 -0.726 0.061 57 28 10 0 0
0.1306 0.0716 -0.7986 0.623 -0.708 0.333 58 25 11 0 0
0.1310 0.0712 -0.8015 0.635 -0.733 0.244 56 22 10 0 0
0.1299 0.0731 -0.8058 0.631 -0.775 -0.033 55 23 10 0 0
0.1415 0.0575 -0.8831 0.625 -0.777 -0.074 78 52 36 0 0
0.1691 0.0177 -0.9943 0.766 -0.594 0.247 72 45 25 0 0
0.1695 0.0171 -0.9971 0.766 -0.594 0.247 66 37 18 0 0
0.1710 0.0149 -1.0019 0.647 -0.606 0.463 61 28 9 0 0
0.1724 0.0128 -1.0036 0.484 -0.739 0.468 59 26 7 0 0
0.0759 0.1218 0.0711 0.741 -0.639 0.204 74 38 14 0 0
0.0927 0.1001 -0.0680 0.672 -0.246 0.699 88 69 62 0 0
0.1296 0.0448 -0.1508 0.785 -0.562 0.260 68 50 39 0 0
0.1140 0.0721 -0.2255 0.301 -0.934 0.194 60 41 34 0 0
0.1138 0.0724 -0.2285 0.723 -0.680 0.121 61 42 35 0 0
0.1140 0.0723 -0.2314 0.289 -0.859 0.423 62 43 36 0 0
0.1149 0.0711 -0.2371 0.232 -0.969 -0.081 61 42 35 0 0
0.1063 0.0860 -0.2761 0.486 -0.807 -0.335 56 36 25 0 0
0.1054 0.0880 -0.2945 0.530 -0.846 0.062 48 28 17 0 0
0.0960 0.1047 -0.3473 0.584 -0.783 -0.213 44 25 14 0 0
0.1050 0.0920 -0.3896 0.620 -0.757 0.207 69 42 31 0 0
0.1209 0.0677 -0.4125 0.594 -0.692 -0.410 124 98 83 0 0
0.0895 0.1205 -0.5045 0.615 -0.776 0.139 69 37 16 0 0
0.0939 0.1183 -0.6372 0.661 -0.716 0.225 81 44 18 0 0
0.0954 0.1162 -0.6459 0.521 -0.847 0.108 78 42 16 0 0
0.1095 0.0966 -0.7200 0.647 -0.600 0.470 55 26 10 0 0
0.1232 0.0774 -0.7900 0.118 -0.850 0.513 52 23 9 0 0
0.1277 0.0704 -0.7957 0.160 -0.985 -0.061 55 25 11 0 0
0.1281 0.0704 -0.8085 0.673 -0.456 0.582 55 23 10 0 0
0.1361 0.0580 -0.8174 0.492 -0.722 0.486 57 25 10 0 0
0.1413 0.0514 -0.8613 0.555 -0.815 0.167 85 55 30 0 0
0.1416 0.0510 -0.8642 0.555 -0.815 0.167 87 60 39 0 0
0.1365 0.0610 -0.9218 0.622 -0.777 0.101 97 71 47 0 0
0.1597 0.0265 -0.9793 0.584 -0.773 0.249 89 72 64 0 0
0.1663 0.0165 -0.9947 0.649 -0.611 0.454 79 51 33 0 0
0.1670 0.0155 -0.9972 0.649 -0.611 0.454 66 37 16 0 0
0.1700 0.0110 -1.0035 0.538 -0.663 0.521 55 22 5 0 0
0.1770 0.0025 -1.0738 0.654 -0.756 0.011 85 58 38 0 0
0.1771 0.0025 -1.0770 0.673 -0.728 0.130 76 53 32 0 0
0.1734 0.0085 -1.0849 0.821 -0.558 0.124 64 44 26 0 0
0.0542 0.1488 0.1179 0.374 -0.159 0.914 138 127 120 0 0
0.0750 0.1219 -0.0495 0.703 -0.657 0.273 47 18 5 0 0
0.0750 0.1221 -0.0525 0.601 -0.726 0.335 42 13 4 0 0
0.1279 0.0423 -0.1507 0.656 -0.714 0.243 68 49 38 0 0
0.1294 0.0400 -0.1561 0.595 -0.788 0.159 66 49 39 0 0
0.1195 0.0571 -0.1995 0.773 -0.634 0.039 61 42 36 0 0
0.1164 0.0624 -0.2122 0.744 -0.568 0.352 59 40 33 0 0
0.1172 0.0613 -0.2149 0.832 -0.501 0.240 59 40 33 0 0
0.1113 0.0709 -0.2256 0.536 -0.844 0.012 58 39 32 0 0
0.1113 0.0710 -0.2286 0.285 -0.954 0.092 59 40 33 0 0
0.1083 0.0766 -0.2565 0.346 -0.938 0.032 57 38 31 0 0
0.1026 0.0874 -0.3039 0.750 -0.600 0.277 70 51 43 0 0
0.1023 0.0906 -0.3867 0.620 -0.757 0.207 47 21 9 0 0
0.1027 0.0901 -0.3896 0.620 -0.757 0.207 73 47 35 0 0
0.1149 0.0731 -0.4513 0.281 -0.332 -0.900 80 50 31 0 0
0.0899 0.1159 -0.5541 0.741 -0.511 0.435 79 45 18 0 0
0.1059 0.0967 -0.7274 0.495 -0.838 0.231 54 25 9 0 0
0.1220 0.0739 -0.7987 0.315 -0.802 0.507 55 24 11 0 0
0.1391 0.0493 -0.8643 0.555 -0.815 0.167 84 56 35 0 0
0.1372 0.0535 -0.8989 0.618 -0.785 -0.044 67 41 26 0 0
0.1640 0.0147 -0.9947 0.257 -0.773 0.580 73 45 28 0 0
0.1648 0.0135 -0.9970 0.454 -0.741 0.495 66 35 16 0 0
0.1741 0.0015 -1.0744 0.572 -0.790 0.220 85 59 39 0 0
0.1738 0.0022 -1.0781 0.449 -0.763 0.466 75 51 32 0 0
0.0743 0.1122 0.1058 -0.135 -0.838 0.529 142 109 86 0 0
0.0739 0.1130 0.1001 0.813 -0.439 0.383 110 73 45 0 0
0.0677 0.1250 0.0357 0.650 -0.752 -0.111 73 37 15 0 0
0.0721 0.1209 -0.0467 0.695 -0.699 0.168 51 21 9 0 0
0.0927 0.0893 -0.0702 0.448 -0.571 0.687 91 72 64 0 0
0.0956 0.0849 -0.0727 0.266 -0.849 0.456 134 120 111 0 0
0.1311 0.0315 -0.1379 0.486 -0.874 -0.008 63 30 11 0 0
0.1319 0.0303 -0.1406 0.529 -0.843 -0.098 57 26 9 0 0
0.1256 0.0408 -0.1594 0.678 -0.684 0.269 67 49 39 0 0
0.1144 0.0594 -0.1886 0.708 -0.238 0.665 63 43 36 0 0
0.1092 0.0684 -0.2167 0.819 -0.319 0.477 58 39 32 0 0
0.1055 0.0756 -0.2566 -0.061 -0.990 -0.124 57 37 30 0 0
0.1018 0.0827 -0.2972 0.410 -0.890 0.201 49 29 18 0 0
0.1037 0.0802 -0.3085 0.382 -0.822 0.422 63 33 22 0 0
0.1056 0.0776 -0.3199 0.531 -0.805 0.266 60 28 12 0 0
0.1000 0.0887 -0.3866 0.620 -0.757 0.207 51 24 9 0 0
0.1003 0.0882 -0.3895 0.620 -0.757 0.207 73 50 36 0 0
0.1135 0.0679 -0.3955 0.141 -0.531 0.835 60 33 21 0 0
0.0930 0.1061 -0.5762 0.502 -0.864 0.040 91 61 33 0 0
0.1006 0.0991 -0.7198 0.558 -0.798 0.230 54 23 8 0 0
0.1022 0.0966 -0.7218 0.563 -0.755 0.336 54 23 8 0 0
0.1189 0.0731 -0.7992 0.577 -0.541 0.612 54 22 11 0 0
0.1305 0.0554 -0.8116 0.781 -0.622 0.058 55 23 10 0 0
0.1309 0.0549 -0.8145 0.622 -0.766 0.161 56 24 9 0 0
0.1347 0.0498 -0.8402 0.422 -0.882 0.208 69 32 13 0 0
0.1361 0.0478 -0.8453 0.886 -0.455 0.090 70 32 11 0 0
0.1312 0.0585 -0.9355 0.445 -0.870 0.210 75 43 21 0 0
0.1316 0.0580 -0.9384 0.445 -0.870 0.210 59 27 12 0 0
0.1425 0.0417 -0.9632 0.620 -0.756 0.211 93 78 73 0 0
0.1625 0.0115 -0.9969 0.510 -0.772 0.379 69 36 19 0 0
0.1701 0.0026 -1.0862 0.548 -0.804 0.230 54 33 22 0 0
0.1723 -0.0005 -1.0935 0.361 -0.911 0.202 42 21 13 0 0
0.0729 0.1089 0.1058 0.464 -0.866 0.188 136 105 87 0 0
0.0718 0.1109 0.1000 0.532 -0.616 0.581 117 80 52 0 0
0.0703 0.1167 -0.0052 0.694 -0.654 0.301 62 30 10 0 0
0.0704 0.1166 -0.0081 0.861 -0.482 0.162 62 30 10 0 0
0.0905 0.0874 -0.0702 0.467 -0.538 0.702 98 78 70 0 0
0.0926 0.0842 -0.0728 0.068 -0.917 0.394 127 113 104 0 0
0.0905 0.0876 -0.0790 0.416 -0.903 0.104 103 82 75 0 0
0.1184 0.0458 -0.1288 0.643 -0.729 0.236 80 36 5 0 0
0.1028 0.0742 -0.2508 0.861 -0.480 -0.167 56 37 30 0 0
0.1032 0.0736 -0.2536 0.684 -0.726 -0.071 56 37 30 0 0
0.1032 0.0738 -0.2567 0.684 -0.726 -0.071 57 37 30 0 0
0.1011 0.0789 -0.3087 0.382 -0.822 0.422 63 33 21 0 0
0.1015 0.0784 -0.3146 0.412 -0.884 0.222 58 29 13 0 0
0.1027 0.0767 -0.3201 0.479 -0.876 0.062 60 28 11 0 0
0.0918 0.0951 -0.3584 0.623 -0.780 -0.063 38 18 10 0 0
0.0923 0.0943 -0.3613 0.752 -0.657 0.053 34 17 9 0 0
0.0986 0.0854 -0.3862 0.562 -0.770 0.303 49 22 8 0 0
0.0991 0.0846 -0.3890 0.664 -0.721 0.198 75 52 38 0 0
0.1025 0.0795 -0.3935 0.445 -0.825 0.348 57 31 18 0 0
0.1032 0.0785 -0.3963 0.443 -0.807 0.390 54 27 15 0 0
0.1155 0.0594 -0.4025 0.513 -0.858 -0.010 70 38 21 0 0
0.0897 0.1044 -0.5384 0.442 -0.832 0.335 77 43 17 0 0
0.0966 0.0995 -0.7146 0.552 -0.771 0.318 55 23 8 0 0
0.0981 0.0973 -0.7199 0.558 -0.798 0.230 52 23 8 0 0
0.0988 0.0964 -0.7226 0.585 -0.747 0.316 52 23 8 0 0
0.0994 0.0955 -0.7254 0.586 -0.776 0.233 52 23 7 0 0
0.1000 0.0947 -0.7314 0.545 -0.773 0.324 53 24 9 0 0
0.1325 0.0477 -0.8432 0.574 -0.817 0.057 68 31 12 0 0
0.1333 0.0466 -0.8457 0.536 -0.841 0.070 70 32 11 0 0
0.1331 0.0486 -0.8981 0.341 -0.939 0.043 67 41 24 0 0
0.1304 0.0531 -0.9074 0.626 -0.697 0.350 68 41 24 0 0
0.1399 0.0401 -0.9601 0.647 -0.561 0.516 79 65 57 0 0
0.1402 0.0398 -0.9631 0.620 -0.756 0.211 91 76 71 0 0
0.1623 0.0067 -1.0074 0.183 -0.924 0.335 58 25 8 0 0
0.1679 0.0005 -1.0827 0.641 -0.730 0.238 65 42 28 0 0
0.1677 0.0009 -1.0863 0.548 -0.804 0.230 53 32 21 0 0
0.1671 0.0024 -1.1003 0.600 -0.799 0.052 52 26 15 0 0
0.0682 0.1145 -0.0052 0.694 -0.654 0.301 67 35 14 0 0
0.0687 0.1138 -0.0081 0.825 -0.551 0.123 66 34 12 0 0
0.0882 0.0855 -0.0702 0.467 -0.538 0.702 90 70 63 0 0
0.0923 0.0793 -0.0725 -0.224 -0.973 -0.060 143 129 120 0 0
0.0879 0.0864 -0.0791 0.416 -0.903 0.104 104 83 75 0 0
0.1161 0.0433 -0.1058 0.281 -0.449 0.848 113 91 81 0 0
0.1160 0.0442 -0.1289 0.628 -0.768 0.127 87 43 12 0 0
0.1257 0.0294 -0.1381 0.658 -0.750 0.068 61 28 11 0 0
0.1200 0.0385 -0.1452 0.540 -0.805 0.247 55 26 9 0 0
0.0980 0.0748 -0.2098 0.849 -0.323 0.418 57 39 31 0 0
0.1011 0.0715 -0.2506 0.928 -0.363 -0.084 56 37 30 0 0
0.0991 0.0762 -0.3025 0.730 -0.681 0.057 63 44 36 0 0
0.0993 0.0761 -0.3054 0.730 -0.681 0.057 70 47 40 0 0
0.0990 0.0768 -0.3116 0.668 -0.744 -0.031 55 22 10 0 0
0.0999 0.0780 -0.3937 0.445 -0.825 0.348 63 37 24 0 0
0.1006 0.0771 -0.3964 0.443 -0.807 0.390 54 27 15 0 0
0.1060 0.0705 -0.4522 0.234 -0.354 -0.906 78 50 31 0 0
0.0862 0.1042 -0.5390 0.454 -0.827 0.333 77 43 17 0 0
0.0842 0.1083 -0.5659 0.495 -0.835 0.239 74 38 14 0 0
0.0914 0.1015 -0.7036 0.306 -0.912 0.272 54 25 9 0 0
0.1249 0.0534 -0.8285 -0.010 -0.887 0.461 60 27 11 0 0
0.1298 0.0463 -0.8434 0.532 -0.774 0.344 67 30 11 0 0
0.1308 0.0465 -0.8914 0.387 -0.895 0.223 70 44 29 0 0
0.1310 0.0462 -0.8945 0.493 -0.820 0.292 67 41 26 0 0
0.1259 0.0548 -0.9160 0.560 -0.799 0.219 84 58 37 0 0
0.1261 0.0547 -0.9224 0.627 -0.758 0.178 91 66 41 0 0
0.1276 0.0524 -0.9242 0.321 -0.890 0.324 88 62 39 0 0
0.1373 0.0387 -0.9636 0.348 -0.913 0.214 91 76 71 0 0
0.1589 0.0066 -1.0086 0.786 -0.585 0.199 57 24 7 0 0
0.1654 -0.0035 -1.0141 0.333 -0.907 0.259 58 25 8 0 0
0.1660 -0.0021 -1.0821 0.801 -0.594 0.074 65 42 28 0 0
0.1665 -0.0029 -1.0847 0.756 -0.653 0.043 51 30 19 0 0
0.0655 0.1107 0.0739 0.784 -0.607 0.133 65 30 8 0 0
0.0687 0.1071 0.0332 0.816 -0.544 0.193 72 36 13 0 0
0.0688 0.1075 0.0186 0.564 -0.818 0.112 64 29 8 0 0
0.0662 0.1122 -0.0052 0.737 -0.655 0.166 63 31 10 0 0
0.0665 0.1118 -0.0081 0.737 -0.655 0.166 63 31 10 0 0
0.0673 0.1107 -0.0109 0.500 -0.693 0.519 64 31 11 0 0
0.0860 0.0836 -0.0702 0.439 -0.602 0.667 103 82 74 0 0
0.0882 0.0803 -0.0728 -0.224 -0.973 -0.060 131 115 107 0 0
0.0854 0.0847 -0.0762 0.758 -0.651 -0.039 125 109 102 0 0
0.0854 0.0848 -0.0791 0.758 -0.651 -0.039 103 81 73 0 0
0.0852 0.0853 -0.0821 0.815 -0.577 0.050 64 36 23 0 0
0.1177 0.0369 -0.1453 0.540 -0.805 0.247 56 26 9 0 0
0.1136 0.0449 -0.1986 0.280 -0.950 -0.141 61 42 36 0 0
0.0997 0.0671 -0.2205 0.953 -0.297 -0.055 56 37 30 0 0
0.0998 0.0681 -0.2503 0.928 -0.363 -0.084 56 38 29 0 0
0.0993 0.0690 -0.2564 0.796 -0.575 -0.189 56 37 28 0 0
0.0896 0.0876 -0.3635 0.479 -0.695 0.537 23 11 5 0 0
0.0976 0.0761 -0.3936 0.139 -0.896 0.421 61 35 22 0 0
0.1114 0.0553 -0.4144 0.261 -0.847 0.463 87 53 31 0 0
0.1105 0.0691 -0.7936 0.529 -0.847 -0.058 47 18 4 0 0
0.1188 0.0569 -0.8123 0.433 -0.891 0.138 50 21 8 0 0
0.1197 0.0558 -0.8245 0.124 -0.973 0.194 54 23 10 0 0
0.1203 0.0550 -0.8272 0.405 -0.756 0.514 58 25 12 0 0
0.1212 0.0538 -0.8297 0.405 -0.756 0.514 60 27 11 0 0
0.1293 0.0430 -0.8840 0.402 -0.898 -0.180 76 50 34 0 0
0.1237 0.0525 -0.9125 0.838 -0.543 -0.063 73 46 27 0 0
0.1238 0.0526 -0.9190 0.560 -0.799 0.219 90 66 41 0 0
0.1587 0.0012 -1.0060 0.670 -0.689 0.276 56 23 6 0 0
0.1634 -0.0035 -1.0824 0.665 -0.679 0.311 65 41 28 0 0
0.1638 -0.0041 -1.0851 0.607 -0.703 0.370 50 30 19 0 0
0.0363 0.1490 0.1208 0.378 -0.440 -0.815 174 170 169 0 0
0.0687 0.0999 0.0884 0.800 -0.595 0.078 66 33 12 0 0
0.0666 0.1035 0.0797 0.711 -0.699 -0.069 68 33 11 0 0
0.0648 0.1065 0.0739 0.577 -0.816 0.031 71 36 14 0 0
0.0664 0.1054 0.0244 0.512 -0.845 0.157 65 29 7 0 0
0.0667 0.1052 0.0215 0.621 -0.768 0.158 65 30 8 0 0
0.0682 0.1032 0.0099 0.747 -0.650 0.136 59 27 7 0 0
0.0621 0.1145 -0.0469 0.741 -0.641 0.200 53 24 10 0 0
0.0839 0.0814 -0.0702 0.600 -0.570 0.561 90 70 61 0 0
0.0825 0.0838 -0.0734 0.907 -0.404 0.119 133 116 109 0 0
0.0833 0.0825 -0.0762 0.888 -0.443 -0.125 121 105 98 0 0
0.1209 0.0264 -0.1383 0.670 -0.732 -0.123 61 29 10 0 0
0.1163 0.0341 -0.1595 0.667 -0.727 0.163 66 48 38 0 0
0.0893 0.0801 -0.2863 0.429 -0.882 -0.193 46 26 17 0 0
0.0940 0.0762 -0.3912 0.773 -0.582 0.251 62 36 23 0 0
0.0947 0.0752 -0.3939 0.102 -0.964 0.246 61 35 22 0 0
0.0786 0.1049 -0.5439 0.717 -0.693 0.076 74 40 15 0 0
0.0851 0.0995 -0.6915 0.717 -0.697 -0.002 55 26 10 0 0
0.0870 0.0970 -0.7031 0.374 -0.924 -0.078 55 26 10 0 0
0.0855 0.0994 -0.7076 0.118 -0.978 0.175 56 27 11 0 0
0.0952 0.0858 -0.7490 0.498 -0.792 0.354 49 19 8 0 0
0.1096 0.0645 -0.7825 0.410 -0.891 -0.197 46 19 2 0 0
0.1094 0.0650 -0.7860 0.667 -0.741 0.084 46 17 3 0 0
0.1075 0.0681 -0.7909 0.656 -0.624 -0.425 47 18 4 0 0
0.1158 0.0558 -0.8096 0.489 -0.814 -0.315 49 19 8 0 0
0.1255 0.0435 -0.8886 0.584 -0.811 -0.038 68 42 27 0 0
0.1205 0.0529 -0.9431 0.655 -0.748 0.108 51 24 9 0 0
0.1399 0.0241 -0.9818 0.262 -0.831 0.490 87 74 65 0 0
0.1519 0.0062 -1.0013 0.469 -0.834 0.291 64 31 14 0 0
0.1564 -0.0007 -1.0059 0.699 -0.673 0.242 59 26 9 0 0
0.1621 -0.0074 -1.0711 0.566 -0.814 -0.133 92 65 43 0 0
0.1596 -0.0032 -1.0808 0.429 -0.828 0.362 83 56 37 0 0
0.1596 -0.0031 -1.0841 0.405 -0.898 0.169 66 41 28 0 0
0.1595 -0.0028 -1.0875 0.393 -0.917 0.067 52 32 21 0 0
0.0714 0.0907 0.0769 0.603 -0.784 0.148 74 38 16 0 0
0.0635 0.1045 0.0243 0.584 -0.764 0.274 66 30 8 0 0
0.0661 0.1009 0.0128 0.703 -0.560 0.438 62 27 7 0 0
0.0662 0.1009 0.0099 0.747 -0.650 0.136 57 24 6 0 0
0.0607 0.1116 -0.0616 0.484 -0.481 0.731 58 29 18 0 0
0.0812 0.0803 -0.0703 0.506 -0.545 0.668 91 70 62 0 0
0.0806 0.0813 -0.0733 0.810 -0.505 0.300 134 117 110 0 0
0.0812 0.0805 -0.0762 0.811 -0.515 0.277 129 113 106 0 0
0.1189 0.0243 -0.1382 0.544 -0.813 -0.209 62 30 11 0 0
0.1186 0.0248 -0.1411 0.544 -0.813 -0.209 56 25 7 0 0
0.0951 0.0643 -0.2443 0.628 -0.528 0.571 53 35 27 0 0
0.0868 0.0784 -0.2833 0.518 -0.855 -0.010 45 25 16 0 0
0.0863 0.0793 -0.2865 0.600 -0.784 0.157 45 25 16 0 0
0.0949 0.0669 -0.3165 0.498 -0.820 0.284 72 39 20 0 0
0.0937 0.0710 -0.3841 0.771 -0.596 0.223 54 26 12 0 0
0.0745 0.1042 -0.4970 0.519 -0.831 0.202 74 42 21 0 0
0.0748 0.1037 -0.5000 0.519 -0.831 0.202 70 38 17 0 0
0.0763 0.1027 -0.5406 0.601 -0.797 0.069 71 38 13 0 0
0.0902 0.0871 -0.7216 0.455 -0.845 0.282 51 22 9 0 0
0.0948 0.0808 -0.7506 0.488 -0.867 0.100 47 19 7 0 0
0.0951 0.0804 -0.7536 0.640 -0.762 0.100 47 19 7 0 0
0.0957 0.0796 -0.7564 0.480 -0.877 -0.022 47 19 7 0 0
0.0957 0.0797 -0.7596 0.480 -0.877 -0.022 49 19 8 0 0
0.1106 0.0586 -0.8154 0.568 -0.819 0.085 50 21 8 0 0
0.1230 0.0420 -0.8952 0.740 -0.672 0.024 61 35 18 0 0
0.1368 0.0234 -0.9826 0.240 -0.860 0.450 94 78 70 0 0
0.1538 -0.0020 -1.0062 0.778 -0.624 0.070 61 28 11 0 0
0.1606 -0.0121 -1.0211 0.452 -0.777 0.439 71 35 14 0 0
0.1617 -0.0137 -1.0231 0.668 -0.744 0.010 71 36 13 0 0
0.1652 -0.0159 -1.1235 0.789 -0.550 0.273 85 59 36 0 0
0.0649 0.0966 0.0362 0.681 -0.695 0.232 74 38 14 0 0
0.0644 0.0975 0.0333 0.548 -0.817 0.180 74 38 14 0 0
0.0632 0.0995 0.0274 0.238 -0.964 -0.121 68 32 9 0 0
0.0636 0.0990 0.0245 0.319 -0.906 0.278 66 30 8 0 0
0.0667 0.0944 0.0217 0.445 -0.845 0.298 66 30 8 0 0
0.0672 0.0936 0.0189 0.361 -0.877 0.316 65 30 9 0 0
0.0593 0.1082 -0.0585 0.800 -0.571 0.186 53 24 11 0 0
0.0590 0.1087 -0.0615 0.473 -0.629 0.617 62 33 22 0 0
0.0786 0.0790 -0.0733 0.398 -0.503 0.768 132 115 108 0 0
0.0792 0.0781 -0.0761 0.754 -0.651 0.087 121 105 98 0 0
0.0797 0.0776 -0.0790 0.764 -0.613 0.199 117 96 87 0 0
0.1093 0.0345 -0.1601 0.725 -0.628 -0.284 65 47 37 0 0
0.1000 0.0500 -0.2006 0.518 -0.855 -0.010 59 40 33 0 0
0.0996 0.0508 -0.2037 0.766 -0.623 -0.161 59 40 33 0 0
0.0985 0.0527 -0.2099 0.833 -0.535 -0.138 59 40 33 0 0
0.0826 0.0795 -0.2870 0.716 -0.603 0.351 44 24 15 0 0
0.0772 0.0899 -0.3535 0.438 -0.825 0.356 39 20 14 0 0
0.0739 0.0952 -0.3580 0.540 -0.826 -0.164 40 21 14 0 0
0.0854 0.0775 -0.3591 0.687 -0.690 0.226 39 23 14 0 0
0.0858 0.0770 -0.3620 0.687 -0.690 0.226 21 9 3 0 0
0.0862 0.0765 -0.3649 0.687 -0.690 0.226 24 12 7 0 0
0.0865 0.0761 -0.3679 0.739 -0.644 0.196 43 26 18 0 0
0.0718 0.1022 -0.4813 0.516 -0.817 0.256 73 42 21 0 0
0.0748 0.1008 -0.5850 0.665 -0.747 0.026 79 44 19 0 0
0.0758 0.1025 -0.6883 0.469 -0.881 0.063 58 29 10 0 0
0.1119 0.0512 -0.8250 0.443 -0.844 0.302 53 23 9 0 0
0.1127 0.0502 -0.8308 0.644 -0.712 0.279 57 24 9 0 0
0.1131 0.0496 -0.8336 0.644 -0.712 0.279 57 24 9 0 0
0.1222 0.0362 -0.8480 0.746 -0.665 0.025 70 32 11 0 0
0.1224 0.0359 -0.8510 0.425 -0.861 0.278 75 34 10 0 0
0.1520 -0.0047 -1.0055 0.776 -0.630 -0.022 62 29 11 0 0
0.1522 -0.0049 -1.0117 0.750 -0.660 0.049 59 26 7 0 0
0.1532 -0.0062 -1.0172 0.715 -0.580 0.390 59 26 7 0 0
0.1549 -0.0069 -1.0839 0.438 -0.898 -0.032 64 39 26 0 0
0.1615 -0.0160 -1.1152 0.667 -0.667 0.332 89 58 30 0 0
0.0614 0.0974 0.0157 0.715 -0.669 0.206 64 29 9 0 0
0.0617 0.0969 0.0128 0.715 -0.669 0.206 61 26 7 0 0
0.0621 0.0964 0.0099 0.715 -0.669 0.206 62 29 9 0 0
0.0602 0.1007 -0.0344 0.851 -0.513 -0.117 63 30 15 0 0
0.0572 0.1061 -0.0615 0.513 -0.727 0.456 62 34 20 0 0
0.0772 0.0759 -0.0761 0.672 -0.740 0.016 131 113 106 0 0
0.0973 0.0487 -0.1948 0.411 -0.911 -0.021 61 42 36 0 0
0.0976 0.0484 -0.1977 0.663 -0.748 0.006 60 41 35 0 0
0.0975 0.0485 -0.2007 0.342 -0.940 -0.001 59 40 34 0 0
0.0856 0.0689 -0.2670 0.131 -0.928 0.349 49 32 23 0 0
0.0797 0.0788 -0.2963 0.462 -0.817 0.344 41 23 14 0 0
0.0813 0.0765 -0.2988 0.535 -0.741 0.405 41 22 15 0 0
0.0759 0.0851 -0.3130 0.740 -0.664 0.107 60 33 20 0 0
0.0902 0.0634 -0.3195 0.503 -0.864 -0.038 63 32 13 0 0
0.1087 0.0385 -0.4323 0.453 -0.883 0.118 77 42 23 0 0
0.0719 0.0996 -0.5853 0.585 -0.797 0.151 77 42 16 0 0
0.1010 0.0607 -0.7706 -0.134 -0.984 0.118 48 19 7 0 0
0.1027 0.0582 -0.7724 0.447 -0.854 -0.265 48 18 7 0 0
0.1109 0.0475 -0.8335 0.422 -0.883 0.206 57 24 9 0 0
0.1182 0.0379 -0.8885 0.776 -0.629 0.047 71 45 30 0 0
0.1133 0.0463 -0.9131 0.598 -0.798 -0.076 67 40 21 0 0
0.1131 0.0468 -0.9199 0.598 -0.798 -0.076 82 56 34 0 0
0.1280 0.0253 -0.9638 0.551 -0.413 0.725 90 75 70 0 0
0.1374 0.0113 -0.9798 0.716 -0.624 0.314 92 74 66 0 0
0.1469 -0.0027 -0.9955 0.751 -0.409 0.518 68 40 23 0 0
0.1514 -0.0088 -1.0229 0.636 -0.586 0.503 64 31 12 0 0
0.1517 -0.0071 -1.0915 0.515 -0.853 -0.080 35 21 15 0 0
0.1599 -0.0188 -1.1208 0.423 -0.893 0.156 89 63 38 0 0
0.1602 -0.0192 -1.1237 0.423 -0.893 0.156 87 63 38 0 0
0.0606 0.0938 -0.0076 0.643 -0.765 0.015 71 36 16 0 0
0.0552 0.1038 -0.0615 0.568 -0.749 0.342 64 37 22 0 0
0.0750 0.0739 -0.0761 0.622 -0.715 0.318 117 99 91 0 0
0.0756 0.0732 -0.0789 0.622 -0.715 0.318 104 85 77 0 0
0.0772 0.0708 -0.0845 0.694 -0.690 0.207 50 22 9 0 0
0.0786 0.0687 -0.0872 0.520 -0.825 0.220 48 19 6 0 0
0.0954 0.0464 -0.1977 0.529 -0.799 0.287 61 42 36 0 0
0.0953 0.0466 -0.2006 0.106 -0.984 -0.146 58 39 32 0 0
0.0835 0.0668 -0.2669 0.759 -0.647 0.072 50 32 23 0 0
0.0836 0.0666 -0.2699 0.744 -0.634 0.209 50 31 24 0 0
0.0777 0.0761 -0.2871 0.516 -0.839 -0.173 44 26 16 0 0
0.0811 0.0712 -0.2949 0.390 -0.733 0.557 42 24 15 0 0
0.0753 0.0807 -0.3185 0.427 -0.798 0.425 59 29 14 0 0
0.0694 0.0980 -0.5917 0.698 -0.710 0.095 80 44 18 0 0
0.0869 0.0766 -0.7641 0.593 -0.805 -0.028 51 21 10 0 0
0.0957 0.0641 -0.7991 0.459 -0.870 0.181 48 19 5 0 0
0.1074 0.0471 -0.8279 0.465 -0.872 0.156 58 25 10 0 0
0.1179 0.0322 -0.8637 0.758 -0.647 -0.080 80 51 29 0 0
0.1173 0.0333 -0.8707 0.494 -0.849 -0.187 81 54 34 0 0
0.1120 0.0436 -0.9417 0.620 -0.775 -0.123 49 23 11 0 0
0.1215 0.0291 -0.9418 0.789 -0.533 0.306 45 19 8 0 0
0.1359 0.0083 -0.9822 0.728 -0.684 -0.043 89 72 64 0 0
0.1374 0.0059 -0.9837 0.360 -0.738 0.571 85 68 60 0 0
0.1485 -0.0100 -1.0138 0.680 -0.680 0.274 59 26 7 0 0
0.0564 0.0921 0.0882 0.248 -0.882 0.401 113 79 50 0 0
0.0615 0.0846 0.0796 0.452 -0.865 0.217 77 42 15 0 0
0.0616 0.0848 0.0681 0.588 -0.797 0.141 72 36 14 0 0
0.0617 0.0846 0.0652 0.615 -0.779 0.120 76 38 17 0 0
0.0618 0.0858 0.0247 0.444 -0.872 0.204 74 38 14 0 0
0.0611 0.0868 0.0218 0.345 -0.933 0.103 75 40 15 0 0
0.0584 0.0914 0.0099 0.724 -0.581 0.371 74 38 16 0 0
0.0590 0.0909 -0.0047 0.293 -0.952 -0.090 68 33 13 0 0
0.0585 0.0918 -0.0077 0.565 -0.754 0.334 69 34 14 0 0
0.0591 0.0911 -0.0164 0.754 -0.654 -0.061 66 34 13 0 0
0.0571 0.0946 -0.0313 0.785 -0.591 0.187 63 30 11 0 0
0.0727 0.0722 -0.0761 0.529 -0.719 0.451 106 88 78 0 0
0.0735 0.0710 -0.0789 0.480 -0.762 0.435 104 84 76 0 0
0.0747 0.0693 -0.0846 0.469 -0.841 0.271 48 20 9 0 0
0.0761 0.0673 -0.0873 0.432 -0.876 0.215 51 22 11 0 0
0.0934 0.0442 -0.1976 0.671 -0.734 0.105 61 42 36 0 0
0.0731 0.0802 -0.3706 0.615 -0.744 0.261 34 16 9 0 0
0.0736 0.0796 -0.3735 0.736 -0.522 0.432 47 24 14 0 0
0.0745 0.0878 -0.6967 0.477 -0.878 0.041 55 26 10 0 0
0.0937 0.0618 -0.8020 0.615 -0.722 0.318 48 19 5 0 0
0.0983 0.0551 -0.8143 0.628 -0.757 -0.183 50 21 7 0 0
0.1022 0.0493 -0.8174 0.643 -0.721 0.258 52 23 9 0 0
0.1097 0.0412 -0.9283 0.773 -0.587 0.243 91 65 42 0 0
0.1540 -0.0227 -1.0534 0.426 -0.887 0.179 91 65 40 0 0
0.1527 -0.0190 -1.1073 0.721 -0.692 0.030 79 42 13 0 0
0.1538 -0.0206 -1.1126 0.520 -0.838 0.164 86 56 25 0 0
0.1541 -0.0209 -1.1155 0.520 -0.838 0.164 89 62 34 0 0
0.1544 -0.0213 -1.1184 0.520 -0.838 0.164 87 61 35 0 0
0.0598 0.0822 0.0681 0.172 -0.967 0.189 71 34 11 0 0
0.0558 0.0901 0.0011 0.605 -0.764 0.225 70 35 14 0 0
0.0571 0.0887 -0.0134 0.581 -0.811 0.064 69 36 15 0 0
0.0545 0.0931 -0.0314 0.561 -0.815 0.145 68 35 15 0 0
0.0721 0.0680 -0.0846 0.489 -0.856 0.167 54 24 10 0 0
0.0974 0.0308 -0.1233 0.359 -0.929 0.094 112 77 53 0 0
0.1057 0.0188 -0.1445 0.621 -0.716 -0.318 66 36 18 0 0
0.0799 0.0612 -0.2605 0.164 -0.962 0.218 52 35 27 0 0
0.0705 0.0772 -0.3155 0.480 -0.660 0.579 51 20 8 0 0
0.0696 0.0801 -0.3681 0.366 -0.792 0.488 32 17 16 0 0
0.0652 0.0920 -0.5495 0.589 -0.787 0.186 70 35 12 0 0
0.0918 0.0582 -0.7690 0.677 -0.708 0.199 51 21 8 0 0
0.0919 0.0589 -0.8014 0.932 -0.363 0.026 52 21 8 0 0
0.0997 0.0475 -0.8174 0.527 -0.792 0.309 55 24 9 0 0
0.1089 0.0362 -0.9101 0.472 -0.872 0.133 60 34 16 0 0
0.1088 0.0371 -0.9333 0.479 -0.868 0.128 75 45 26 0 0
0.1312 0.0045 -0.9788 0.455 -0.877 0.154 90 73 65 0 0
0.1436 -0.0139 -0.9976 0.392 -0.876 0.281 62 30 10 0 0
0.1454 -0.0157 -1.0281 0.515 -0.834 0.198 69 33 12 0 0
0.1512 -0.0220 -1.1128 0.463 -0.882 0.083 84 52 22 0 0
0.0603 0.0764 0.0624 0.868 -0.348 0.354 77 38 14 0 0
0.0556 0.0857 -0.0163 0.250 -0.965 -0.083 70 35 15 0 0
0.0696 0.0665 -0.0847 0.489 -0.856 0.167 61 30 12 0 0
0.0943 0.0301 -0.1178 0.327 -0.944 -0.046 125 104 94 0 0
0.0947 0.0297 -0.1235 0.537 -0.841 0.063 102 65 41 0 0
0.1004 0.0218 -0.1481 0.390 -0.868 -0.307 65 42 28 0 0
0.0807 0.0536 -0.2177 0.594 -0.746 0.302 57 38 31 0 0
0.0809 0.0533 -0.2206 0.779 -0.617 0.118 57 38 31 0 0
0.0720 0.0698 -0.3262 0.482 -0.873 0.076 61 29 13 0 0
0.0716 0.0706 -0.3355 0.497 -0.631 -0.596 40 20 12 0 0
0.0675 0.0778 -0.3649 0.062 -0.993 -0.099 20 9 7 0 0
0.0672 0.0783 -0.3681 0.053 -0.998 -0.021 26 12 10 0 0
0.1043 0.0235 -0.4117 0.683 -0.722 -0.112 78 34 12 0 0
0.1039 0.0240 -0.4149 0.498 -0.842 -0.207 73 33 11 0 0
0.0937 0.0404 -0.4444 0.367 -0.456 -0.811 79 51 32 0 0
0.0614 0.0910 -0.5088 0.605 -0.793 0.068 69 39 17 0 0
0.0604 0.0959 -0.6219 0.506 -0.863 0.004 83 46 20 0 0
0.0601 0.0969 -0.6416 0.485 -0.867 0.111 77 41 15 0 0
0.0701 0.0835 -0.7061 0.449 -0.872 0.196 55 26 10 0 0
0.0708 0.0826 -0.7121 0.433 -0.834 0.343 56 27 11 0 0
0.0783 0.0724 -0.7454 0.658 -0.651 0.378 51 22 8 0 0
0.0784 0.0722 -0.7486 0.699 -0.486 0.524 52 23 9 0 0
0.1073 0.0341 -0.9455 0.448 -0.877 0.173 45 21 11 0 0
0.1285 0.0031 -0.9790 0.455 -0.877 0.154 89 71 63 0 0
0.1376 -0.0102 -0.9952 0.554 -0.830 0.057 71 42 25 0 0
0.1382 -0.0110 -0.9977 0.666 -0.745 -0.036 68 37 17 0 0
0.1379 -0.0104 -1.0046 0.618 -0.772 0.151 59 27 7 0 0
0.1459 -0.0222 -1.0150 0.498 -0.831 0.246 65 30 10 0 0
0.1446 -0.0195 -1.0393 0.755 -0.616 0.225 87 54 26 0 0
0.1472 -0.0230 -1.0558 0.503 -0.850 0.156 92 66 41 0 0
0.1470 -0.0226 -1.0593 0.511 -0.792 0.333 92 66 40 0 0
0.1448 -0.0180 -1.1013 0.608 -0.714 0.347 55 28 11 0 0
0.1486 -0.0235 -1.1130 0.564 -0.825 0.031 87 55 25 0 0
0.0412 0.0988 0.0997 0.823 -0.524 0.217 134 103 92 0 0
0.0430 0.0962 0.0968 0.590 -0.779 0.211 142 114 101 0 0
0.0670 0.0651 -0.0848 0.489 -0.856 0.167 57 27 7 0 0
0.0682 0.0634 -0.0875 0.432 -0.876 0.215 58 27 10 0 0
0.0919 0.0286 -0.1178 0.306 -0.952 0.000 130 112 102 0 0
0.0919 0.0286 -0.1207 0.446 -0.892 0.073 133 106 91 0 0
0.0753 0.0564 -0.2187 -0.192 -0.979 -0.068 58 39 32 0 0
0.0770 0.0545 -0.2390 0.491 -0.865 -0.105 56 37 30 0 0
0.0764 0.0554 -0.2422 0.729 -0.642 0.239 57 38 31 0 0
0.0770 0.0546 -0.2450 0.369 -0.784 0.500 57 38 31 0 0
0.0709 0.0645 -0.2711 0.142 -0.990 0.010 53 35 25 0 0
0.0710 0.0644 -0.2740 0.142 -0.990 0.010 51 33 22 0 0
0.0694 0.0686 -0.3354 0.469 -0.696 -0.543 39 18 10 0 0
0.0681 0.0721 -0.3882 0.294 -0.932 0.212 61 33 19 0 0
0.0710 0.0678 -0.3931 0.450 -0.648 0.614 53 27 14 0 0
0.1005 0.0242 -0.4245 0.283 -0.954 0.095 74 38 16 0 0
0.0943 0.0339 -0.4337 0.364 -0.774 0.518 76 41 22 0 0
0.0550 0.0943 -0.4793 0.413 -0.911 0.010 63 34 16 0 0
0.0578 0.0942 -0.6220 0.550 -0.835 -0.033 81 44 18 0 0
0.0578 0.0943 -0.6253 0.506 -0.863 0.004 81 44 18 0 0
0.0619 0.0894 -0.6712 0.743 -0.600 0.297 59 28 11 0 0
0.0623 0.0889 -0.6742 0.709 -0.669 0.222 57 28 12 0 0
0.0621 0.0893 -0.6776 0.522 -0.844 0.121 58 29 11 0 0
0.0667 0.0831 -0.7035 0.479 -0.828 0.291 53 24 8 0 0
0.0672 0.0824 -0.7064 0.479 -0.828 0.291 54 25 9 0 0
0.0675 0.0820 -0.7095 0.433 -0.834 0.343 54 25 9 0 0
0.0738 0.0732 -0.7339 0.556 -0.825 0.098 56 27 11 0 0
0.0740 0.0729 -0.7370 0.556 -0.825 0.098 56 27 12 0 0
0.0782 0.0673 -0.7566 0.607 -0.782 0.141 51 22 8 0 0
0.1086 0.0241 -0.8535 0.613 -0.715 0.335 83 48 21 0 0
0.1040 0.0328 -0.9135 0.467 -0.875 -0.129 74 49 29 0 0
0.1260 0.0015 -0.9792 0.486 -0.808 0.333 88 71 63 0 0
0.1259 0.0017 -0.9825 0.498 -0.866 0.041 92 75 67 0 0
0.1355 -0.0122 -1.0014 0.427 -0.904 -0.021 63 31 10 0 0
0.1442 -0.0250 -1.0142 0.446 -0.887 0.124 65 30 10 0 0
0.1409 -0.0177 -1.0965 0.520 -0.851 -0.067 39 21 10 0 0
0.1474 -0.0275 -1.0952 0.574 -0.818 -0.041 54 26 9 0 0
0.1430 -0.0202 -1.1170 0.586 -0.797 -0.145 87 55 26 0 0
0.1427 -0.0198 -1.1206 0.590 -0.805 -0.058 90 61 38 0 0
0.1462 -0.0249 -1.1230 0.545 -0.831 0.110 86 60 37 0 0
0.0398 0.0957 0.0996 0.372 -0.902 0.219 130 100 88 0 0
0.0402 0.0952 0.0967 0.372 -0.902 0.219 142 114 101 0 0
0.0408 0.0942 0.0938 0.390 -0.825 0.410 137 108 93 0 0
0.0555 0.0738 0.0364 0.613 -0.781 0.122 74 38 15 0 0
0.0517 0.0817 -0.0427 0.693 -0.688 0.216 56 27 12 0 0
0.0652 0.0626 -0.0847 0.432 -0.876 0.215 58 27 10 0 0
0.0804 0.0436 -0.2224 0.222 -0.661 -0.716 58 39 32 0 0
0.0753 0.0516 -0.2329 0.387 -0.698 -0.603 57 38 31 0 0
0.0744 0.0532 -0.2421 0.729 -0.642 0.239 58 39 32 0 0
0.0742 0.0535 -0.2452 0.427 -0.617 0.661 58 39 32 0 0
0.0600 0.0782 -0.3691 -0.048 -0.996 -0.075 38 24 16 0 0
0.0602 0.0780 -0.3721 -0.051 -0.996 0.071 55 37 25 0 0
0.0661 0.0696 -0.3880 0.672 -0.685 -0.280 63 35 21 0 0
0.0676 0.0675 -0.3905 0.593 -0.478 0.648 63 37 24 0 0
0.0963 0.0249 -0.4133 0.272 -0.951 0.148 74 35 11 0 0
0.0972 0.0238 -0.4220 0.487 -0.845 -0.220 73 35 12 0 0
0.0510 0.0962 -0.5280 0.597 -0.732 0.326 72 40 19 0 0
0.0566 0.0898 -0.6017 0.432 -0.873 -0.224 84 48 22 0 0
0.0589 0.0882 -0.6683 0.567 -0.815 -0.121 59 27 8 0 0
0.0600 0.0869 -0.6773 0.620 -0.736 0.271 57 28 10 0 0
0.0602 0.0867 -0.6837 0.590 -0.772 0.237 54 25 9 0 0
0.0607 0.0861 -0.6866 0.590 -0.772 0.237 52 23 9 0 0
0.0705 0.0726 -0.7314 0.430 -0.900 0.074 59 30 12 0 0
0.0946 0.0386 -0.8122 0.745 -0.566 0.354 57 25 12 0 0
0.0960 0.0370 -0.8305 0.251 -0.852 0.459 60 27 10 0 0
0.1075 0.0206 -0.8620 0.406 -0.903 0.139 90 63 44 0 0
0.1083 0.0222 -0.9625 0.368 -0.922 0.117 79 60 56 0 0
0.1195 0.0059 -0.9835 0.577 -0.813 -0.073 92 74 66 0 0
0.1195 0.0061 -0.9869 0.577 -0.813 -0.073 92 75 67 0 0
0.1257 -0.0032 -0.9867 0.736 -0.670 0.095 92 75 68 0 0
0.1283 -0.0070 -0.9904 0.511 -0.860 -0.007 83 65 54 0 0
0.1281 -0.0066 -0.9971 0.593 -0.802 -0.068 75 48 37 0 0
0.1430 -0.0272 -1.0584 0.391 -0.920 0.027 92 66 40 0 0
0.1385 -0.0194 -1.0965 0.675 -0.723 -0.147 39 22 10 0 0
0.1456 -0.0302 -1.0945 0.747 -0.650 -0.137 55 28 11 0 0
0.0364 0.0955 0.0967 0.413 -0.831 0.373 144 113 98 0 0
0.0530 0.0724 0.0363 0.653 -0.711 0.261 73 39 14 0 0
0.0534 0.0717 0.0335 0.653 -0.711 0.261 73 39 13 0 0
0.0496 0.0795 -0.0427 0.694 -0.706 0.146 60 29 15 0 0
0.0626 0.0613 -0.0848 0.432 -0.876 0.215 61 32 18 0 0
0.0698 0.0548 -0.2429 0.718 -0.656 0.232 57 38 31 0 0
0.0699 0.0546 -0.2458 0.764 -0.640 0.080 58 39 32 0 0
0.0579 0.0760 -0.3659 0.524 -0.496 0.693 24 10 7 0 0
0.0593 0.0740 -0.3684 0.524 -0.496 0.693 43 27 20 0 0
0.0645 0.0667 -0.3908 0.466 -0.706 0.533 59 36 22 0 0
0.0473 0.0962 -0.5287 0.653 -0.700 0.290 74 42 21 0 0
0.0580 0.0845 -0.6803 0.544 -0.762 0.350 56 29 12 0 0
0.0676 0.0713 -0.7284 0.467 -0.809 0.358 59 30 12 0 0
0.0677 0.0712 -0.7316 0.430 -0.900 0.074 57 28 12 0 0
0.0687 0.0699 -0.7374 0.520 -0.840 0.153 58 29 13 0 0
0.0737 0.0631 -0.7595 0.733 -0.676 -0.083 54 25 9 0 0
0.0739 0.0631 -0.7692 0.750 -0.657 0.073 52 23 9 0 0
0.0924 0.0364 -0.8119 0.341 -0.924 0.171 57 23 11 0 0
0.0950 0.0355 -0.9208 0.454 -0.889 0.060 86 59 38 0 0
0.0952 0.0354 -0.9239 0.454 -0.889 0.060 92 66 42 0 0
0.1224 -0.0036 -0.9877 0.398 -0.858 0.325 86 70 63 0 0
0.1260 -0.0089 -0.9903 0.325 -0.937 0.123 82 64 57 0 0
0.1263 -0.0094 -0.9931 0.532 -0.847 0.007 74 54 45 0 0
0.1363 -0.0215 -1.0963 0.675 -0.723 -0.147 39 21 11 0 0
0.0343 0.0935 0.0909 0.548 -0.645 0.533 121 91 73 0 0
0.0492 0.0744 -0.0220 0.551 -0.819 -0.158 61 28 9 0 0
0.0720 0.0452 -0.2058 -0.294 -0.748 0.595 60 41 34 0 0
0.0635 0.0592 -0.2532 0.702 -0.684 -0.197 57 38 31 0 0
0.0627 0.0605 -0.2564 0.517 -0.774 -0.366 56 37 30 0 0
0.0622 0.0613 -0.2596 0.579 -0.804 -0.136 57 38 31 0 0
0.0623 0.0647 -0.3907 0.377 -0.796 0.474 52 29 15 0 0
0.0632 0.0634 -0.3934 0.325 -0.807 0.494 49 24 11 0 0
0.0491 0.0866 -0.4722 0.691 -0.663 -0.288 61 34 15 0 0
0.0658 0.0686 -0.7312 0.480 -0.873 0.085 57 28 12 0 0
0.0661 0.0683 -0.7375 0.520 -0.840 0.153 56 27 11 0 0
0.0711 0.0616 -0.7661 0.597 -0.769 0.228 54 25 9 0 0
0.0715 0.0610 -0.7690 0.597 -0.769 0.228 53 24 10 0 0
0.0718 0.0607 -0.7721 0.746 -0.656 0.114 52 23 8 0 0
0.0720 0.0606 -0.7752 0.705 -0.677 0.211 51 22 7 0 0
0.0771 0.0536 -0.8004 0.506 -0.857 -0.095 56 22 10 0 0
0.1232 -0.0102 -0.9906 0.473 -0.842 0.261 77 59 53 0 0
0.1238 -0.0110 -0.9933 0.532 -0.847 0.007 74 54 46 0 0
0.1241 -0.0114 -0.9961 0.473 -0.842 0.261 72 46 34 0 0
0.1382 -0.0307 -1.0584 0.470 -0.883 0.003 95 71 45 0 0
0.1369 -0.0286 -1.0664 0.644 -0.758 -0.104 90 66 42 0 0
0.1354 -0.0255 -1.0977 0.649 -0.761 0.006 46 25 12 0 0
0.0522 0.0626 0.0566 0.846 -0.530 0.054 54 27 11 0 0
0.0595 0.0556 -0.0933 0.052 -0.893 0.447 46 22 10 0 0
0.0666 0.0480 -0.2037 0.934 0.032 0.357 61 42 35 0 0
0.0524 0.0721 -0.3140 0.416 -0.734 0.537 65 36 18 0 0
0.0581 0.0649 -0.3699 0.559 -0.828 0.042 53 35 23 0 0
0.0599 0.0629 -0.3907 0.842 -0.538 -0.038 54 31 17 0 0
0.0598 0.0631 -0.3938 0.842 -0.538 -0.038 53 28 15 0 0
0.0789 0.0354 -0.4246 0.479 -0.877 0.041 70 32 10 0 0
0.0419 0.0930 -0.5194 0.567 -0.740 0.360 66 35 15 0 0
0.0560 0.0773 -0.7172 0.825 -0.535 0.182 54 25 8 0 0
0.0620 0.0687 -0.7322 0.648 -0.755 0.099 57 28 12 0 0
0.0639 0.0663 -0.7438 0.385 -0.904 0.185 57 28 12 0 0
0.0698 0.0583 -0.7750 0.705 -0.677 0.211 54 25 9 0 0
0.0917 0.0290 -0.8995 0.681 -0.652 -0.334 64 38 21 0 0
0.0907 0.0309 -0.9169 0.569 -0.765 0.303 80 53 37 0 0
0.1095 0.0045 -0.9766 0.387 -0.814 0.433 87 70 62 0 0
0.1102 0.0035 -0.9791 0.387 -0.814 0.433 95 78 70 0 0
0.1211 -0.0123 -0.9936 0.473 -0.842 0.261 78 58 49 0 0
0.0251 0.0972 0.0732 0.115 -0.913 0.391 75 40 20 0 0
0.0493 0.0616 0.0565 0.769 -0.623 0.144 50 22 8 0 0
0.0445 0.0719 -0.0660 0.606 -0.448 0.658 30 20 18 0 0
0.0460 0.0698 -0.0688 0.606 -0.448 0.658 39 22 19 0 0
0.0570 0.0542 -0.0963 0.245 -0.892 0.381 81 59 53 0 0
0.0820 0.0189 -0.1638 0.230 -0.944 -0.238 67 49 39 0 0
0.0754 0.0292 -0.1859 0.601 -0.751 -0.274 65 45 36 0 0
0.0665 0.0429 -0.2031 0.934 0.032 0.357 61 42 35 0 0
0.0587 0.0560 -0.2652 0.475 -0.845 0.246 58 39 31 0 0
0.0460 0.0761 -0.3124 0.400 -0.899 0.177 80 57 45 0 0
0.0475 0.0740 -0.3149 0.288 -0.785 0.549 64 34 15 0 0
0.0548 0.0634 -0.3243 0.604 -0.755 0.255 60 31 13 0 0
0.0769 0.0331 -0.4184 0.596 -0.795 0.115 74 33 9 0 0
0.0818 0.0264 -0.4403 -0.016 -1.000 0.012 81 55 37 0 0
0.0395 0.0922 -0.5611 0.629 -0.758 0.174 68 34 14 0 0
0.0399 0.0917 -0.5673 0.701 -0.694 0.163 70 37 16 0 0
0.0395 0.0946 -0.6554 0.174 -0.985 -0.024 79 42 16 0 0
0.0547 0.0736 -0.7163 0.594 -0.800 -0.088 57 28 11 0 0
0.0608 0.0653 -0.7443 0.548 -0.835 -0.057 57 28 12 0 0
0.0615 0.0644 -0.7470 0.398 -0.917 0.010 59 30 14 0 0
0.0939 0.0193 -0.8625 0.546 -0.757 0.359 81 53 32 0 0
0.0917 0.0232 -0.8873 0.437 -0.896 -0.071 70 46 32 0 0
0.0883 0.0291 -0.9169 0.569 -0.765 0.303 78 51 35 0 0
0.1025 0.0092 -0.9682 0.472 -0.713 0.519 84 70 62 0 0
0.1259 -0.0242 -1.0117 0.229 -0.964 0.133 64 29 10 0 0
0.1269 -0.0257 -1.0138 0.442 -0.841 0.313 64 29 10 0 0
0.0220 0.0965 0.0732 0.134 -0.856 0.500 70 36 19 0 0
0.0358 0.0762 0.0677 0.256 -0.961 0.101 58 28 10 0 0
0.0465 0.0606 0.0565 0.671 -0.635 0.384 50 22 10 0 0
0.0460 0.0628 -0.0013 0.716 -0.571 0.402 68 33 11 0 0
0.0459 0.0631 -0.0042 0.786 -0.562 0.258 68 33 12 0 0
0.0423 0.0700 -0.0661 0.334 -0.620 0.710 25 17 16 0 0
0.0541 0.0533 -0.0964 0.245 -0.892 0.381 74 54 45 0 0
0.0783 0.0192 -0.1671 0.730 -0.673 0.118 66 48 38 0 0
0.0569 0.0535 -0.2681 0.256 -0.841 0.477 58 40 30 0 0
0.0427 0.0756 -0.3127 0.190 -0.961 0.199 82 57 46 0 0
0.0527 0.0623 -0.3672 0.772 -0.631 0.078 43 24 16 0 0
0.0528 0.0623 -0.3764 0.488 -0.748 0.451 51 27 15 0 0
0.0538 0.0613 -0.3944 0.032 -0.963 0.269 52 25 14 0 0
0.0761 0.0295 -0.4359 0.361 -0.899 0.248 75 43 25 0 0
0.0737 0.0332 -0.4432 0.284 -0.671 -0.685 81 55 38 0 0
0.0267 0.1044 -0.5155 0.933 -0.121 -0.338 63 35 15 0 0
0.0333 0.0947 -0.5151 0.349 -0.933 -0.092 63 35 14 0 0
0.0351 0.0926 -0.5397 0.252 -0.856 0.451 64 33 13 0 0
0.0359 0.0918 -0.5489 0.340 -0.929 0.147 70 37 18 0 0
0.0369 0.0903 -0.5515 0.356 -0.923 0.145 69 36 17 0 0
0.0374 0.0897 -0.5609 0.504 -0.826 0.252 67 35 14 0 0
0.0374 0.0899 -0.5641 0.701 -0.694 0.163 67 35 14 0 0
0.0377 0.0895 -0.5672 0.701 -0.694 0.163 70 38 17 0 0
0.0380 0.0891 -0.5702 0.599 -0.799 0.047 72 40 19 0 0
0.0387 0.0881 -0.5730 0.422 -0.891 0.168 74 42 21 0 0
0.0390 0.0878 -0.5760 0.337 -0.884 0.325 75 43 22 0 0
0.0419 0.0837 -0.5839 0.092 -0.859 0.503 80 48 26 0 0
0.0422 0.0833 -0.5870 0.069 -0.997 0.036 83 51 28 0 0
0.0415 0.0857 -0.6392 0.303 -0.943 -0.135 91 57 30 0 0
0.0714 0.0451 -0.7826 0.264 -0.872 0.412 56 24 10 0 0
0.0738 0.0425 -0.8197 0.595 -0.707 0.382 55 21 9 0 0
0.0891 0.0215 -0.8777 0.297 -0.954 -0.029 80 53 35 0 0
0.0888 0.0222 -0.8878 0.496 -0.868 -0.001 67 44 30 0 0
0.0888 0.0222 -0.8910 0.496 -0.868 -0.001 63 37 24 0 0
0.1161 -0.0155 -0.9938 0.547 -0.627 0.554 78 55 47 0 0
0.1264 -0.0281 -1.0966 0.661 -0.740 0.122 45 22 14 0 0
0.1284 -0.0311 -1.0974 0.392 -0.908 -0.150 51 26 14 0 0
0.0452 0.0575 0.0536 0.671 -0.635 0.384 76 49 38 0 0
