ply
format ascii 1.0
element vertex 894
property float x
property float y
property float z
property float nx
property float ny
property float nz
property uchar diffuse_red
property uchar diffuse_green
property uchar diffuse_blue
property uchar class
property uchar detection
end_header
0.1529 0.1931 -0.2386 0.877 0.474 0.076 58 38 31 0 0
0.1337 0.1882 -0.3025 0.943 0.180 -0.279 53 33 25 0 0
0.1348 0.1907 -0.3847 0.964 -0.134 0.231 45 18 11 0 0
0.1357 0.1911 -0.3874 0.904 -0.358 0.233 58 29 21 0 0
0.1374 0.1917 -0.3900 0.876 -0.406 0.261 65 38 29 0 0
0.1411 0.1930 -0.3921 0.951 -0.091 0.294 58 31 19 0 0
0.1690 0.2026 -0.3943 0.811 0.584 0.017 54 26 14 0 0
0.1682 0.2024 -0.3973 0.964 0.209 0.165 57 26 14 0 0
0.1682 0.2025 -0.4003 0.689 0.379 0.617 58 25 10 0 0
0.1697 0.2031 -0.4028 0.827 0.150 0.541 74 43 31 0 0
0.1709 0.2035 -0.4054 0.907 0.222 0.358 83 58 48 0 0
0.1718 0.2039 -0.4081 0.907 0.222 0.358 99 76 68 0 0
0.1801 0.2069 -0.4119 0.883 0.384 0.269 77 37 16 0 0
0.1811 0.2073 -0.4174 0.904 0.254 0.344 73 35 14 0 0
0.1067 0.1835 -0.4789 0.807 0.571 0.151 57 30 13 0 0
0.1072 0.1846 -0.5123 0.941 0.282 0.186 53 23 12 0 0
0.1045 0.1846 -0.5500 0.978 0.168 0.125 62 30 14 0 0
0.1047 0.1848 -0.5531 0.977 0.202 0.063 59 30 15 0 0
0.1062 0.1857 -0.5680 0.858 0.492 0.147 64 35 18 0 0
0.1066 0.1859 -0.5710 0.858 0.492 0.147 70 38 22 0 0
0.1066 0.1860 -0.5772 0.880 0.469 -0.081 61 30 15 0 0
0.1036 0.1862 -0.6217 0.977 -0.140 0.161 55 26 12 0 0
0.1083 0.1879 -0.6294 0.867 0.190 0.460 54 25 11 0 0
0.1073 0.1877 -0.6329 0.919 0.393 -0.023 53 24 10 0 0
0.1058 0.1878 -0.6584 0.887 0.367 0.281 55 27 11 0 0
0.1069 0.1883 -0.6611 0.980 0.192 0.059 54 26 11 0 0
0.1073 0.1886 -0.6672 0.995 -0.002 -0.102 51 23 9 0 0
0.1158 0.1919 -0.6827 0.921 0.137 0.365 53 25 11 0 0
0.1158 0.1920 -0.6859 0.986 0.129 0.103 54 26 12 0 0
0.1332 0.2001 -0.7695 0.946 -0.044 0.321 51 21 11 0 0
0.1789 0.2172 -0.8293 0.868 0.045 0.495 54 24 13 0 0
0.1855 0.2206 -0.8725 0.936 0.344 -0.071 85 56 37 0 0
0.1812 0.2193 -0.8810 0.864 0.503 -0.008 89 60 42 0 0
0.1699 0.2162 -0.9090 0.975 0.211 0.062 72 39 16 0 0
0.1706 0.2168 -0.9244 0.927 0.376 -0.021 78 49 34 0 0
0.1705 0.2169 -0.9276 0.927 0.376 -0.021 73 44 32 0 0
0.1704 0.2169 -0.9308 0.927 0.376 -0.021 60 33 22 0 0
0.2063 0.2303 -0.9734 0.856 0.201 0.477 85 67 59 0 0
0.2143 0.2332 -0.9812 0.857 0.352 0.376 100 81 74 0 0
0.2150 0.2335 -0.9839 0.771 0.549 0.323 107 88 76 0 0
0.2160 0.2339 -0.9864 0.787 0.293 0.543 111 91 78 0 0
0.2355 0.2412 -1.0088 0.846 0.285 0.451 88 41 10 0 0
0.2426 0.2438 -1.0167 0.973 0.230 0.028 81 34 5 0 0
0.2408 0.2442 -1.0552 0.933 0.300 0.196 92 58 31 0 0
0.0960 0.1660 -0.0578 0.454 0.116 0.883 60 34 21 0 0
0.1005 0.1676 -0.0604 0.350 0.035 0.936 67 42 29 0 0
0.1297 0.1779 -0.0732 0.877 0.461 0.135 122 103 95 0 0
0.1293 0.1779 -0.0761 0.848 0.524 -0.085 112 94 87 0 0
0.1909 0.2004 -0.1330 0.950 0.312 -0.012 76 37 12 0 0
0.1924 0.2015 -0.1522 0.929 0.364 -0.073 61 41 34 0 0
0.1544 0.1906 -0.2385 0.996 0.020 -0.085 59 39 32 0 0
0.1542 0.1906 -0.2414 0.996 0.020 -0.085 58 38 31 0 0
0.1410 0.1866 -0.2608 0.849 0.528 -0.030 55 35 26 0 0
0.1409 0.1866 -0.2637 0.849 0.528 -0.030 54 34 25 0 0
0.1413 0.1868 -0.2665 0.858 0.463 0.221 52 32 23 0 0
0.1422 0.1872 -0.2693 0.792 0.329 0.513 50 30 21 0 0
0.1419 0.1872 -0.2722 0.861 0.508 0.027 49 29 20 0 0
0.1452 0.1884 -0.2746 0.997 -0.031 -0.075 47 27 18 0 0
0.1343 0.1874 -0.3821 0.864 0.503 0.022 40 18 10 0 0
0.1367 0.1883 -0.3845 0.953 0.181 -0.242 44 18 10 0 0
0.1359 0.1881 -0.3876 0.953 0.181 -0.242 59 31 22 0 0
0.1387 0.1891 -0.3900 0.908 0.303 0.289 63 37 27 0 0
0.1703 0.2001 -0.3971 0.877 0.412 0.246 56 25 13 0 0
0.1720 0.2009 -0.4055 0.985 0.165 0.051 85 59 50 0 0
0.1734 0.2015 -0.4080 0.909 0.230 0.348 101 78 70 0 0
0.1743 0.2018 -0.4107 0.909 0.230 0.348 91 62 48 0 0
0.1837 0.2054 -0.4228 0.959 0.238 0.153 72 33 13 0 0
0.1836 0.2054 -0.4258 0.968 0.245 -0.057 71 34 11 0 0
0.1898 0.2077 -0.4329 0.974 0.110 0.198 80 49 31 0 0
0.1081 0.1809 -0.4819 0.863 0.504 0.022 52 24 10 0 0
0.1086 0.1812 -0.4848 0.944 0.274 0.184 50 22 10 0 0
0.1066 0.1822 -0.5498 0.983 0.171 0.066 71 40 19 0 0
0.1065 0.1822 -0.5529 0.986 0.163 0.016 67 38 19 0 0
0.1065 0.1823 -0.5560 0.986 0.163 0.016 65 36 17 0 0
0.1064 0.1824 -0.5591 0.984 0.172 0.037 60 33 13 0 0
0.0989 0.1808 -0.5988 0.707 0.704 0.061 60 27 10 0 0
0.1097 0.1848 -0.6106 0.978 0.176 0.114 60 28 12 0 0
0.1100 0.1850 -0.6136 0.978 0.176 0.114 58 26 11 0 0
0.1096 0.1860 -0.6605 0.882 0.371 0.291 56 28 14 0 0
0.1104 0.1864 -0.6634 0.882 0.371 0.291 54 26 12 0 0
0.1097 0.1862 -0.6668 0.865 0.436 0.249 51 23 10 0 0
0.1083 0.1858 -0.6705 0.919 0.393 -0.018 50 22 9 0 0
0.1078 0.1858 -0.6738 0.938 0.327 -0.117 49 21 8 0 0
0.1153 0.1886 -0.6834 0.888 0.414 0.203 52 24 11 0 0
0.1256 0.1926 -0.7043 0.451 0.610 0.651 50 22 10 0 0
0.1561 0.2056 -0.8035 0.939 0.106 0.329 46 19 9 0 0
0.1566 0.2059 -0.8063 0.987 0.133 0.088 45 18 8 0 0
0.1570 0.2061 -0.8093 0.887 0.017 0.461 45 18 8 0 0
0.1740 0.2122 -0.8198 0.923 -0.141 -0.358 46 19 10 0 0
0.1710 0.2113 -0.8244 0.918 0.063 0.393 45 18 9 0 0
0.1794 0.2143 -0.8296 0.901 0.170 0.399 54 25 14 0 0
0.1832 0.2160 -0.8463 0.971 0.214 0.103 71 34 11 0 0
0.1869 0.2176 -0.8568 0.910 0.368 0.189 79 42 18 0 0
0.1763 0.2148 -0.8904 0.976 0.071 -0.206 79 50 31 0 0
0.1699 0.2131 -0.9096 0.921 0.381 0.081 71 38 17 0 0
0.1700 0.2133 -0.9158 0.930 0.310 0.199 95 69 42 0 0
0.1705 0.2135 -0.9187 0.930 0.310 0.199 90 65 42 0 0
0.1860 0.2199 -0.9606 0.982 -0.052 0.181 71 55 45 0 0
0.2096 0.2286 -0.9846 0.933 0.206 0.296 94 74 66 0 0
0.2360 0.2379 -0.9936 0.986 0.133 -0.101 94 48 16 0 0
0.2365 0.2381 -0.9964 0.885 0.127 0.449 92 46 13 0 0
0.2312 0.2366 -1.0090 0.886 0.280 0.370 88 41 9 0 0
0.2391 0.2395 -1.0134 0.983 0.183 0.026 86 39 8 0 0
0.2392 0.2396 -1.0164 0.996 0.079 0.032 85 38 6 0 0
0.2410 0.2410 -1.0464 0.898 0.440 0.007 110 76 49 0 0
0.2367 0.2409 -1.0992 0.863 0.242 0.443 61 23 7 0 0
0.0822 0.1558 0.0335 0.995 -0.034 0.093 69 37 16 0 0
0.1297 0.1749 -0.0733 0.868 0.243 0.434 120 104 94 0 0
0.1309 0.1754 -0.0761 0.868 0.243 0.434 113 96 88 0 0
0.1559 0.1846 -0.0971 0.834 -0.255 0.490 96 72 63 0 0
0.1901 0.1973 -0.1333 0.892 0.425 0.156 76 36 14 0 0
0.2002 0.2011 -0.1488 0.666 0.243 0.705 59 39 30 0 0
0.1695 0.1916 -0.1884 0.743 -0.259 -0.617 57 38 32 0 0
0.1422 0.1842 -0.2695 0.844 0.527 0.097 53 33 24 0 0
0.1423 0.1843 -0.2724 0.968 0.227 0.108 49 29 20 0 0
0.1406 0.1842 -0.2930 0.997 -0.033 -0.070 48 26 15 0 0
0.1349 0.1825 -0.3028 0.893 0.320 0.317 50 30 22 0 0
0.1452 0.1864 -0.3155 0.901 0.273 0.338 62 28 10 0 0
0.1424 0.1855 -0.3189 0.989 0.095 0.114 67 35 14 0 0
0.1234 0.1800 -0.3611 0.854 -0.082 0.514 27 13 9 0 0
0.1373 0.1853 -0.3817 0.963 0.112 -0.245 41 18 9 0 0
0.1361 0.1851 -0.3879 0.959 0.259 0.117 57 30 20 0 0
0.1709 0.1974 -0.4002 0.763 0.325 0.559 65 29 16 0 0
0.1722 0.1979 -0.4028 0.914 0.217 0.342 76 45 33 0 0
0.1738 0.1986 -0.4082 0.967 0.177 0.186 103 82 72 0 0
0.1743 0.1988 -0.4110 0.967 0.177 0.186 86 58 44 0 0
0.1838 0.2024 -0.4231 0.988 0.144 0.058 71 34 14 0 0
0.1844 0.2027 -0.4259 0.949 0.211 0.233 72 34 13 0 0
0.1085 0.1779 -0.4791 0.963 0.265 -0.057 63 35 16 0 0
0.1083 0.1779 -0.4822 0.963 0.265 -0.057 55 27 13 0 0
0.1095 0.1784 -0.4849 0.944 0.274 0.184 50 22 9 0 0
0.1082 0.1805 -0.5867 0.900 0.420 0.120 64 31 16 0 0
0.1086 0.1807 -0.5897 0.930 0.329 0.164 63 30 15 0 0
0.1090 0.1809 -0.5927 0.960 0.277 0.043 62 29 14 0 0
0.1079 0.1806 -0.5961 0.837 0.545 -0.043 61 28 11 0 0
0.1115 0.1820 -0.6011 0.897 0.222 0.382 63 30 13 0 0
0.1121 0.1823 -0.6040 0.882 0.389 0.267 64 31 14 0 0
0.1095 0.1823 -0.6391 0.825 0.531 -0.191 55 26 12 0 0
0.1078 0.1820 -0.6523 0.934 0.177 0.311 48 20 8 0 0
0.1089 0.1825 -0.6550 0.824 0.515 0.237 49 21 9 0 0
0.1147 0.1852 -0.6841 0.907 0.134 0.399 49 21 9 0 0
0.1167 0.1860 -0.6864 0.877 0.437 0.201 49 21 9 0 0
0.1270 0.1900 -0.7042 0.300 0.463 0.834 51 23 11 0 0
0.1578 0.2029 -0.7938 0.491 0.355 0.796 44 17 6 0 0
0.1665 0.2065 -0.8209 0.884 0.317 0.345 44 17 8 0 0
0.1715 0.2083 -0.8246 0.875 0.345 0.339 46 19 9 0 0
0.1814 0.2120 -0.8353 0.574 0.679 0.458 56 27 9 0 0
0.1831 0.2128 -0.8438 0.738 0.575 0.354 65 30 11 0 0
0.1892 0.2153 -0.8593 0.890 0.123 0.439 88 57 35 0 0
0.1723 0.2106 -0.9025 0.915 0.314 -0.251 69 37 18 0 0
0.1718 0.2105 -0.9060 0.949 0.231 -0.215 67 33 14 0 0
0.1710 0.2103 -0.9096 0.921 0.381 0.081 69 36 15 0 0
0.1712 0.2105 -0.9126 0.967 0.191 0.168 86 58 34 0 0
0.1734 0.2115 -0.9240 0.955 0.141 0.261 81 54 37 0 0
0.1748 0.2120 -0.9265 0.965 0.081 0.250 71 43 27 0 0
0.1749 0.2127 -0.9485 0.778 0.418 0.469 42 18 9 0 0
0.1755 0.2129 -0.9513 0.638 0.442 0.630 49 25 13 0 0
0.1859 0.2168 -0.9613 0.954 -0.213 0.210 76 62 52 0 0
0.2106 0.2257 -0.9784 0.681 0.307 0.665 107 84 73 0 0
0.2388 0.2358 -0.9925 0.815 0.569 0.110 95 48 17 0 0
0.2391 0.2365 -1.0171 0.883 0.459 0.096 87 38 8 0 0
0.2401 0.2370 -1.0227 0.860 0.506 -0.063 91 44 12 0 0
0.2440 0.2407 -1.1138 0.890 0.226 0.397 94 58 27 0 0
0.2451 0.2411 -1.1163 0.924 0.125 0.363 96 61 32 0 0
0.0822 0.1526 0.0420 0.967 0.222 0.127 68 36 15 0 0
0.0824 0.1527 0.0391 0.999 0.036 -0.022 69 37 16 0 0
0.0832 0.1547 -0.0297 0.979 0.185 0.081 65 36 20 0 0
0.0826 0.1546 -0.0326 0.982 0.043 -0.183 64 35 21 0 0
0.1018 0.1619 -0.0606 0.221 0.128 0.967 63 37 26 0 0
0.1282 0.1713 -0.0707 0.938 -0.217 0.272 86 67 58 0 0
0.1304 0.1722 -0.0763 0.784 -0.131 0.607 110 93 85 0 0
0.1334 0.1733 -0.0789 0.702 -0.159 0.694 93 73 61 0 0
0.1483 0.1788 -0.0921 0.834 -0.026 0.552 53 22 9 0 0
0.1541 0.1809 -0.0945 0.908 -0.255 0.332 77 52 40 0 0
0.1548 0.1812 -0.0973 0.794 -0.278 0.540 99 77 67 0 0
0.1936 0.1951 -0.1138 0.826 0.386 0.411 155 127 114 0 0
0.1772 0.1909 -0.1765 0.974 0.220 0.052 59 40 34 0 0
0.1773 0.1911 -0.1792 0.974 0.220 0.052 59 40 34 0 0
0.1432 0.1815 -0.2695 0.953 0.301 0.038 54 34 25 0 0
0.1433 0.1816 -0.2724 0.953 0.301 0.038 50 30 21 0 0
0.1403 0.1810 -0.2904 0.998 0.056 0.037 48 26 15 0 0
0.1429 0.1826 -0.3191 0.920 0.326 0.216 66 34 13 0 0
0.1362 0.1818 -0.3793 0.633 0.737 0.238 42 20 11 0 0
0.1717 0.1947 -0.4032 0.860 0.475 0.184 83 53 40 0 0
0.1721 0.1949 -0.4060 0.841 0.541 0.005 89 63 53 0 0
0.1728 0.1953 -0.4088 0.834 0.500 0.232 100 77 65 0 0
0.1746 0.1959 -0.4112 0.762 0.629 0.158 87 57 41 0 0
0.1736 0.1957 -0.4144 0.924 0.209 0.319 73 34 14 0 0
0.1851 0.1999 -0.4260 0.949 0.211 0.233 72 35 13 0 0
0.1084 0.1758 -0.5223 0.934 0.264 0.241 52 23 9 0 0
0.1069 0.1768 -0.5813 0.876 0.469 0.115 58 29 13 0 0
0.1068 0.1768 -0.5845 0.936 0.319 0.150 54 25 9 0 0
0.1096 0.1780 -0.5959 0.841 0.458 0.289 63 31 14 0 0
0.1090 0.1792 -0.6491 0.910 0.405 -0.084 47 21 8 0 0
0.1094 0.1794 -0.6521 0.897 0.384 0.218 47 19 7 0 0
0.1091 0.1794 -0.6553 0.849 0.340 0.404 47 19 7 0 0
0.1087 0.1793 -0.6586 0.977 0.113 0.181 47 19 7 0 0
0.1062 0.1790 -0.6816 0.994 -0.105 -0.040 47 19 7 0 0
0.1228 0.1852 -0.7001 0.754 -0.134 0.644 50 22 8 0 0
0.1352 0.1897 -0.7075 0.690 0.723 -0.021 50 22 10 0 0
0.1613 0.2009 -0.7927 0.421 0.354 0.835 46 18 7 0 0
0.1662 0.2029 -0.8028 0.943 0.198 0.268 49 21 11 0 0
0.1670 0.2032 -0.8056 0.943 0.198 0.268 50 22 12 0 0
0.1814 0.2089 -0.8359 0.795 0.284 0.536 60 31 13 0 0
0.1838 0.2099 -0.8409 0.813 0.384 0.438 65 30 11 0 0
0.1848 0.2109 -0.8683 0.980 0.199 0.007 92 64 43 0 0
0.1730 0.2077 -0.9028 0.953 0.082 -0.291 75 43 23 0 0
0.1732 0.2082 -0.9216 0.907 0.279 0.314 86 59 39 0 0
0.1740 0.2086 -0.9243 0.907 0.279 0.314 76 48 32 0 0
0.1751 0.2090 -0.9269 0.965 0.081 0.250 71 44 28 0 0
0.1800 0.2111 -0.9431 0.921 0.008 -0.388 39 16 8 0 0
0.1762 0.2100 -0.9484 0.902 0.270 0.338 40 17 7 0 0
0.1776 0.2105 -0.9508 0.873 0.201 0.445 47 23 11 0 0
0.1797 0.2113 -0.9528 0.879 0.145 0.454 51 27 15 0 0
0.2109 0.2227 -0.9788 0.687 0.258 0.680 111 88 75 0 0
0.2402 0.2337 -1.0109 0.738 0.667 0.102 93 44 14 0 0
0.2406 0.2339 -1.0138 0.900 0.197 0.390 91 42 12 0 0
0.2415 0.2343 -1.0194 0.833 0.553 0.022 87 38 8 0 0
0.2420 0.2346 -1.0222 0.898 0.439 -0.026 92 44 14 0 0
0.2468 0.2370 -1.0502 0.876 0.481 0.040 109 75 48 0 0
0.2449 0.2366 -1.0607 0.962 0.253 -0.099 102 68 41 0 0
0.2395 0.2350 -1.0737 0.927 0.360 -0.103 91 58 35 0 0
0.2346 0.2340 -1.1021 0.836 0.546 -0.053 61 26 9 0 0
0.2416 0.2367 -1.1099 0.874 0.466 0.138 90 44 14 0 0
0.2449 0.2379 -1.1140 0.980 0.183 0.082 96 61 30 0 0
0.2478 0.2392 -1.1245 0.897 0.426 0.121 100 66 38 0 0
0.2419 0.2377 -1.1476 0.985 0.163 -0.054 68 41 25 0 0
0.0847 0.1492 0.0901 0.953 0.101 0.285 75 45 21 0 0
0.0838 0.1490 0.0845 0.940 -0.331 0.084 74 42 21 0 0
0.0815 0.1493 0.0419 1.000 0.016 -0.006 70 38 17 0 0
0.0806 0.1494 0.0248 0.998 0.064 -0.007 68 35 16 0 0
0.0852 0.1530 -0.0586 0.733 -0.540 0.413 59 32 23 0 0
0.1325 0.1698 -0.0706 0.917 0.397 0.048 91 70 62 0 0
0.1302 0.1691 -0.0736 0.833 0.046 0.551 128 110 100 0 0
0.1328 0.1700 -0.0762 0.859 0.091 0.503 107 90 81 0 0
0.1525 0.1774 -0.0947 0.861 -0.177 0.477 80 57 44 0 0
0.1541 0.1780 -0.0974 0.674 -0.291 0.679 89 69 59 0 0
0.1943 0.1923 -0.1112 0.950 0.286 0.121 119 85 68 0 0
0.1949 0.1926 -0.1139 0.924 0.263 0.279 150 120 106 0 0
0.1957 0.1929 -0.1165 0.924 0.263 0.279 149 118 106 0 0
0.1794 0.1887 -0.1764 0.937 0.322 -0.138 59 40 34 0 0
0.1482 0.1795 -0.2430 0.922 -0.240 -0.303 54 37 29 0 0
0.1441 0.1789 -0.2725 0.987 0.085 0.134 51 31 22 0 0
0.1444 0.1790 -0.2754 0.991 -0.038 0.125 47 27 18 0 0
0.1485 0.1808 -0.2892 0.936 0.279 -0.213 50 28 17 0 0
0.1307 0.1748 -0.2982 0.701 0.032 0.713 51 29 18 0 0
0.1375 0.1773 -0.3028 0.651 0.342 0.678 68 50 42 0 0
0.1402 0.1783 -0.3052 0.568 0.318 0.759 64 46 39 0 0
0.1464 0.1806 -0.3128 0.909 0.396 -0.133 56 21 5 0 0
0.1438 0.1799 -0.3191 0.900 0.321 0.295 61 29 8 0 0
0.1381 0.1783 -0.3349 0.804 -0.270 -0.530 39 18 11 0 0
0.1278 0.1754 -0.3607 0.952 0.068 0.300 31 17 10 0 0
0.1296 0.1761 -0.3662 0.940 0.257 0.223 25 10 5 0 0
0.1302 0.1764 -0.3690 0.957 0.276 0.087 39 21 13 0 0
0.1305 0.1766 -0.3719 0.957 0.276 0.087 47 29 17 0 0
0.1416 0.1808 -0.3872 0.747 0.363 0.556 56 29 18 0 0
0.1802 0.1946 -0.4014 0.870 0.493 0.022 82 51 37 0 0
0.1807 0.1949 -0.4042 0.901 0.420 -0.109 88 63 52 0 0
0.1804 0.1948 -0.4072 0.922 0.347 -0.172 101 74 63 0 0
0.1761 0.1934 -0.4112 0.835 0.511 0.207 93 60 43 0 0
0.1813 0.1953 -0.4128 0.925 0.380 -0.015 78 39 18 0 0
0.1850 0.1967 -0.4176 0.643 0.765 0.023 71 33 12 0 0
0.1086 0.1727 -0.5226 0.790 0.564 0.240 53 24 10 0 0
0.1087 0.1743 -0.5843 0.961 0.256 0.107 55 26 10 0 0
0.1102 0.1753 -0.6023 0.938 0.169 0.303 67 36 18 0 0
0.1111 0.1756 -0.6052 0.938 0.169 0.303 68 37 19 0 0
0.1117 0.1771 -0.6548 0.889 0.273 0.367 48 20 8 0 0
0.1054 0.1756 -0.6855 0.967 0.064 0.247 47 19 7 0 0
0.1152 0.1790 -0.6848 0.960 -0.018 0.280 47 19 7 0 0
0.1321 0.1855 -0.7093 0.972 0.028 0.234 50 22 10 0 0
0.1642 0.1987 -0.7919 0.804 0.032 0.594 47 19 8 0 0
0.1669 0.1999 -0.7999 0.862 0.328 0.385 51 23 11 0 0
0.1678 0.2003 -0.8026 0.833 0.432 0.345 51 23 11 0 0
0.1681 0.2004 -0.8056 0.914 0.405 0.027 51 23 12 0 0
0.1683 0.2011 -0.8273 0.913 0.395 0.106 45 18 8 0 0
0.1781 0.2045 -0.8287 0.759 -0.121 0.640 45 18 7 0 0
0.1823 0.2061 -0.8360 0.803 0.144 0.579 63 32 15 0 0
0.1849 0.2072 -0.8409 0.754 0.173 0.633 66 30 11 0 0
0.1866 0.2078 -0.8431 0.856 0.273 0.438 69 33 12 0 0
0.1877 0.2093 -0.8861 0.977 -0.213 -0.013 76 47 29 0 0
0.1725 0.2044 -0.9036 0.892 0.314 -0.325 75 44 24 0 0
0.1722 0.2045 -0.9101 0.934 0.292 0.207 71 38 17 0 0
0.1740 0.2053 -0.9186 0.881 0.367 0.301 86 59 37 0 0
0.1741 0.2054 -0.9217 0.963 0.219 0.156 81 52 32 0 0
0.1803 0.2081 -0.9436 0.968 0.055 -0.246 39 16 8 0 0
0.1819 0.2087 -0.9458 0.985 -0.016 -0.174 40 16 7 0 0
0.1812 0.2086 -0.9493 0.985 -0.016 -0.174 43 19 7 0 0
0.1861 0.2106 -0.9624 0.841 0.109 0.530 79 65 55 0 0
0.2356 0.2290 -1.0082 0.996 0.070 -0.058 89 40 10 0 0
0.2371 0.2295 -1.0104 0.984 0.178 -0.023 91 42 12 0 0
0.2423 0.2314 -1.0103 0.706 0.707 0.026 91 42 12 0 0
0.2456 0.2325 -1.0113 0.939 0.343 -0.000 91 42 12 0 0
0.2464 0.2338 -1.0511 0.972 0.177 0.152 109 75 48 0 0
0.2471 0.2341 -1.0538 0.994 0.108 -0.032 107 73 46 0 0
0.2357 0.2314 -1.1052 0.758 0.643 0.111 71 30 10 0 0
0.2403 0.2331 -1.1084 0.842 0.168 0.512 87 42 16 0 0
0.2421 0.2338 -1.1103 0.843 0.458 0.282 92 47 17 0 0
0.2452 0.2350 -1.1145 0.955 0.295 0.028 95 60 29 0 0
0.2435 0.2352 -1.1472 0.954 0.265 -0.140 70 43 27 0 0
0.0800 0.1464 0.0104 0.955 0.243 -0.168 66 33 13 0 0
0.0830 0.1492 -0.0588 0.836 -0.234 0.496 56 30 19 0 0
0.0895 0.1515 -0.0614 0.493 -0.527 0.692 58 32 22 0 0
0.1293 0.1657 -0.0709 0.969 -0.074 0.234 89 68 59 0 0
0.1302 0.1661 -0.0737 0.922 -0.044 0.384 123 105 96 0 0
0.1314 0.1666 -0.0764 0.922 -0.044 0.384 106 89 81 0 0
0.1507 0.1737 -0.0922 0.876 -0.134 0.463 57 27 13 0 0
0.1525 0.1744 -0.0949 0.763 -0.081 0.642 83 60 48 0 0
0.1547 0.1752 -0.0975 0.765 -0.093 0.638 88 65 57 0 0
0.1944 0.1894 -0.1113 0.850 0.112 0.515 118 84 68 0 0
0.1959 0.1900 -0.1139 0.850 0.112 0.515 145 114 101 0 0
0.1964 0.1903 -0.1166 0.924 0.263 0.279 144 112 98 0 0
0.1467 0.1760 -0.2434 0.946 0.035 -0.324 55 37 30 0 0
0.1461 0.1759 -0.2464 0.969 0.024 -0.245 57 37 30 0 0
0.1452 0.1756 -0.2494 0.993 0.025 -0.112 58 37 30 0 0
0.1369 0.1733 -0.2710 0.872 0.402 0.278 55 35 26 0 0
0.1377 0.1736 -0.2738 0.850 0.496 0.179 51 31 22 0 0
0.1380 0.1738 -0.2767 0.854 0.412 0.318 47 27 18 0 0
0.1424 0.1755 -0.2846 0.863 0.462 0.205 51 30 21 0 0
0.1456 0.1775 -0.3190 0.906 0.406 0.118 61 28 8 0 0
0.1477 0.1783 -0.3245 0.946 0.275 0.173 67 35 17 0 0
0.1397 0.1758 -0.3348 0.855 -0.470 -0.220 36 16 9 0 0
0.1288 0.1723 -0.3459 0.983 -0.157 -0.093 53 33 20 0 0
0.1281 0.1724 -0.3609 0.952 0.068 0.300 36 22 13 0 0
0.1290 0.1728 -0.3636 0.937 0.268 0.223 28 14 7 0 0
0.1295 0.1730 -0.3665 0.810 0.555 0.187 28 12 6 0 0
0.1300 0.1732 -0.3694 0.810 0.555 0.187 41 23 15 0 0
0.1814 0.1920 -0.4014 0.867 0.491 -0.080 79 49 35 0 0
0.1819 0.1923 -0.4042 0.901 0.420 -0.109 88 62 51 0 0
0.1822 0.1925 -0.4099 0.890 0.455 0.012 92 57 41 0 0
0.1822 0.1926 -0.4128 0.890 0.455 0.012 77 37 17 0 0
0.1878 0.1946 -0.4172 0.804 0.594 -0.022 67 29 9 0 0
0.1867 0.1945 -0.4262 0.987 -0.060 0.150 72 35 14 0 0
0.1096 0.1698 -0.5196 0.931 0.263 0.252 60 32 15 0 0
0.1104 0.1702 -0.5255 0.920 0.337 0.201 54 27 9 0 0
0.1101 0.1702 -0.5286 0.996 -0.079 0.033 57 30 11 0 0
0.1054 0.1687 -0.5331 0.853 0.414 0.318 57 30 11 0 0
0.1088 0.1701 -0.5444 0.984 0.179 0.011 70 41 22 0 0
0.1088 0.1702 -0.5475 0.984 0.179 0.011 67 37 18 0 0
0.1100 0.1713 -0.5749 0.981 0.191 0.023 59 30 14 0 0
0.1067 0.1706 -0.5916 0.963 0.250 0.104 57 26 9 0 0
0.1108 0.1734 -0.6493 0.904 0.426 -0.028 47 20 8 0 0
0.1094 0.1734 -0.6687 0.932 0.356 0.062 45 19 6 0 0
0.1147 0.1756 -0.6823 0.985 -0.018 0.172 46 20 7 0 0
0.1678 0.1971 -0.8000 0.909 0.278 0.309 52 23 12 0 0
0.1678 0.1971 -0.8031 0.968 0.209 0.141 53 23 12 0 0
0.1693 0.1977 -0.8055 0.914 0.405 0.027 52 23 12 0 0
0.1828 0.2032 -0.8363 0.820 0.204 0.534 57 27 12 0 0
0.1851 0.2041 -0.8413 0.887 0.160 0.433 69 31 12 0 0
0.1883 0.2055 -0.8490 0.983 0.173 -0.053 72 34 11 0 0
0.1892 0.2059 -0.8548 0.952 0.303 -0.051 78 38 12 0 0
0.1763 0.2029 -0.9179 0.940 0.323 0.106 92 67 43 0 0
0.1764 0.2031 -0.9210 0.925 0.265 0.272 89 61 41 0 0
0.1771 0.2034 -0.9238 0.902 0.282 0.326 86 58 39 0 0
0.1780 0.2037 -0.9265 0.902 0.282 0.326 82 54 38 0 0
0.1777 0.2037 -0.9298 0.919 0.324 0.225 66 38 27 0 0
0.1808 0.2050 -0.9376 0.936 0.233 0.263 38 15 7 0 0
0.1793 0.2047 -0.9447 0.984 -0.173 0.040 39 16 8 0 0
0.1828 0.2059 -0.9459 0.959 0.275 0.074 43 17 9 0 0
0.1828 0.2060 -0.9491 0.920 0.229 0.318 46 20 9 0 0
0.1855 0.2071 -0.9570 0.870 0.332 0.365 69 48 39 0 0
0.1857 0.2073 -0.9601 0.857 0.480 0.187 77 61 50 0 0
0.2348 0.2255 -1.0032 0.918 -0.041 0.395 88 39 7 0 0
0.2365 0.2261 -1.0052 0.896 0.023 0.444 87 38 8 0 0
0.2422 0.2283 -1.0141 0.917 0.384 0.108 90 41 11 0 0
0.2424 0.2285 -1.0171 0.937 0.277 0.211 90 41 11 0 0
0.2442 0.2293 -1.0221 0.881 0.398 0.256 92 45 15 0 0
0.2422 0.2318 -1.1551 0.943 0.291 0.164 76 61 45 0 0
0.2369 0.2302 -1.1653 0.870 0.248 -0.425 146 140 133 0 0
0.0800 0.1428 0.0332 0.992 -0.125 -0.018 73 41 20 0 0
0.0798 0.1430 0.0218 0.994 0.063 -0.093 69 36 17 0 0
0.1528 0.1715 -0.0950 0.698 -0.008 0.716 79 57 42 0 0
0.1467 0.1730 -0.2436 0.935 0.004 -0.354 56 37 30 0 0
0.1454 0.1727 -0.2496 0.969 0.101 -0.225 58 38 31 0 0
0.1438 0.1722 -0.2527 0.923 0.359 -0.141 58 38 31 0 0
0.1375 0.1706 -0.2770 0.642 0.646 0.414 50 30 21 0 0
0.1485 0.1756 -0.3246 0.946 0.275 0.173 68 37 18 0 0
0.1292 0.1693 -0.3431 0.833 0.424 -0.355 40 24 15 0 0
0.1832 0.1897 -0.4013 0.912 0.410 0.015 80 50 37 0 0
0.1835 0.1900 -0.4128 0.925 0.380 -0.015 84 44 24 0 0
0.1868 0.1915 -0.4265 0.954 0.228 0.194 71 35 14 0 0
0.1091 0.1662 -0.5078 0.991 -0.133 -0.002 55 26 10 0 0
0.1113 0.1701 -0.6371 0.890 0.455 0.019 56 27 12 0 0
0.1117 0.1708 -0.6588 0.868 0.475 0.141 47 19 7 0 0
0.1204 0.1749 -0.7025 0.956 0.277 0.099 49 21 9 0 0
0.1308 0.1798 -0.7516 0.948 0.134 0.288 47 19 7 0 0
0.1599 0.1912 -0.8012 0.918 -0.091 0.386 50 20 9 0 0
0.1689 0.1944 -0.8031 0.935 0.322 0.146 53 23 12 0 0
0.1712 0.1952 -0.8052 0.854 0.503 -0.130 53 23 12 0 0
0.1699 0.1950 -0.8151 0.945 0.238 0.224 49 19 8 0 0
0.1824 0.2000 -0.8370 0.981 -0.053 0.187 50 21 6 0 0
0.1888 0.2025 -0.8493 0.932 0.263 0.250 71 33 10 0 0
0.1901 0.2031 -0.8549 0.952 0.303 -0.051 77 38 12 0 0
0.1899 0.2031 -0.8581 0.952 0.303 -0.051 85 50 24 0 0
0.1773 0.2001 -0.9180 0.940 0.323 0.106 92 68 44 0 0
0.1766 0.2000 -0.9215 0.908 0.326 0.262 92 65 44 0 0
0.1773 0.2003 -0.9243 0.908 0.326 0.262 87 59 38 0 0
0.1780 0.2006 -0.9270 0.908 0.326 0.262 81 53 37 0 0
0.1787 0.2009 -0.9298 0.919 0.324 0.225 63 35 23 0 0
0.1790 0.2014 -0.9455 0.770 0.290 0.568 40 16 9 0 0
0.1867 0.2045 -0.9601 0.782 0.579 0.228 82 67 57 0 0
0.2333 0.2220 -1.0078 0.690 0.646 0.328 87 37 9 0 0
0.2347 0.2226 -1.0100 0.760 0.529 0.378 88 40 11 0 0
0.2442 0.2262 -1.0197 0.898 0.359 0.252 91 42 12 0 0
0.2422 0.2275 -1.1053 0.807 0.575 0.137 81 40 12 0 0
0.2424 0.2277 -1.1083 0.957 0.251 0.147 88 45 15 0 0
0.2429 0.2290 -1.1554 0.968 0.247 0.043 77 63 47 0 0
0.2375 0.2273 -1.1656 0.870 0.234 -0.433 146 141 135 0 0
0.2397 0.2281 -1.1672 0.711 0.277 0.646 166 165 161 0 0
0.0782 0.1413 -0.0563 0.882 0.471 -0.027 60 33 22 0 0
0.1297 0.1599 -0.0739 0.983 0.064 0.173 113 96 85 0 0
0.1529 0.1686 -0.0951 0.698 -0.008 0.716 80 58 43 0 0
0.1542 0.1724 -0.2370 0.898 0.111 -0.425 59 40 33 0 0
0.1501 0.1731 -0.3245 0.943 0.330 0.040 69 38 19 0 0
0.1275 0.1657 -0.3467 1.000 -0.015 0.013 55 36 22 0 0
0.1274 0.1657 -0.3497 0.992 -0.108 -0.070 51 28 15 0 0
0.1514 0.1753 -0.3976 0.520 -0.176 0.836 49 20 12 0 0
0.1547 0.1765 -0.3997 0.629 -0.230 0.743 50 21 12 0 0
0.1875 0.1888 -0.4266 0.954 0.228 0.194 71 35 14 0 0
0.1881 0.1890 -0.4294 0.975 0.205 0.082 76 44 24 0 0
0.1118 0.1656 -0.5751 0.976 0.115 0.187 67 35 16 0 0
0.1061 0.1645 -0.6144 0.917 0.292 0.272 59 28 10 0 0
0.1072 0.1650 -0.6171 0.891 0.182 0.416 60 29 11 0 0
0.1125 0.1673 -0.6339 0.890 0.435 0.137 58 27 12 0 0
0.1128 0.1681 -0.6651 0.921 0.390 -0.020 50 24 11 0 0
0.1133 0.1684 -0.6681 0.975 0.120 0.186 47 21 8 0 0
0.1188 0.1709 -0.6942 0.814 0.119 0.569 49 21 9 0 0
0.1320 0.1770 -0.7515 0.801 0.477 0.362 47 19 7 0 0
0.1329 0.1774 -0.7543 0.773 0.622 0.121 46 18 6 0 0
0.1705 0.1917 -0.7998 0.824 0.503 0.263 53 23 12 0 0
0.1709 0.1924 -0.8214 0.953 0.248 0.171 48 19 9 0 0
0.1810 0.1964 -0.8382 0.999 -0.012 -0.043 54 23 8 0 0
0.1809 0.1964 -0.8414 0.999 -0.012 -0.043 61 27 11 0 0
0.1912 0.2004 -0.8549 0.991 0.133 -0.001 76 37 10 0 0
0.1912 0.2005 -0.8580 0.991 0.133 -0.001 83 48 21 0 0
0.1899 0.2001 -0.8617 0.877 0.319 0.359 89 60 37 0 0
0.1861 0.2008 -0.9453 0.850 0.305 0.430 45 18 10 0 0
0.1868 0.2011 -0.9480 0.871 0.082 0.484 49 22 12 0 0
0.1886 0.2020 -0.9596 0.794 0.528 0.301 79 64 53 0 0
0.2365 0.2200 -1.0065 0.784 0.379 0.491 86 37 9 0 0
0.2439 0.2250 -1.1049 0.807 0.575 0.137 80 38 12 0 0
0.2389 0.2246 -1.1621 0.957 0.262 0.123 109 101 90 0 0
0.2390 0.2247 -1.1653 0.959 0.285 0.013 148 144 137 0 0
0.0715 0.1324 0.0819 0.986 0.154 0.059 77 46 25 0 0
0.0734 0.1353 -0.0073 0.960 -0.256 0.115 71 42 24 0 0
0.0762 0.1374 -0.0565 0.549 0.823 0.143 57 31 20 0 0
0.1308 0.1573 -0.0768 0.918 0.319 0.237 98 78 70 0 0
0.1540 0.1660 -0.0952 0.680 0.016 0.733 81 59 46 0 0
0.1980 0.1821 -0.1169 0.773 -0.057 0.632 143 114 98 0 0
0.1082 0.1593 -0.4996 0.953 0.011 0.303 56 26 15 0 0
0.1081 0.1594 -0.5027 0.924 0.280 0.261 56 26 14 0 0
0.1087 0.1597 -0.5056 0.935 0.287 0.210 58 29 14 0 0
0.1087 0.1597 -0.5086 0.977 0.186 0.099 60 31 16 0 0
0.1361 0.1754 -0.7565 0.769 0.629 -0.110 46 18 6 0 0
0.1455 0.1792 -0.7743 0.910 0.009 0.414 47 19 8 0 0
0.1711 0.1892 -0.8156 0.985 0.161 0.067 53 24 12 0 0
0.1742 0.1906 -0.8265 0.797 0.452 0.400 51 21 11 0 0
0.1915 0.1973 -0.8522 0.991 0.127 0.032 77 38 14 0 0
0.1840 0.1956 -0.8904 0.948 0.279 0.157 81 49 31 0 0
0.1839 0.1956 -0.8936 0.925 0.354 -0.140 76 43 25 0 0
0.2385 0.2177 -1.0090 0.785 0.381 0.489 80 35 6 0 0
0.2397 0.2182 -1.0114 0.785 0.381 0.489 81 36 7 0 0
0.2409 0.2187 -1.0137 0.785 0.381 0.489 84 38 9 0 0
0.2489 0.2219 -1.0304 0.937 0.349 0.013 88 48 22 0 0
0.2455 0.2225 -1.1045 0.992 0.124 0.031 81 39 14 0 0
0.2465 0.2230 -1.1101 0.930 0.240 0.280 89 44 16 0 0
0.2482 0.2237 -1.1153 0.929 0.338 0.149 96 59 31 0 0
0.2478 0.2237 -1.1187 0.942 0.301 0.149 98 63 35 0 0
0.2482 0.2239 -1.1215 0.942 0.301 0.149 97 63 35 0 0
0.2394 0.2217 -1.1626 0.959 0.281 -0.042 113 105 95 0 0
0.0720 0.1296 0.0819 0.975 0.202 0.094 74 43 22 0 0
0.0716 0.1295 0.0790 0.932 0.215 0.292 75 44 23 0 0
0.0723 0.1305 0.0475 0.992 0.105 -0.067 84 54 30 0 0
0.0694 0.1295 0.0446 0.972 0.005 -0.236 80 49 27 0 0
0.0719 0.1305 0.0417 0.920 0.340 -0.195 77 46 25 0 0
0.0735 0.1323 -0.0131 0.988 -0.145 -0.058 63 34 16 0 0
0.0784 0.1348 -0.0449 0.876 0.481 0.038 55 28 17 0 0
0.0716 0.1326 -0.0539 0.992 -0.049 0.120 54 30 20 0 0
0.0767 0.1345 -0.0566 0.871 0.348 -0.346 52 30 19 0 0
0.0773 0.1348 -0.0595 0.899 0.430 -0.079 58 31 22 0 0
0.1300 0.1539 -0.0742 0.887 0.230 0.401 112 94 82 0 0
0.1313 0.1545 -0.0769 0.939 0.204 0.278 95 75 64 0 0
0.1576 0.1668 -0.2025 0.847 -0.017 0.531 57 38 32 0 0
0.1548 0.1668 -0.2459 0.400 0.839 0.369 55 37 29 0 0
0.1554 0.1671 -0.2487 0.410 0.890 0.200 53 36 28 0 0
0.1486 0.1660 -0.3049 0.966 0.166 -0.199 79 61 55 0 0
0.1489 0.1662 -0.3077 0.949 0.148 0.277 74 50 38 0 0
0.1275 0.1595 -0.3473 0.984 -0.033 0.174 47 25 14 0 0
0.1340 0.1625 -0.3785 0.968 0.252 -0.008 39 19 10 0 0
0.1298 0.1611 -0.3824 0.938 0.115 0.326 41 21 11 0 0
0.1493 0.1685 -0.3987 0.528 -0.244 0.813 50 22 10 0 0
0.1155 0.1606 -0.5778 0.846 0.530 0.051 67 36 18 0 0
0.1110 0.1596 -0.6010 0.990 0.142 -0.004 71 38 21 0 0
0.1099 0.1593 -0.6045 0.964 0.266 0.009 70 37 20 0 0
0.1114 0.1600 -0.6102 0.986 0.163 0.048 71 40 20 0 0
0.1197 0.1648 -0.6916 0.994 0.075 0.084 47 19 7 0 0
0.1220 0.1658 -0.7001 0.954 0.054 0.296 49 21 9 0 0
0.1228 0.1662 -0.7029 0.954 0.054 0.296 49 21 9 0 0
0.1232 0.1664 -0.7059 0.940 0.159 0.301 50 22 10 0 0
0.1240 0.1668 -0.7087 0.940 0.159 0.301 51 23 11 0 0
0.1249 0.1671 -0.7115 0.979 -0.119 0.168 51 23 9 0 0
0.1459 0.1760 -0.7715 0.828 0.345 0.441 47 19 7 0 0
0.1471 0.1765 -0.7741 0.828 0.345 0.441 47 19 8 0 0
0.1735 0.1871 -0.8212 0.981 0.190 0.023 54 25 11 0 0
0.1747 0.1876 -0.8268 0.911 0.315 0.265 52 23 10 0 0
0.1924 0.1948 -0.8616 0.952 0.303 -0.051 94 67 42 0 0
0.1908 0.1962 -0.9470 0.958 0.165 0.235 51 24 13 0 0
0.1941 0.1977 -0.9609 0.776 0.522 0.354 80 62 55 0 0
0.1940 0.1977 -0.9641 0.996 0.084 -0.027 84 66 59 0 0
0.2422 0.2161 -1.0136 0.785 0.381 0.489 75 30 5 0 0
0.2376 0.2164 -1.0948 0.743 0.368 0.559 46 21 13 0 0
0.2481 0.2205 -1.1098 0.970 0.005 0.244 90 46 18 0 0
0.2488 0.2208 -1.1124 0.970 0.005 0.244 91 53 22 0 0
0.2468 0.2209 -1.1453 0.979 0.195 -0.065 87 62 39 0 0
0.2392 0.2186 -1.1634 0.966 0.165 -0.200 119 111 101 0 0
0.0715 0.1263 0.0818 0.982 0.186 0.036 68 37 17 0 0
0.0720 0.1265 0.0790 0.929 0.223 0.297 70 39 19 0 0
0.0727 0.1275 0.0474 0.997 -0.018 0.072 76 45 24 0 0
0.0724 0.1275 0.0445 0.992 0.105 -0.067 76 45 24 0 0
0.0729 0.1277 0.0416 0.939 0.303 -0.163 74 43 22 0 0
0.0724 0.1276 0.0388 0.939 0.303 -0.163 75 43 22 0 0
0.0719 0.1275 0.0359 0.920 0.354 -0.168 74 42 21 0 0
0.0721 0.1286 -0.0103 0.966 -0.240 0.095 63 34 16 0 0
0.0730 0.1290 -0.0132 0.988 -0.145 -0.058 61 32 14 0 0
0.0728 0.1290 -0.0161 0.988 -0.145 -0.058 61 32 14 0 0
0.0715 0.1294 -0.0540 0.992 -0.049 0.120 49 25 14 0 0
0.0787 0.1321 -0.0566 0.969 -0.007 -0.246 46 24 13 0 0
0.0780 0.1319 -0.0596 0.969 -0.007 -0.246 53 26 17 0 0
0.0831 0.1338 -0.0623 0.257 0.227 0.940 56 31 21 0 0
0.1600 0.1646 -0.2024 0.969 0.248 0.010 58 39 33 0 0
0.1603 0.1648 -0.2052 0.806 0.538 0.249 55 38 31 0 0
0.1426 0.1594 -0.2451 0.981 -0.002 -0.192 55 37 27 0 0
0.1429 0.1596 -0.2508 0.999 -0.048 0.007 54 35 28 0 0
0.1453 0.1606 -0.2534 0.631 0.330 0.702 54 35 28 0 0
0.1426 0.1604 -0.2887 0.983 -0.172 -0.058 47 27 18 0 0
0.1456 0.1620 -0.3086 0.828 0.245 -0.505 72 48 36 0 0
0.1275 0.1564 -0.3475 0.946 0.322 -0.035 54 32 21 0 0
0.1271 0.1563 -0.3506 0.965 0.230 -0.129 50 28 17 0 0
0.1363 0.1600 -0.3664 0.882 -0.246 0.402 37 21 12 0 0
0.1347 0.1597 -0.3786 0.968 0.252 -0.008 42 20 8 0 0
0.1333 0.1592 -0.3819 0.803 0.589 -0.092 45 24 11 0 0
0.1851 0.1787 -0.4194 0.963 0.133 0.236 73 35 12 0 0
0.1066 0.1530 -0.5254 0.913 0.261 -0.314 67 38 20 0 0
0.1075 0.1534 -0.5282 0.986 0.127 -0.108 62 33 16 0 0
0.1129 0.1570 -0.5977 0.993 0.098 0.061 66 35 17 0 0
0.1336 0.1679 -0.7460 0.952 -0.301 0.048 52 24 10 0 0
0.1328 0.1677 -0.7495 0.891 -0.220 0.396 51 23 11 0 0
0.1343 0.1683 -0.7520 0.945 -0.279 0.172 48 20 8 0 0
0.1742 0.1842 -0.8214 0.977 0.163 0.139 57 28 14 0 0
0.1928 0.1917 -0.8588 0.989 0.117 0.096 87 52 26 0 0
0.1930 0.1919 -0.8618 0.989 0.117 0.096 88 59 35 0 0
0.1921 0.1937 -0.9532 0.838 0.542 0.061 77 52 41 0 0
0.1927 0.1939 -0.9560 0.791 0.578 0.199 78 58 48 0 0
0.1945 0.1946 -0.9581 0.750 0.599 0.280 80 64 54 0 0
0.2422 0.2130 -1.0111 0.843 0.253 0.474 72 30 6 0 0
0.2432 0.2134 -1.0136 0.851 0.269 0.451 71 29 5 0 0
0.2459 0.2155 -1.0617 0.977 0.198 -0.083 100 69 41 0 0
0.2428 0.2146 -1.0732 0.919 0.302 -0.254 97 67 44 0 0
0.2463 0.2167 -1.1054 0.917 0.305 0.257 77 34 11 0 0
0.2497 0.2180 -1.1094 0.886 0.332 0.324 90 47 20 0 0
0.2471 0.2179 -1.1459 0.966 0.254 -0.047 85 59 37 0 0
0.2464 0.2177 -1.1495 0.931 -0.000 0.364 64 43 29 0 0
0.0695 0.1225 0.0819 0.980 -0.194 0.034 67 36 18 0 0
0.0713 0.1241 0.0416 0.973 0.190 -0.130 74 42 21 0 0
0.0688 0.1237 0.0185 0.988 -0.105 -0.114 69 38 20 0 0
0.0696 0.1244 -0.0018 0.931 -0.071 0.357 67 35 20 0 0
0.0690 0.1243 -0.0047 0.990 -0.081 0.112 67 35 20 0 0
0.0710 0.1251 -0.0076 0.961 -0.126 0.245 61 32 14 0 0
0.0718 0.1254 -0.0104 0.993 -0.086 0.077 58 29 11 0 0
0.0720 0.1256 -0.0133 0.993 -0.086 0.077 60 31 13 0 0
0.0715 0.1254 -0.0163 0.988 -0.010 -0.154 61 32 14 0 0
0.0812 0.1300 -0.0596 0.747 -0.576 0.332 55 28 19 0 0
0.0999 0.1368 -0.0645 0.194 0.098 0.976 72 54 44 0 0
0.2001 0.1748 -0.1502 0.872 -0.488 0.025 63 42 32 0 0
0.2014 0.1754 -0.1556 0.841 0.308 -0.445 63 45 35 0 0
0.1645 0.1634 -0.2106 0.899 -0.411 0.153 58 41 34 0 0
0.1694 0.1654 -0.2184 0.065 0.990 0.129 58 39 33 0 0
0.1440 0.1569 -0.2480 0.929 -0.326 -0.176 56 37 29 0 0
0.1480 0.1597 -0.3055 0.773 0.482 -0.412 75 57 51 0 0
0.1465 0.1592 -0.3087 0.773 0.482 -0.412 71 47 35 0 0
0.1462 0.1592 -0.3117 0.863 0.491 0.117 59 27 12 0 0
0.1281 0.1535 -0.3476 0.968 0.246 0.050 58 36 25 0 0
0.1283 0.1536 -0.3506 0.968 0.246 0.050 54 32 21 0 0
0.1373 0.1573 -0.3694 0.879 -0.201 0.432 55 38 24 0 0
0.1564 0.1649 -0.4005 0.466 0.715 0.522 55 25 13 0 0
0.1087 0.1507 -0.5282 0.986 -0.150 0.075 67 38 20 0 0
0.1007 0.1491 -0.5835 0.969 0.206 0.136 73 42 24 0 0
0.1008 0.1492 -0.5866 0.945 0.296 0.137 73 42 24 0 0
0.1011 0.1494 -0.5896 0.898 0.382 0.219 70 39 21 0 0
0.1323 0.1643 -0.7503 0.891 -0.220 0.396 51 23 11 0 0
0.1572 0.1741 -0.7862 0.747 0.437 0.502 54 25 12 0 0
0.1585 0.1746 -0.7887 0.758 0.399 0.516 55 26 12 0 0
0.1593 0.1750 -0.7915 0.923 0.290 0.254 56 27 13 0 0
0.1585 0.1748 -0.7950 0.966 0.089 0.242 56 27 13 0 0
0.1710 0.1799 -0.8204 0.676 0.019 0.736 55 25 12 0 0
0.1927 0.1907 -0.9535 0.820 0.511 0.258 75 50 39 0 0
0.1937 0.1912 -0.9560 0.704 0.554 0.445 78 59 49 0 0
0.2096 0.1974 -0.9783 0.987 -0.124 0.104 99 79 71 0 0
0.2136 0.1990 -0.9854 0.921 -0.309 0.238 95 77 66 0 0
0.2465 0.2126 -1.0620 0.977 0.198 -0.083 102 72 42 0 0
0.2427 0.2116 -1.0770 0.910 0.339 -0.238 84 57 38 0 0
0.2484 0.2145 -1.1109 0.970 0.005 0.244 86 45 18 0 0
0.2466 0.2140 -1.1185 0.970 0.202 0.138 98 62 34 0 0
0.2417 0.2132 -1.1600 0.864 0.118 -0.489 88 76 62 0 0
0.0715 0.1207 0.0559 0.994 0.027 0.102 72 40 20 0 0
0.0718 0.1208 0.0531 0.994 0.027 0.102 72 40 19 0 0
0.0722 0.1211 0.0502 0.966 0.031 0.256 71 39 19 0 0
0.0726 0.1213 0.0473 0.997 -0.018 0.072 71 39 19 0 0
0.0715 0.1223 -0.0134 0.976 -0.219 -0.019 65 35 18 0 0
0.1417 0.1494 -0.0880 0.920 0.229 0.317 56 26 12 0 0
0.2044 0.1735 -0.1500 0.944 -0.045 -0.328 64 41 31 0 0
0.2067 0.1743 -0.1525 0.863 0.278 -0.421 64 42 33 0 0
0.1555 0.1614 -0.3981 0.548 0.729 0.410 52 24 12 0 0
0.1592 0.1628 -0.4001 0.466 0.715 0.522 53 23 10 0 0
0.1038 0.1455 -0.5177 0.928 0.353 0.117 73 45 25 0 0
0.1049 0.1459 -0.5205 0.865 0.449 0.224 79 51 31 0 0
0.1042 0.1458 -0.5237 0.937 0.302 0.174 73 44 25 0 0
0.1046 0.1460 -0.5267 0.946 0.278 0.166 68 40 20 0 0
0.1042 0.1459 -0.5299 0.931 0.364 -0.024 66 38 18 0 0
0.1015 0.1463 -0.5899 0.921 0.244 0.305 74 43 25 0 0
0.1024 0.1467 -0.5927 0.921 0.244 0.305 76 45 26 0 0
0.1070 0.1496 -0.6444 0.992 0.119 -0.038 64 33 15 0 0
0.1075 0.1499 -0.6505 0.989 0.066 0.133 69 38 20 0 0
0.1313 0.1612 -0.7701 0.940 0.046 -0.339 47 18 7 0 0
0.1537 0.1695 -0.7789 0.704 0.322 0.634 50 21 10 0 0
0.1568 0.1707 -0.7838 0.704 0.430 0.566 53 23 11 0 0
0.1584 0.1714 -0.7862 0.702 0.444 0.558 54 25 11 0 0
0.1626 0.1733 -0.8062 0.824 0.104 0.557 53 23 12 0 0
0.1909 0.1847 -0.8547 0.958 0.186 0.220 79 38 14 0 0
0.1943 0.1883 -0.9595 0.846 0.175 0.503 76 60 51 0 0
0.1999 0.1905 -0.9657 0.815 -0.057 0.577 90 72 66 0 0
0.2128 0.1954 -0.9771 0.960 0.007 0.281 101 82 74 0 0
0.2137 0.1958 -0.9797 0.976 0.207 0.070 94 75 67 0 0
0.2140 0.1960 -0.9826 0.838 0.298 0.458 96 78 68 0 0
0.2157 0.1966 -0.9848 0.878 0.402 0.260 94 76 65 0 0
0.2434 0.2073 -1.0148 0.890 0.153 0.430 71 31 8 0 0
0.2470 0.2098 -1.0623 0.977 0.198 -0.083 98 69 41 0 0
0.2444 0.2090 -1.0735 0.915 0.326 -0.237 86 59 40 0 0
0.2437 0.2089 -1.0771 0.910 0.339 -0.238 84 55 38 0 0
0.2422 0.2089 -1.1001 0.961 0.277 -0.028 47 20 9 0 0
0.2551 0.2141 -1.1228 0.925 0.375 -0.061 102 68 39 0 0
0.2481 0.2122 -1.1530 0.955 0.276 0.107 68 53 39 0 0
0.2401 0.2096 -1.1650 0.955 0.141 -0.260 130 124 115 0 0
0.0705 0.1171 0.0616 0.905 -0.361 0.225 73 41 20 0 0
0.0686 0.1179 -0.0049 0.973 0.008 0.231 67 35 20 0 0
0.0693 0.1182 -0.0078 0.973 0.008 0.231 67 35 20 0 0
0.0667 0.1185 -0.0604 0.624 -0.733 0.272 67 41 32 0 0
0.1325 0.1430 -0.0887 0.856 0.508 0.101 57 26 13 0 0
0.1997 0.1688 -0.1506 0.785 -0.030 0.618 66 42 31 0 0
0.2029 0.1701 -0.1530 0.979 0.167 -0.119 66 43 32 0 0
0.1687 0.1587 -0.1990 0.613 0.094 -0.785 60 41 34 0 0
0.1636 0.1570 -0.2054 0.656 0.473 -0.588 61 42 35 0 0
0.1621 0.1565 -0.2084 0.814 0.427 0.393 60 41 34 0 0
0.1632 0.1569 -0.2111 0.846 0.351 0.403 60 41 34 0 0
0.1643 0.1574 -0.2138 0.670 0.533 0.517 60 41 34 0 0
0.1470 0.1515 -0.2335 0.852 0.503 0.145 57 38 32 0 0
0.1442 0.1507 -0.2426 0.842 0.309 -0.442 58 39 31 0 0
0.1411 0.1509 -0.2984 0.972 0.210 0.104 55 31 21 0 0
0.1538 0.1555 -0.2991 0.928 -0.306 -0.213 57 38 29 0 0
0.1581 0.1593 -0.3977 0.568 0.740 0.360 52 23 12 0 0
0.1619 0.1607 -0.3998 0.439 0.804 0.401 54 22 11 0 0
0.1911 0.1719 -0.4246 0.974 0.203 0.104 72 35 13 0 0
0.1054 0.1418 -0.4714 0.864 0.501 0.048 78 50 28 0 0
0.1078 0.1435 -0.5076 0.836 0.433 -0.336 62 33 17 0 0
0.1064 0.1433 -0.5203 0.829 0.514 0.222 73 44 26 0 0
0.1063 0.1434 -0.5235 0.721 0.693 -0.016 75 46 26 0 0
0.1061 0.1433 -0.5266 0.826 0.562 0.053 76 48 27 0 0
0.1041 0.1434 -0.5614 1.000 0.023 0.018 78 47 26 0 0
0.1042 0.1435 -0.5645 1.000 0.023 0.018 78 47 26 0 0
0.1049 0.1440 -0.5767 0.934 0.357 0.015 84 54 30 0 0
0.1045 0.1440 -0.5799 0.892 0.426 -0.154 87 55 32 0 0
0.1549 0.1668 -0.7820 0.871 0.149 0.468 52 22 11 0 0
0.1556 0.1672 -0.7848 0.972 0.128 0.198 53 24 10 0 0
0.1592 0.1687 -0.7957 0.770 0.366 0.522 54 25 11 0 0
0.1646 0.1709 -0.8026 0.779 0.333 0.532 53 23 12 0 0
0.1645 0.1709 -0.8058 0.795 0.307 0.523 53 23 12 0 0
0.1663 0.1716 -0.8081 0.772 0.214 0.599 53 23 12 0 0
0.1716 0.1737 -0.8180 0.796 -0.574 0.193 53 23 12 0 0
0.1855 0.1792 -0.8362 0.851 0.030 0.525 62 29 12 0 0
0.2120 0.1920 -0.9782 0.950 -0.125 0.286 100 80 73 0 0
0.2135 0.1926 -0.9804 0.986 0.008 0.166 92 72 64 0 0
0.2155 0.1934 -0.9824 0.928 0.036 0.372 99 79 69 0 0
0.2497 0.2072 -1.0426 0.929 0.266 0.256 96 64 39 0 0
0.2476 0.2069 -1.0627 0.977 0.198 -0.083 94 63 39 0 0
0.2450 0.2063 -1.0769 0.961 0.240 -0.135 84 55 37 0 0
0.0633 0.1140 -0.0578 0.896 -0.445 -0.000 59 32 22 0 0
0.0646 0.1145 -0.0607 0.591 -0.566 0.575 67 41 32 0 0
0.1360 0.1412 -0.0858 0.993 0.081 0.088 55 27 15 0 0
0.2036 0.1673 -0.1504 0.837 -0.048 0.544 66 42 32 0 0
0.1626 0.1536 -0.2085 0.653 0.190 0.733 60 41 34 0 0
0.1572 0.1519 -0.2178 0.334 0.915 0.225 59 40 34 0 0
0.1471 0.1485 -0.2337 0.956 -0.285 0.067 58 39 33 0 0
0.1452 0.1481 -0.2426 0.642 0.711 -0.288 60 41 33 0 0
0.1408 0.1470 -0.2666 0.939 0.333 0.083 58 38 31 0 0
0.1298 0.1453 -0.3689 0.825 0.433 0.363 58 40 32 0 0
0.1839 0.1661 -0.4151 0.979 -0.171 0.114 69 31 10 0 0
0.1073 0.1404 -0.5174 0.791 0.506 0.343 69 40 23 0 0
0.1083 0.1408 -0.5201 0.730 0.678 0.084 71 42 24 0 0
0.1086 0.1410 -0.5231 0.721 0.693 -0.016 73 45 25 0 0
0.1060 0.1408 -0.5580 0.963 0.205 0.173 85 53 32 0 0
0.1055 0.1407 -0.5613 0.962 0.263 -0.074 86 54 33 0 0
0.1052 0.1414 -0.5957 0.927 0.301 0.222 82 49 28 0 0
0.1076 0.1434 -0.6450 0.842 0.394 0.368 74 43 24 0 0
0.1070 0.1432 -0.6484 0.882 0.265 0.390 78 47 29 0 0
0.1570 0.1645 -0.7847 0.941 0.198 0.275 52 23 9 0 0
0.1575 0.1647 -0.7876 0.966 0.210 0.148 52 23 9 0 0
0.1580 0.1650 -0.7905 0.967 0.240 0.083 53 24 10 0 0
0.1578 0.1650 -0.7938 0.977 0.205 -0.053 54 25 11 0 0
0.1690 0.1695 -0.8135 0.958 0.103 0.266 56 27 13 0 0
0.1871 0.1767 -0.8390 0.911 0.203 0.359 63 30 14 0 0
0.1896 0.1777 -0.8409 0.979 0.188 0.078 64 31 13 0 0
0.2135 0.1894 -0.9779 0.943 0.042 0.329 95 76 67 0 0
0.2144 0.1898 -0.9805 0.943 0.042 0.329 96 75 66 0 0
0.2160 0.1905 -0.9827 0.916 -0.024 0.401 105 84 73 0 0
0.2380 0.1989 -1.0007 0.802 0.127 0.583 78 40 12 0 0
0.2474 0.2028 -1.0198 0.983 0.100 0.156 72 32 7 0 0
0.2471 0.2027 -1.0231 0.987 0.159 0.037 75 36 8 0 0
0.2507 0.2045 -1.0426 0.927 0.320 0.194 97 65 40 0 0
0.2450 0.2043 -1.1281 0.937 0.261 0.234 88 53 25 0 0
0.2527 0.2071 -1.1290 0.965 0.151 -0.212 101 68 37 0 0
0.0677 0.1112 -0.0021 0.942 0.032 0.334 64 32 17 0 0
0.0605 0.1098 -0.0551 0.989 -0.144 0.017 60 33 22 0 0
0.0609 0.1100 -0.0580 0.968 -0.230 0.098 58 31 21 0 0
0.0613 0.1102 -0.0609 0.972 -0.183 0.147 63 37 28 0 0
0.1362 0.1382 -0.0859 0.911 0.413 0.006 55 27 15 0 0
0.1354 0.1380 -0.0888 0.561 0.683 0.468 58 27 14 0 0
0.1477 0.1459 -0.2425 0.642 0.711 -0.288 61 42 34 0 0
0.1445 0.1453 -0.2662 0.788 0.216 0.576 61 41 34 0 0
0.1444 0.1453 -0.2691 0.985 0.036 -0.170 62 40 32 0 0
0.1414 0.1449 -0.2989 0.990 0.076 -0.116 55 31 19 0 0
0.1420 0.1456 -0.3223 0.874 0.301 0.382 64 33 20 0 0
0.1216 0.1389 -0.3560 0.795 0.607 0.025 52 32 21 0 0
0.1326 0.1433 -0.3746 0.961 -0.061 0.271 56 33 25 0 0
0.1052 0.1367 -0.5307 0.982 0.024 -0.186 77 49 28 0 0
0.1047 0.1366 -0.5340 0.993 0.083 -0.085 80 51 30 0 0
0.1047 0.1367 -0.5371 0.996 0.031 0.085 79 46 27 0 0
0.1058 0.1372 -0.5430 0.978 0.057 0.200 78 45 26 0 0
0.1060 0.1374 -0.5460 0.988 0.039 0.149 83 51 30 0 0
0.1064 0.1376 -0.5490 0.991 0.032 0.131 83 51 30 0 0
0.1068 0.1378 -0.5551 0.992 0.093 0.089 81 49 27 0 0
0.1067 0.1395 -0.6332 0.922 0.242 0.303 77 46 26 0 0
0.1089 0.1406 -0.6450 0.842 0.394 0.368 72 41 22 0 0
0.1084 0.1405 -0.6483 0.884 0.345 0.316 69 38 20 0 0
0.1092 0.1408 -0.6512 0.884 0.345 0.316 68 37 19 0 0
0.1458 0.1566 -0.7589 0.904 0.384 0.190 54 25 11 0 0
0.1454 0.1566 -0.7622 0.877 0.474 0.072 53 24 9 0 0
0.1456 0.1567 -0.7653 0.877 0.474 0.072 52 23 9 0 0
0.1518 0.1593 -0.7782 0.887 -0.020 0.462 53 24 10 0 0
0.1532 0.1598 -0.7807 0.887 -0.020 0.462 55 26 12 0 0
0.1575 0.1616 -0.7882 0.982 0.039 0.185 53 24 10 0 0
0.1590 0.1623 -0.7937 0.990 0.140 0.023 55 26 12 0 0
0.1720 0.1677 -0.8220 0.800 0.187 0.570 57 28 14 0 0
0.1729 0.1681 -0.8279 0.935 0.088 0.343 59 30 15 0 0
0.1722 0.1679 -0.8313 0.951 0.050 0.306 59 30 16 0 0
0.1851 0.1728 -0.8374 0.874 0.438 0.210 62 29 14 0 0
0.1898 0.1748 -0.8507 0.996 0.089 -0.009 71 35 13 0 0
0.1857 0.1743 -0.8967 0.959 0.284 0.007 84 52 31 0 0
0.1850 0.1742 -0.9034 0.916 0.334 -0.224 77 44 23 0 0
0.2135 0.1863 -0.9786 0.931 0.008 0.366 96 77 68 0 0
0.2153 0.1871 -0.9806 0.858 0.456 0.238 102 80 70 0 0
0.2390 0.1962 -1.0008 0.775 0.199 0.600 73 35 8 0 0
0.2421 0.1974 -1.0051 0.806 0.327 0.494 81 44 19 0 0
0.2467 0.1994 -1.0178 0.889 0.201 0.411 72 32 7 0 0
0.2493 0.2005 -1.0255 0.924 0.317 0.213 76 36 8 0 0
0.2499 0.2008 -1.0282 0.940 0.313 0.133 81 40 12 0 0
0.2517 0.2018 -1.0427 0.927 0.320 0.194 97 65 40 0 0
0.2518 0.2019 -1.0457 0.971 0.240 0.015 96 65 40 0 0
0.2452 0.2012 -1.1255 0.969 0.215 0.118 89 54 26 0 0
0.2440 0.2016 -1.1612 0.872 0.215 -0.440 106 96 85 0 0
0.0575 0.1056 -0.0612 0.977 -0.071 -0.202 62 36 25 0 0
0.1379 0.1359 -0.0888 0.561 0.683 0.468 65 36 21 0 0
0.1935 0.1569 -0.1156 0.944 0.244 -0.221 126 98 86 0 0
0.1961 0.1579 -0.1182 0.934 0.283 0.216 120 92 74 0 0
0.1616 0.1472 -0.2090 0.975 -0.126 0.181 60 41 34 0 0
0.1621 0.1475 -0.2118 0.975 -0.126 0.181 60 41 34 0 0
0.1471 0.1426 -0.2428 0.692 0.484 -0.535 62 42 35 0 0
0.1457 0.1422 -0.2459 0.615 0.631 -0.473 62 42 35 0 0
0.1492 0.1435 -0.2482 0.798 0.454 0.396 60 40 31 0 0
0.0872 0.1256 -0.4712 0.705 0.164 0.690 96 75 58 0 0
0.0898 0.1266 -0.4736 0.833 0.172 0.526 83 58 39 0 0
0.0917 0.1273 -0.4762 0.848 0.392 0.358 89 63 43 0 0
0.0934 0.1280 -0.4788 0.860 0.417 0.295 89 64 44 0 0
0.0959 0.1297 -0.5122 0.967 0.197 0.162 77 47 29 0 0
0.0964 0.1299 -0.5152 0.967 0.197 0.162 78 48 30 0 0
0.1065 0.1343 -0.5431 0.961 0.146 0.234 81 51 28 0 0
0.1067 0.1350 -0.5710 0.991 0.131 0.014 87 55 33 0 0
0.1056 0.1348 -0.5839 0.981 0.171 -0.093 83 51 29 0 0
0.1053 0.1366 -0.6721 0.971 0.008 -0.237 65 36 17 0 0
0.1057 0.1368 -0.6751 0.997 -0.044 -0.063 62 35 17 0 0
0.1073 0.1375 -0.6776 0.962 -0.001 0.273 64 37 20 0 0
0.1454 0.1534 -0.7627 0.981 -0.004 0.192 54 26 12 0 0
0.1401 0.1516 -0.7714 0.870 0.250 0.424 53 25 11 0 0
0.1557 0.1576 -0.7801 0.940 0.053 0.336 56 28 14 0 0
0.1567 0.1580 -0.7827 0.943 0.175 0.284 56 27 13 0 0
0.1570 0.1582 -0.7857 0.980 0.124 0.156 55 26 12 0 0
0.1584 0.1588 -0.7914 0.952 0.291 0.093 54 25 12 0 0
0.1591 0.1592 -0.7973 0.981 0.166 0.097 54 26 12 0 0
0.1540 0.1575 -0.8060 0.921 -0.073 0.383 60 32 18 0 0
0.1834 0.1690 -0.8357 0.967 0.066 0.246 61 31 15 0 0
0.1844 0.1694 -0.8383 0.997 0.050 0.052 62 29 14 0 0
0.1873 0.1705 -0.8400 0.916 0.402 -0.014 63 29 13 0 0
0.1726 0.1670 -0.9265 0.809 0.563 0.171 85 57 36 0 0
0.2498 0.1975 -1.0196 0.890 0.455 0.035 83 42 15 0 0
0.2508 0.1981 -1.0283 0.940 0.313 0.133 86 44 18 0 0
0.2521 0.1987 -1.0368 0.926 0.367 0.085 95 63 40 0 0
0.2517 0.1986 -1.0402 0.957 0.281 -0.070 97 65 41 0 0
0.2491 0.1992 -1.1109 0.903 0.250 0.348 72 33 7 0 0
0.2461 0.1985 -1.1288 0.921 0.369 0.127 94 59 31 0 0
0.2527 0.2010 -1.1337 0.907 0.376 -0.189 101 67 38 0 0
0.2518 0.2009 -1.1438 0.806 0.562 -0.183 96 65 40 0 0
0.1488 0.1402 -0.2427 0.692 0.484 -0.535 61 41 34 0 0
0.1473 0.1397 -0.2458 0.657 0.620 -0.429 62 42 35 0 0
0.1510 0.1411 -0.2482 0.734 0.585 0.345 60 40 32 0 0
0.0880 0.1226 -0.4713 0.913 0.146 -0.382 102 81 65 0 0
0.0866 0.1222 -0.4748 0.913 0.146 -0.382 84 60 40 0 0
0.0887 0.1230 -0.4773 0.998 -0.054 -0.043 85 60 40 0 0
0.0837 0.1228 -0.5538 0.751 0.398 0.526 90 59 34 0 0
0.0843 0.1232 -0.5599 0.714 0.359 0.600 93 61 37 0 0
0.1012 0.1311 -0.6361 0.979 0.198 0.045 82 49 30 0 0
0.1064 0.1339 -0.6753 0.983 0.163 0.082 66 38 21 0 0
0.1074 0.1343 -0.6780 0.962 -0.001 0.273 66 39 23 0 0
0.1593 0.1560 -0.7915 0.952 0.291 0.093 55 26 12 0 0
0.1888 0.1687 -0.8742 0.969 0.062 0.239 89 61 39 0 0
0.1949 0.1727 -0.9559 0.836 -0.165 0.524 80 59 48 0 0
0.2434 0.1918 -1.0087 0.945 0.031 0.325 75 37 11 0 0
0.2494 0.1943 -1.0205 0.963 0.271 -0.017 81 41 15 0 0
0.2524 0.1962 -1.0591 0.902 0.353 0.248 96 67 43 0 0
0.2495 0.1963 -1.1113 0.953 0.086 0.289 72 33 9 0 0
0.2431 0.1941 -1.1188 0.944 0.284 0.172 83 45 19 0 0
0.2477 0.1967 -1.1601 0.858 -0.030 0.513 118 109 100 0 0
0.1489 0.1372 -0.2458 0.763 0.072 0.642 62 42 35 0 0
0.1510 0.1381 -0.2484 0.763 0.072 0.642 61 41 33 0 0
0.1822 0.1533 -0.4197 0.963 0.150 -0.223 72 34 11 0 0
0.0839 0.1197 -0.5541 0.665 0.257 0.702 98 67 41 0 0
0.1238 0.1383 -0.7288 0.952 0.305 -0.003 61 34 17 0 0
0.1242 0.1385 -0.7318 0.981 0.124 0.152 61 34 17 0 0
0.1248 0.1387 -0.7348 0.966 0.101 0.237 61 34 17 0 0
0.1245 0.1387 -0.7381 0.976 0.184 -0.120 59 32 15 0 0
0.1679 0.1564 -0.8099 0.899 0.062 0.434 58 30 16 0 0
0.1691 0.1569 -0.8125 0.978 0.127 0.165 58 30 16 0 0
0.2182 0.1786 -0.9745 0.472 0.598 0.648 90 70 61 0 0
0.2232 0.1806 -0.9810 0.690 0.593 0.415 93 73 65 0 0
0.2440 0.1890 -1.0089 0.992 0.058 0.113 72 34 10 0 0
0.2471 0.1903 -1.0164 0.901 0.221 0.374 70 32 8 0 0
0.2529 0.1933 -1.0595 0.769 0.569 0.292 96 67 43 0 0
0.2475 0.1933 -1.1515 0.953 -0.036 -0.300 73 49 32 0 0
0.2462 0.1929 -1.1556 0.935 -0.003 -0.354 68 49 36 0 0
0.2460 0.1929 -1.1589 0.996 -0.074 -0.049 89 75 64 0 0
0.1232 0.1276 -0.3898 0.782 0.372 0.500 65 42 31 0 0
0.1574 0.1406 -0.3997 0.636 0.343 0.691 53 26 17 0 0
0.1567 0.1404 -0.4028 0.930 0.145 0.338 55 25 15 0 0
0.1107 0.1293 -0.6903 0.987 -0.106 0.118 64 35 19 0 0
0.1122 0.1299 -0.6929 0.996 0.068 0.059 66 37 21 0 0
0.1123 0.1300 -0.6960 0.996 0.068 0.059 65 36 21 0 0
0.1150 0.1314 -0.7140 0.987 0.147 0.068 67 39 22 0 0
0.1164 0.1320 -0.7166 0.997 0.051 0.059 64 36 19 0 0
0.1282 0.1368 -0.7338 0.974 0.087 0.210 62 35 18 0 0
0.1290 0.1371 -0.7367 0.938 0.346 -0.037 62 36 19 0 0
0.1733 0.1576 -0.9216 0.979 0.157 0.129 101 74 49 0 0
0.2547 0.1908 -1.0558 0.737 0.366 0.568 96 67 43 0 0
0.2443 0.1877 -1.0942 0.994 -0.053 0.097 47 21 10 0 0
0.0448 0.0856 0.0618 0.947 0.213 -0.239 77 46 23 0 0
0.0441 0.0854 0.0589 0.947 0.213 -0.239 83 52 29 0 0
0.0565 0.0924 -0.0528 0.893 -0.059 0.446 59 37 30 0 0
0.0554 0.0920 -0.0558 0.882 -0.259 0.395 57 32 24 0 0
0.0526 0.0911 -0.0619 0.912 -0.396 -0.107 89 69 60 0 0
0.1985 0.1470 -0.1186 0.705 0.407 0.581 116 85 65 0 0
0.2005 0.1482 -0.1378 0.988 0.149 0.034 81 49 29 0 0
0.1384 0.1284 -0.3065 0.971 0.236 0.034 81 65 53 0 0
0.1409 0.1294 -0.3090 0.993 0.021 0.119 85 63 49 0 0
0.1237 0.1244 -0.3780 0.961 -0.161 -0.224 54 34 25 0 0
0.1084 0.1253 -0.6949 0.948 -0.118 0.295 64 35 19 0 0
0.1093 0.1257 -0.6977 0.948 -0.118 0.295 65 36 22 0 0
0.1155 0.1284 -0.7143 0.987 0.147 0.068 70 43 26 0 0
0.1273 0.1339 -0.7665 0.897 0.274 0.346 55 27 13 0 0
0.1739 0.1546 -0.9218 0.966 0.139 0.216 98 72 46 0 0
0.2171 0.1718 -0.9670 0.865 0.479 -0.152 87 67 58 0 0
0.2072 0.1682 -0.9760 0.969 0.046 0.243 82 62 53 0 0
0.2501 0.1853 -1.0220 0.980 0.137 0.146 73 32 10 0 0
0.2532 0.1868 -1.0357 0.936 0.302 0.181 95 63 38 0 0
0.2533 0.1870 -1.0449 0.972 0.232 -0.032 103 71 48 0 0
0.2432 0.1844 -1.1019 0.627 0.441 0.642 47 24 11 0 0
0.0367 0.0815 -0.0418 0.649 -0.030 0.761 64 32 19 0 0
0.0373 0.0818 -0.0448 0.505 0.088 0.859 59 31 20 0 0
0.0443 0.0845 -0.0475 0.841 -0.143 0.521 70 51 44 0 0
0.0570 0.0897 -0.0677 0.791 -0.319 0.522 66 44 39 0 0
0.1997 0.1445 -0.1186 0.777 0.493 0.391 116 85 65 0 0
0.1281 0.1207 -0.2702 1.000 0.002 -0.006 65 42 33 0 0
0.1278 0.1206 -0.2732 0.844 0.456 0.283 66 43 33 0 0
0.1271 0.1204 -0.2763 0.801 0.482 0.355 66 42 32 0 0
0.0546 0.0974 -0.4849 0.779 0.606 0.160 101 81 68 0 0
0.1103 0.1229 -0.7009 0.871 -0.337 0.359 64 34 22 0 0
0.1142 0.1247 -0.7152 0.991 -0.058 0.123 68 41 24 0 0
0.1141 0.1249 -0.7280 0.983 0.094 -0.161 69 41 26 0 0
0.1132 0.1246 -0.7316 0.993 0.054 0.103 67 39 24 0 0
