ply
format ascii 1.0
element vertex 844
property float x
property float y
property float z
property float nx
property float ny
property float nz
property uchar diffuse_red
property uchar diffuse_green
property uchar diffuse_blue
property uchar class
property uchar detection
end_header
-0.0151 0.1178 -0.5138 -0.419 -0.824 -0.382 56 33 20 0 0
-0.0169 0.1012 -0.6072 -0.422 -0.872 0.247 68 37 19 0 0
-0.0189 0.0845 -0.6812 0.427 -0.900 0.090 58 26 11 0 0
-0.0282 0.0229 -0.8345 -0.613 -0.756 0.231 67 30 10 0 0
-0.0250 0.0326 -0.9385 -0.307 -0.941 0.141 70 41 20 0 0
-0.0250 0.0322 -0.9415 -0.428 -0.877 -0.217 67 35 15 0 0
-0.0313 -0.0037 -0.9648 0.047 -0.738 0.674 100 83 75 0 0
-0.0341 -0.0201 -0.9816 0.100 -0.985 0.139 103 85 77 0 0
-0.0370 -0.0401 -1.0371 0.002 -1.000 0.009 73 44 23 0 0
-0.0378 -0.0506 -1.1265 -0.397 -0.869 0.296 80 55 36 0 0
-0.0210 0.1478 0.1041 -0.168 -0.806 0.567 124 96 85 0 0
-0.0227 0.1384 0.1007 -0.261 -0.933 0.248 113 83 69 0 0
-0.0225 0.1393 0.0978 -0.188 -0.758 -0.625 114 86 72 0 0
-0.0347 0.0641 -0.0159 0.008 -0.981 0.195 43 21 12 0 0
-0.0250 0.1144 -0.0512 0.475 -0.503 -0.722 8 7 5 0 0
-0.0355 0.0527 -0.1097 -0.432 -0.408 0.804 81 49 39 0 0
-0.0280 0.0825 -0.2615 -0.649 -0.357 0.672 52 35 28 0 0
-0.0258 0.0883 -0.3465 -0.560 -0.798 0.221 42 26 19 0 0
-0.0259 0.0856 -0.3794 -0.016 -0.841 0.542 51 27 15 0 0
-0.0262 0.0838 -0.3821 -0.174 -0.984 0.045 48 24 12 0 0
-0.0180 0.1191 -0.5141 -0.134 -0.899 -0.417 59 36 24 0 0
-0.0173 0.1196 -0.5586 -0.051 -0.598 0.800 62 39 23 0 0
-0.0181 0.1144 -0.5666 -0.734 -0.675 0.077 64 40 24 0 0
-0.0170 0.1195 -0.5808 -0.104 -0.868 0.485 64 36 22 0 0
-0.0191 0.1076 -0.5837 -0.218 -0.961 0.169 65 37 23 0 0
-0.0176 0.1087 -0.6832 -0.613 -0.649 0.451 62 29 11 0 0
-0.0189 0.0981 -0.7277 -0.337 -0.734 0.589 60 29 11 0 0
-0.0192 0.0963 -0.7303 -0.337 -0.734 0.589 59 28 10 0 0
-0.0186 0.0993 -0.7347 0.206 -0.883 0.422 57 26 8 0 0
-0.0232 0.0723 -0.7628 -0.653 -0.738 0.170 63 31 11 0 0
-0.0310 0.0247 -0.8320 -0.505 -0.863 -0.010 62 26 7 0 0
-0.0284 0.0320 -0.9250 -0.244 -0.948 0.204 76 49 32 0 0
-0.0284 0.0315 -0.9280 0.217 -0.873 0.436 76 50 33 0 0
-0.0299 0.0204 -0.9676 -0.065 -0.996 0.054 96 79 70 0 0
-0.0355 -0.0101 -0.9676 0.034 -0.935 0.352 103 86 78 0 0
-0.0354 -0.0099 -0.9741 -0.226 -0.943 0.244 100 83 75 0 0
-0.0371 -0.0204 -0.9844 -0.102 -0.990 0.101 97 80 73 0 0
-0.0371 -0.0204 -0.9875 -0.094 -0.980 0.177 92 75 68 0 0
-0.0387 -0.0292 -0.9859 -0.349 -0.899 0.266 87 70 61 0 0
-0.0388 -0.0297 -0.9888 -0.184 -0.865 0.467 82 68 58 0 0
-0.0409 -0.0513 -1.1290 -0.227 -0.951 0.212 80 54 37 0 0
-0.0429 -0.0628 -1.1345 -0.227 -0.939 0.257 74 51 34 0 0
-0.0431 -0.0639 -1.1370 -0.541 -0.840 0.042 74 51 35 0 0
-0.0235 0.1509 0.1042 -0.166 -0.826 0.539 122 105 97 0 0
-0.0377 0.0643 -0.0103 0.048 -0.739 -0.671 43 18 8 0 0
-0.0273 0.1182 -0.0572 0.051 -0.873 0.485 11 6 6 0 0
-0.0275 0.1166 -0.0600 0.051 -0.873 0.485 11 7 6 0 0
-0.0431 0.0241 -0.1478 -0.384 -0.805 0.453 58 34 21 0 0
-0.0308 0.0837 -0.2616 -0.632 -0.544 0.552 52 35 28 0 0
-0.0282 0.0922 -0.3471 -0.749 -0.609 -0.262 37 21 14 0 0
-0.0274 0.0961 -0.3509 -0.448 -0.894 -0.004 35 17 12 0 0
-0.0274 0.0961 -0.3539 -0.448 -0.894 -0.004 35 18 14 0 0
-0.0273 0.0962 -0.3600 -0.505 -0.861 0.057 30 18 12 0 0
-0.0271 0.0969 -0.3632 -0.336 -0.853 0.400 39 23 18 0 0
-0.0285 0.0881 -0.3768 -0.404 -0.883 0.241 58 34 22 0 0
-0.0289 0.0859 -0.3794 -0.762 -0.640 0.097 51 27 15 0 0
-0.0275 0.0927 -0.3929 -0.454 -0.889 0.058 60 33 22 0 0
-0.0275 0.0925 -0.3960 -0.454 -0.889 0.058 53 27 15 0 0
-0.0209 0.1164 -0.5671 -0.448 -0.894 0.020 65 42 26 0 0
-0.0208 0.1166 -0.5703 -0.275 -0.953 -0.124 67 41 26 0 0
-0.0201 0.1155 -0.6403 0.105 -0.795 0.597 78 47 23 0 0
-0.0205 0.1128 -0.6426 -0.359 -0.723 0.591 79 49 25 0 0
-0.0207 0.1118 -0.6455 -0.181 -0.979 0.091 84 53 30 0 0
-0.0212 0.1087 -0.6509 -0.290 -0.905 -0.312 82 50 27 0 0
-0.0209 0.1099 -0.6545 -0.341 -0.938 -0.056 80 48 25 0 0
-0.0209 0.1094 -0.6575 -0.004 -0.982 0.188 80 48 26 0 0
-0.0209 0.1094 -0.6607 0.138 -0.989 0.045 78 46 25 0 0
-0.0206 0.1107 -0.6644 -0.322 -0.843 -0.431 76 43 23 0 0
-0.0202 0.1116 -0.6841 -0.646 -0.615 0.452 66 33 16 0 0
-0.0222 0.0968 -0.7368 0.086 -0.532 0.842 56 24 9 0 0
-0.0268 0.0681 -0.7802 -0.156 -0.968 -0.196 58 25 8 0 0
-0.0262 0.0705 -0.7908 -0.077 -0.990 0.119 58 25 7 0 0
-0.0259 0.0718 -0.7978 -0.355 -0.916 -0.184 61 26 8 0 0
-0.0312 0.0336 -0.9256 -0.016 -0.995 -0.095 75 48 31 0 0
-0.0432 -0.0425 -1.0575 0.043 -0.966 -0.254 81 59 45 0 0
-0.0428 -0.0403 -1.0619 -0.227 -0.903 0.364 81 60 43 0 0
-0.0458 -0.0622 -1.1346 -0.229 -0.973 -0.016 77 54 38 0 0
-0.0262 0.1525 0.1043 -0.351 -0.656 0.668 149 142 138 0 0
-0.0269 0.1486 0.1011 -0.040 -0.947 0.319 117 96 87 0 0
-0.0269 0.1481 0.0982 0.125 -0.945 0.303 111 85 71 0 0
-0.0267 0.1494 0.0954 0.413 -0.881 0.231 111 83 69 0 0
-0.0269 0.1478 0.0924 0.366 -0.876 0.314 105 76 62 0 0
-0.0314 0.1204 0.0593 -0.525 -0.828 -0.197 65 36 20 0 0
-0.0323 0.1150 0.0562 -0.291 -0.915 0.278 67 39 24 0 0
-0.0420 0.0569 -0.0047 0.077 -0.994 -0.074 48 23 13 0 0
-0.0353 0.0914 -0.0421 0.540 -0.568 -0.621 17 11 8 0 0
-0.0306 0.1164 -0.0601 0.174 -0.848 0.501 13 7 7 0 0
-0.0311 0.1133 -0.0629 0.210 -0.730 0.651 15 9 9 0 0
-0.0367 0.0801 -0.0909 -0.428 -0.886 0.177 44 24 15 0 0
-0.0460 0.0255 -0.1309 0.152 -0.984 0.098 75 36 10 0 0
-0.0414 0.0479 -0.1755 -0.497 -0.793 0.353 58 41 33 0 0
-0.0400 0.0532 -0.2079 -0.055 -0.997 -0.047 56 39 31 0 0
-0.0212 0.1339 -0.5432 -0.790 -0.613 -0.019 64 37 26 0 0
-0.0238 0.1106 -0.6610 -0.246 -0.913 -0.327 77 45 23 0 0
-0.0295 0.0716 -0.7622 -0.039 -0.940 -0.338 65 32 12 0 0
-0.0289 0.0731 -0.7917 -0.202 -0.827 -0.525 59 26 9 0 0
-0.0294 0.0700 -0.7969 -0.439 -0.892 0.102 62 26 10 0 0
-0.0369 0.0224 -0.8782 0.157 -0.801 -0.578 67 43 30 0 0
-0.0359 0.0273 -0.8837 0.287 -0.847 -0.448 67 43 31 0 0
-0.0349 0.0305 -0.9206 0.128 -0.988 -0.091 75 48 31 0 0
-0.0343 0.0333 -0.9252 0.066 -0.998 0.005 75 48 31 0 0
-0.0345 0.0315 -0.9340 0.080 -0.923 0.377 68 39 20 0 0
-0.0357 0.0222 -0.9681 0.084 -0.970 -0.229 95 78 69 0 0
-0.0444 -0.0281 -0.9955 0.138 -0.942 0.307 67 46 36 0 0
-0.0445 -0.0290 -1.0045 -0.078 -0.994 0.078 51 23 9 0 0
-0.0437 -0.0253 -1.0098 0.053 -0.934 -0.353 53 24 10 0 0
-0.0420 -0.0226 -1.1077 -0.438 -0.898 -0.037 40 23 17 0 0
-0.0462 -0.0466 -1.1154 -0.152 -0.974 0.168 77 49 28 0 0
-0.0479 -0.0564 -1.1188 -0.047 -0.928 0.369 80 54 37 0 0
-0.0295 0.1506 0.1012 -0.514 -0.549 0.659 140 129 124 0 0
-0.0299 0.1484 0.0981 -0.132 -0.868 0.479 108 88 76 0 0
-0.0302 0.1467 0.0951 0.340 -0.913 0.226 105 77 64 0 0
-0.0302 0.1464 0.0922 0.366 -0.876 0.314 102 70 56 0 0
-0.0318 0.1363 0.0743 0.225 -0.775 0.591 94 66 51 0 0
-0.0337 0.1158 -0.0571 -0.199 -0.891 0.408 15 9 10 0 0
-0.0341 0.1136 -0.0600 -0.152 -0.779 0.609 18 12 12 0 0
-0.0345 0.1110 -0.0629 -0.284 -0.731 0.621 17 11 11 0 0
-0.0488 0.0257 -0.1309 -0.153 -0.939 0.308 79 40 14 0 0
-0.0480 0.0287 -0.1566 -0.446 -0.783 -0.433 60 44 37 0 0
-0.0480 0.0284 -0.1595 -0.564 -0.790 0.238 59 45 37 0 0
-0.0481 0.0276 -0.1622 -0.634 -0.704 0.319 59 45 37 0 0
-0.0477 0.0295 -0.1653 -0.685 -0.704 -0.187 58 43 36 0 0
-0.0395 0.0706 -0.2362 -0.104 -0.994 0.045 53 38 31 0 0
-0.0357 0.0878 -0.2920 0.186 -0.968 0.167 45 28 21 0 0
-0.0364 0.0834 -0.3034 -0.613 -0.493 0.617 51 34 25 0 0
-0.0370 0.0799 -0.3058 -0.691 -0.598 0.407 56 39 30 0 0
-0.0342 0.0925 -0.3471 -0.429 -0.723 -0.542 41 27 20 0 0
-0.0341 0.0912 -0.3742 0.148 -0.977 0.155 62 39 28 0 0
-0.0339 0.0917 -0.3773 0.070 -0.929 -0.363 59 35 25 0 0
-0.0396 0.0579 -0.4038 0.045 -0.864 0.501 61 31 15 0 0
-0.0264 0.1247 -0.5057 -0.698 -0.677 0.235 61 39 26 0 0
-0.0263 0.1254 -0.5091 -0.394 -0.742 0.542 61 38 25 0 0
-0.0263 0.1248 -0.5121 -0.015 -0.967 0.255 62 39 26 0 0
-0.0259 0.1267 -0.5158 -0.080 -0.996 0.036 63 38 26 0 0
-0.0248 0.1323 -0.5268 0.327 -0.860 -0.391 62 37 26 0 0
-0.0246 0.1330 -0.5301 0.029 -0.931 -0.365 62 38 27 0 0
-0.0244 0.1339 -0.5336 -0.095 -0.895 -0.435 63 38 28 0 0
-0.0246 0.1290 -0.5929 -0.036 -0.996 -0.082 68 40 26 0 0
-0.0258 0.1164 -0.6693 -0.632 -0.747 -0.206 70 39 18 0 0
-0.0255 0.1182 -0.6731 -0.660 -0.661 -0.358 70 38 18 0 0
-0.0245 0.1229 -0.6844 -0.149 -0.961 -0.234 73 41 22 0 0
-0.0261 0.1116 -0.7128 -0.100 -0.685 0.721 65 34 15 0 0
-0.0336 0.0648 -0.7785 0.349 -0.711 0.611 61 28 11 0 0
-0.0332 0.0669 -0.7858 0.286 -0.951 0.119 61 28 11 0 0
-0.0341 0.0615 -0.7867 -0.589 -0.643 -0.489 62 29 12 0 0
-0.0336 0.0643 -0.7911 -0.589 -0.643 -0.489 62 28 12 0 0
-0.0334 0.0639 -0.8102 -0.577 -0.283 0.766 61 28 9 0 0
-0.0409 0.0180 -0.8664 -0.148 -0.937 -0.315 83 53 33 0 0
-0.0391 0.0268 -0.8833 -0.027 -0.968 -0.248 68 44 32 0 0
-0.0368 0.0372 -0.9172 -0.721 -0.557 -0.412 71 45 31 0 0
-0.0378 0.0313 -0.9240 -0.120 -0.985 0.125 75 48 32 0 0
-0.0391 0.0209 -0.9671 -0.620 -0.715 0.323 94 77 67 0 0
-0.0482 -0.0332 -1.0051 -0.184 -0.917 0.353 52 23 10 0 0
-0.0471 -0.0334 -1.0943 -0.314 -0.843 -0.438 30 17 10 0 0
-0.0467 -0.0315 -1.0987 -0.390 -0.763 -0.515 34 19 12 0 0
-0.0332 0.1465 0.0951 -0.398 -0.654 0.644 117 101 92 0 0
-0.0335 0.1446 0.0921 0.308 -0.883 0.353 99 77 64 0 0
-0.0337 0.1434 0.0891 0.353 -0.870 0.345 94 70 53 0 0
-0.0376 0.1189 0.0591 -0.232 -0.719 0.655 63 37 22 0 0
-0.0393 0.1084 0.0444 -0.187 -0.631 0.753 95 73 59 0 0
-0.0515 0.0272 -0.1310 -0.507 -0.812 0.289 85 46 19 0 0
-0.0505 0.0306 -0.1596 -0.285 -0.717 0.636 60 45 38 0 0
-0.0389 0.0859 -0.3037 -0.588 -0.514 0.625 45 28 21 0 0
-0.0351 0.1039 -0.3582 -0.405 -0.851 0.334 39 24 16 0 0
-0.0425 0.0585 -0.4039 0.268 -0.961 0.065 58 29 13 0 0
-0.0457 0.0390 -0.4266 0.008 -0.985 0.173 69 34 14 0 0
-0.0462 0.0358 -0.4289 -0.241 -0.967 0.082 67 34 14 0 0
-0.0285 0.1306 -0.5103 -0.447 -0.585 0.677 63 41 28 0 0
-0.0292 0.1263 -0.5124 -0.180 -0.827 0.532 64 42 29 0 0
-0.0296 0.1236 -0.5148 -0.055 -0.973 0.226 64 40 28 0 0
-0.0285 0.1295 -0.5259 0.224 -0.928 -0.299 62 38 27 0 0
-0.0271 0.1364 -0.5373 -0.481 -0.850 -0.215 67 44 33 0 0
-0.0262 0.1405 -0.5480 -0.440 -0.829 0.345 66 42 30 0 0
-0.0276 0.1295 -0.5929 0.147 -0.979 -0.139 70 44 30 0 0
-0.0282 0.1262 -0.5951 0.313 -0.942 -0.120 70 45 30 0 0
-0.0287 0.1230 -0.5974 -0.456 -0.872 -0.177 72 47 31 0 0
-0.0286 0.1236 -0.6008 -0.456 -0.872 -0.177 70 45 30 0 0
-0.0279 0.1257 -0.6271 -0.191 -0.980 0.050 75 47 27 0 0
-0.0276 0.1268 -0.6306 -0.477 -0.878 0.045 72 44 26 0 0
-0.0271 0.1261 -0.6789 -0.912 -0.373 0.173 72 39 20 0 0
-0.0282 0.1196 -0.6832 0.337 -0.901 -0.273 74 42 24 0 0
-0.0293 0.1116 -0.7127 0.375 -0.715 0.590 70 40 22 0 0
-0.0315 0.0985 -0.7208 -0.357 -0.858 0.370 69 38 18 0 0
-0.0361 0.0685 -0.7766 -0.903 -0.072 0.424 65 33 12 0 0
-0.0358 0.0682 -0.8022 -0.565 -0.009 0.825 62 29 10 0 0
-0.0356 0.0689 -0.8089 -0.337 -0.110 0.935 62 29 10 0 0
-0.0411 0.0364 -0.8332 -0.332 -0.847 0.415 74 39 16 0 0
-0.0391 0.0467 -0.8443 -0.927 -0.292 0.233 74 38 14 0 0
-0.0409 0.0360 -0.8522 -0.524 -0.621 0.583 82 44 21 0 0
-0.0411 0.0318 -0.8951 0.021 -0.991 -0.134 59 36 22 0 0
-0.0371 0.1410 0.0860 -0.111 -0.804 0.584 119 103 95 0 0
-0.0546 0.0247 -0.1478 -0.245 -0.960 0.135 61 38 27 0 0
-0.0414 0.0904 -0.2833 -0.101 -0.995 0.014 51 34 27 0 0
-0.0418 0.0877 -0.2889 0.459 -0.876 0.149 50 33 26 0 0
-0.0386 0.1021 -0.3487 -0.024 -0.764 -0.644 41 27 21 0 0
-0.0383 0.1030 -0.3549 -0.376 -0.923 0.088 40 24 17 0 0
-0.0399 0.0924 -0.3774 0.005 -0.974 -0.228 62 38 28 0 0
-0.0394 0.0951 -0.3809 -0.088 -0.969 0.229 53 29 19 0 0
-0.0394 0.0949 -0.3840 -0.103 -0.964 0.247 48 24 14 0 0
-0.0485 0.0400 -0.4268 -0.132 -0.873 0.470 68 33 13 0 0
-0.0490 0.0366 -0.4290 -0.276 -0.904 0.327 66 33 13 0 0
-0.0290 0.1477 -0.4796 -0.926 -0.275 0.259 64 46 36 0 0
-0.0297 0.1433 -0.4817 -0.946 -0.257 0.199 63 45 35 0 0
-0.0318 0.1292 -0.5099 -0.361 -0.747 0.558 70 48 35 0 0
-0.0322 0.1269 -0.5124 -0.180 -0.827 0.532 70 48 35 0 0
-0.0326 0.1244 -0.5150 -0.140 -0.947 0.290 68 46 33 0 0
-0.0322 0.1263 -0.5186 0.337 -0.941 -0.024 67 45 32 0 0
-0.0317 0.1289 -0.5256 0.608 -0.789 -0.093 66 44 32 0 0
-0.0296 0.1401 -0.5382 0.297 -0.954 0.031 67 46 35 0 0
-0.0309 0.1263 -0.6272 -0.304 -0.944 0.129 82 57 37 0 0
-0.0305 0.1284 -0.6310 -0.382 -0.922 -0.065 81 56 36 0 0
-0.0308 0.1229 -0.6841 0.306 -0.944 -0.125 74 42 24 0 0
-0.0313 0.1198 -0.6863 0.241 -0.815 -0.527 72 41 23 0 0
-0.0307 0.1229 -0.6906 0.290 -0.792 -0.537 71 40 22 0 0
-0.0327 0.1103 -0.7120 0.375 -0.715 0.590 71 42 25 0 0
-0.0328 0.1087 -0.7212 -0.280 -0.958 -0.066 72 42 23 0 0
-0.0430 0.0448 -0.8049 0.457 -0.833 0.311 64 31 13 0 0
-0.0427 0.0437 -0.8491 -0.666 -0.393 0.634 75 38 15 0 0
-0.0434 0.0392 -0.8535 -0.469 -0.817 -0.336 80 42 19 0 0
-0.0447 0.0296 -0.8874 -0.466 -0.859 -0.211 67 44 31 0 0
-0.0441 0.0324 -0.8951 -0.210 -0.963 -0.171 60 37 23 0 0
-0.0435 0.0332 -0.9277 -0.026 -0.983 0.183 75 47 33 0 0
-0.0436 0.0325 -0.9306 -0.337 -0.932 0.134 74 46 27 0 0
-0.0437 0.0319 -0.9335 -0.283 -0.878 0.386 71 42 21 0 0
-0.0555 -0.0448 -1.0645 -0.084 -0.991 -0.100 79 57 43 0 0
-0.0440 0.1159 0.0531 -0.544 -0.624 0.561 76 62 54 0 0
-0.0445 0.1128 0.0473 -0.326 -0.592 0.737 107 92 85 0 0
-0.0509 0.0727 0.0009 -0.506 -0.852 -0.134 58 32 18 0 0
-0.0506 0.0672 -0.1019 0.387 -0.665 0.639 64 44 32 0 0
-0.0568 0.0284 -0.1452 -0.504 -0.821 0.266 62 36 21 0 0
-0.0571 0.0265 -0.1479 -0.387 -0.911 0.143 59 37 28 0 0
-0.0570 0.0270 -0.1508 -0.247 -0.922 0.299 57 41 35 0 0
-0.0448 0.0883 -0.2800 -0.103 -0.505 0.857 50 33 26 0 0
-0.0446 0.0889 -0.2891 -0.267 -0.946 0.181 48 31 24 0 0
-0.0445 0.0891 -0.2921 -0.445 -0.846 0.293 47 30 23 0 0
-0.0445 0.0890 -0.2951 -0.350 -0.927 0.136 46 29 22 0 0
-0.0514 0.0404 -0.4268 -0.132 -0.873 0.470 65 30 11 0 0
-0.0325 0.1436 -0.5103 -0.238 -0.971 0.022 73 52 38 0 0
-0.0311 0.1475 -0.5690 -0.383 -0.923 0.033 75 52 40 0 0
-0.0326 0.1344 -0.6296 -0.691 -0.538 0.483 82 60 40 0 0
-0.0316 0.1398 -0.6378 -0.453 -0.803 0.388 87 62 40 0 0
-0.0323 0.1354 -0.6396 -0.365 -0.920 0.142 85 60 36 0 0
-0.0324 0.1350 -0.6427 -0.365 -0.920 0.142 84 57 36 0 0
-0.0324 0.1344 -0.6458 -0.433 -0.878 0.204 81 54 33 0 0
-0.0330 0.1311 -0.6479 -0.679 -0.675 0.289 82 54 33 0 0
-0.0339 0.1228 -0.6872 -0.217 -0.939 -0.267 73 42 24 0 0
-0.0336 0.1248 -0.6912 0.137 -0.966 -0.221 71 41 23 0 0
-0.0351 0.1136 -0.7196 -0.525 -0.838 0.147 70 42 25 0 0
-0.0359 0.1092 -0.7244 -0.423 -0.860 0.284 70 40 24 0 0
-0.0369 0.1031 -0.7286 -0.753 -0.442 0.487 70 39 22 0 0
-0.0372 0.1006 -0.7341 -0.657 -0.659 0.365 68 39 21 0 0
-0.0375 0.0991 -0.7368 -0.645 -0.738 0.198 66 36 20 0 0
-0.0375 0.0984 -0.7398 -0.645 -0.738 0.198 64 34 18 0 0
-0.0358 0.1075 -0.7562 -0.777 -0.548 -0.309 63 33 17 0 0
-0.0459 0.0459 -0.8020 -0.080 -0.476 0.876 66 33 14 0 0
-0.0465 0.0389 -0.8531 -0.231 -0.970 -0.070 79 41 18 0 0
-0.0463 0.0401 -0.8569 -0.515 -0.770 0.377 81 45 22 0 0
-0.0469 0.0338 -0.8924 -0.431 -0.806 -0.406 63 40 26 0 0
-0.0439 0.0492 -0.9192 -0.578 -0.805 -0.134 67 41 29 0 0
-0.0437 0.0502 -0.9229 -0.433 -0.857 -0.280 73 47 33 0 0
-0.0466 0.0333 -0.9276 -0.026 -0.983 0.183 74 47 32 0 0
-0.0470 0.0310 -0.9296 -0.194 -0.979 -0.061 74 47 27 0 0
-0.0469 0.0312 -0.9330 -0.194 -0.979 -0.061 71 43 22 0 0
-0.0575 -0.0382 -1.0491 -0.410 -0.905 0.109 81 59 44 0 0
-0.0576 -0.0448 -1.1442 -0.028 -0.912 0.410 75 53 40 0 0
-0.0577 -0.0458 -1.1468 -0.474 -0.876 -0.094 65 44 32 0 0
-0.0478 0.1106 0.0443 -0.311 -0.520 0.796 100 88 82 0 0
-0.0535 0.0742 -0.0077 0.046 -0.988 0.151 51 27 17 0 0
-0.0535 0.0738 -0.0105 0.046 -0.988 0.151 47 25 14 0 0
-0.0430 0.1312 -0.0635 -0.886 -0.273 0.374 71 62 63 0 0
-0.0493 0.0926 -0.0886 -0.556 -0.717 0.421 53 32 24 0 0
-0.0530 0.0703 -0.1020 0.281 -0.870 0.406 67 46 37 0 0
-0.0503 0.0776 -0.2280 0.496 -0.804 0.330 54 39 32 0 0
-0.0465 0.0955 -0.2900 -0.213 -0.971 0.105 49 30 24 0 0
-0.0440 0.1061 -0.3493 -0.463 -0.733 -0.499 45 30 23 0 0
-0.0539 0.0431 -0.4273 -0.160 -0.968 0.195 64 30 11 0 0
-0.0350 0.1356 -0.6785 -0.951 -0.308 0.015 75 46 28 0 0
-0.0401 0.1024 -0.7347 -0.551 -0.752 0.363 70 39 23 0 0
-0.0402 0.1013 -0.7375 -0.645 -0.738 0.198 70 39 23 0 0
-0.0403 0.1006 -0.7404 -0.612 -0.747 0.258 71 40 24 0 0
-0.0409 0.0971 -0.7423 -0.221 -0.919 0.325 70 39 23 0 0
-0.0386 0.1098 -0.7537 -0.637 -0.618 -0.460 67 36 18 0 0
-0.0412 0.0924 -0.7858 -0.976 -0.200 -0.091 68 38 18 0 0
-0.0461 0.0624 -0.8024 -0.908 -0.129 0.399 66 33 16 0 0
-0.0503 0.0347 -0.8510 -0.117 -0.927 -0.356 77 42 20 0 0
-0.0494 0.0398 -0.8597 -0.638 -0.764 0.100 85 50 28 0 0
-0.0462 0.0539 -0.9213 0.148 -0.929 -0.338 68 44 32 0 0
-0.0463 0.0531 -0.9241 -0.152 -0.943 -0.296 74 48 35 0 0
-0.0512 0.0206 -0.9790 -0.732 -0.554 -0.398 101 84 74 0 0
-0.0612 -0.0413 -1.0407 -0.103 -0.953 0.284 82 57 40 0 0
-0.0604 -0.0436 -1.1447 0.253 -0.967 0.025 72 50 38 0 0
-0.0601 -0.0424 -1.1487 -0.162 -0.944 -0.287 62 42 31 0 0
-0.0507 0.1110 0.0414 -0.245 -0.406 0.880 130 124 118 0 0
-0.0553 0.0806 -0.0049 0.123 -0.992 -0.033 54 30 18 0 0
-0.0553 0.0807 -0.0077 0.123 -0.992 -0.033 52 29 18 0 0
-0.0552 0.0809 -0.0106 0.213 -0.976 0.055 49 27 16 0 0
-0.0552 0.0807 -0.0134 0.213 -0.976 0.055 50 29 18 0 0
-0.0545 0.0719 -0.2039 -0.311 -0.747 -0.587 54 39 32 0 0
-0.0494 0.0956 -0.2960 -0.069 -0.852 0.520 44 27 20 0 0
-0.0464 0.1097 -0.3529 -0.463 -0.883 0.072 43 28 21 0 0
-0.0458 0.1124 -0.3565 -0.719 -0.594 0.361 40 25 19 0 0
-0.0568 0.0431 -0.4332 -0.347 -0.937 0.029 66 39 24 0 0
-0.0571 0.0412 -0.4358 -0.127 -0.959 -0.252 69 45 32 0 0
-0.0365 0.1575 -0.5008 -0.997 -0.078 0.029 82 64 53 0 0
-0.0365 0.1570 -0.5039 -0.997 -0.078 0.029 83 65 54 0 0
-0.0421 0.1085 -0.7401 -0.859 -0.467 0.208 69 41 24 0 0
-0.0412 0.1118 -0.7706 0.011 -0.447 0.895 74 45 30 0 0
-0.0422 0.1047 -0.7873 -0.995 -0.093 0.030 70 43 25 0 0
-0.0424 0.1034 -0.7901 -0.972 -0.188 -0.143 71 43 25 0 0
-0.0530 0.0349 -0.8861 -0.497 -0.797 0.344 68 45 31 0 0
-0.0508 0.0471 -0.8951 -0.344 -0.920 -0.191 66 43 30 0 0
-0.0494 0.0536 -0.9209 -0.002 -0.999 0.048 71 47 35 0 0
-0.0625 -0.0338 -1.0703 -0.034 -0.985 -0.170 79 57 43 0 0
-0.0621 -0.0336 -1.1025 0.030 -0.999 -0.015 43 24 15 0 0
-0.0630 -0.0415 -1.1458 -0.329 -0.944 -0.030 73 51 40 0 0
-0.0626 -0.0397 -1.1502 -0.395 -0.836 -0.381 64 44 33 0 0
-0.0582 0.0811 -0.0020 0.310 -0.948 -0.069 58 35 22 0 0
-0.0583 0.0803 -0.0049 0.123 -0.992 -0.033 58 35 23 0 0
-0.0583 0.0804 -0.0077 0.123 -0.992 -0.033 56 32 22 0 0
-0.0469 0.1434 -0.0699 -0.915 -0.243 0.322 78 69 70 0 0
-0.0552 0.0933 -0.0857 -0.387 -0.869 0.309 56 36 28 0 0
-0.0551 0.0934 -0.0915 -0.541 -0.839 0.062 50 32 26 0 0
-0.0562 0.0868 -0.0971 -0.434 -0.596 0.676 66 51 44 0 0
-0.0574 0.0788 -0.1054 0.066 -0.998 -0.003 79 62 58 0 0
-0.0576 0.0712 -0.2009 -0.222 -0.944 -0.245 55 40 33 0 0
-0.0573 0.0730 -0.2040 -0.252 -0.848 -0.467 55 40 33 0 0
-0.0507 0.1060 -0.2975 -0.479 -0.596 0.644 50 35 28 0 0
-0.0487 0.1137 -0.3536 -0.562 -0.825 0.050 46 31 24 0 0
-0.0480 0.1175 -0.3573 -0.748 -0.645 0.157 41 27 23 0 0
-0.0484 0.1128 -0.3933 -0.294 -0.707 -0.643 60 37 29 0 0
-0.0598 0.0429 -0.4361 -0.046 -0.831 -0.554 70 47 34 0 0
-0.0443 0.1144 -0.7356 -0.585 -0.704 0.402 70 42 27 0 0
-0.0446 0.1124 -0.7414 -0.355 -0.747 0.562 68 41 24 0 0
-0.0563 0.0333 -0.8819 -0.004 -0.801 -0.598 71 48 34 0 0
-0.0535 0.0490 -0.8958 0.056 -0.948 -0.312 66 43 29 0 0
-0.0529 0.0515 -0.9164 0.176 -0.957 -0.230 68 44 32 0 0
-0.0525 0.0537 -0.9207 0.008 -0.990 0.143 73 49 37 0 0
-0.0636 -0.0185 -1.0118 0.423 -0.906 0.008 56 27 12 0 0
-0.0638 -0.0208 -1.0297 -0.439 -0.898 -0.037 57 29 11 0 0
-0.0656 -0.0343 -1.0697 -0.302 -0.905 0.299 79 57 43 0 0
-0.0656 -0.0345 -1.0728 -0.165 -0.986 -0.039 73 54 42 0 0
-0.0630 -0.0205 -1.1005 -0.452 -0.838 0.307 38 21 14 0 0
-0.0651 -0.0333 -1.1024 -0.342 -0.935 -0.098 43 24 15 0 0
-0.0662 -0.0418 -1.1325 -0.222 -0.975 -0.025 80 57 43 0 0
-0.0655 -0.0386 -1.1474 -0.545 -0.773 -0.326 77 55 43 0 0
-0.0505 0.1398 -0.0698 -0.814 -0.310 0.491 80 71 70 0 0
-0.0604 0.0786 -0.1054 -0.187 -0.729 0.658 82 68 61 0 0
-0.0642 0.0549 -0.1213 0.052 -0.999 0.011 103 82 72 0 0
-0.0607 0.0705 -0.1978 -0.052 -0.989 -0.137 56 41 35 0 0
-0.0605 0.0719 -0.2009 -0.198 -0.908 -0.368 55 40 35 0 0
-0.0601 0.0739 -0.2040 -0.252 -0.848 -0.467 56 41 36 0 0
-0.0495 0.1272 -0.3559 -0.797 -0.600 0.068 47 33 27 0 0
-0.0489 0.1305 -0.3596 -0.648 -0.695 0.313 45 30 25 0 0
-0.0492 0.1284 -0.3623 -0.730 -0.556 0.399 45 31 27 0 0
-0.0629 0.0421 -0.4329 -0.062 -0.969 -0.238 67 40 25 0 0
-0.0479 0.1085 -0.7788 -0.755 -0.609 -0.244 72 50 36 0 0
-0.0489 0.1011 -0.8051 -0.820 -0.316 0.476 75 46 30 0 0
-0.0564 0.0538 -0.8462 -0.631 -0.070 0.773 75 42 21 0 0
-0.0572 0.0458 -0.8908 0.116 -0.837 -0.535 68 45 31 0 0
-0.0568 0.0477 -0.8982 0.194 -0.972 -0.135 62 39 26 0 0
-0.0560 0.0511 -0.9160 -0.187 -0.975 -0.118 68 44 32 0 0
-0.0553 0.0550 -0.9211 -0.138 -0.990 -0.005 72 48 36 0 0
-0.0553 0.0550 -0.9244 -0.164 -0.964 -0.209 72 48 35 0 0
-0.0567 0.0468 -0.9236 -0.194 -0.936 -0.293 71 47 33 0 0
-0.0547 0.0574 -0.9452 0.096 -0.968 -0.232 62 34 17 0 0
-0.0683 -0.0321 -1.0676 -0.008 -0.903 0.430 79 58 44 0 0
-0.0684 -0.0327 -1.0704 -0.236 -0.960 0.152 77 58 44 0 0
-0.0658 -0.0192 -1.1010 -0.465 -0.862 0.199 41 24 17 0 0
-0.0688 -0.0385 -1.1181 -0.155 -0.921 0.359 86 61 44 0 0
-0.0693 -0.0424 -1.1350 -0.461 -0.868 0.186 79 56 41 0 0
-0.0603 0.0972 -0.0976 -0.911 -0.380 0.158 65 50 43 0 0
-0.0639 0.0690 -0.1977 -0.252 -0.880 -0.403 57 42 37 0 0
-0.0636 0.0710 -0.2008 -0.563 -0.701 -0.438 57 42 37 0 0
-0.0620 0.0801 -0.2047 0.155 -0.939 -0.306 57 42 37 0 0
-0.0636 0.0704 -0.2095 -0.917 -0.268 0.296 58 43 38 0 0
-0.0586 0.0991 -0.2274 -0.533 -0.771 0.349 58 43 36 0 0
-0.0516 0.1328 -0.3569 -0.800 -0.544 0.254 50 37 31 0 0
-0.0520 0.1306 -0.3596 -0.862 -0.506 -0.025 46 32 27 0 0
-0.0520 0.1304 -0.3626 -0.812 -0.494 0.311 56 42 37 0 0
-0.0520 0.1302 -0.3657 -0.771 -0.392 0.502 49 36 30 0 0
-0.0411 0.1758 -0.6685 -0.991 -0.042 0.129 111 97 91 0 0
-0.0418 0.1710 -0.6768 -0.991 -0.062 0.116 102 86 78 0 0
-0.0423 0.1682 -0.6791 -0.989 -0.042 0.142 97 81 72 0 0
-0.0424 0.1671 -0.6821 -0.986 -0.077 0.145 94 75 66 0 0
-0.0486 0.1267 -0.7301 -0.568 -0.764 0.306 73 46 32 0 0
-0.0496 0.1209 -0.7312 0.267 -0.816 0.514 72 45 30 0 0
-0.0537 0.0898 -0.8229 -0.847 0.058 0.529 70 42 28 0 0
-0.0569 0.0704 -0.8308 -0.559 -0.747 0.360 72 44 28 0 0
-0.0605 0.0470 -0.8558 -0.483 -0.747 -0.457 79 47 26 0 0
-0.0608 0.0443 -0.8642 -0.133 -0.895 0.425 85 59 39 0 0
-0.0600 0.0465 -0.9071 -0.401 -0.906 0.134 56 34 21 0 0
-0.0591 0.0513 -0.9159 -0.235 -0.949 -0.211 70 47 35 0 0
-0.0586 0.0539 -0.9204 -0.109 -0.963 -0.248 73 49 37 0 0
-0.0586 0.0538 -0.9236 -0.389 -0.853 -0.349 72 49 35 0 0
-0.0597 0.0474 -0.9237 -0.194 -0.936 -0.293 71 48 34 0 0
-0.0595 0.0484 -0.9274 -0.229 -0.904 -0.360 74 49 35 0 0
-0.0580 0.0560 -0.9442 -0.295 -0.901 -0.317 60 33 16 0 0
-0.0571 0.0613 -0.9502 0.027 -0.999 0.043 57 30 12 0 0
-0.0632 0.0221 -0.9820 -0.596 -0.586 -0.549 87 70 58 0 0
-0.0710 -0.0304 -1.0715 -0.428 -0.904 0.019 77 58 44 0 0
-0.0718 -0.0384 -1.1179 -0.007 -0.965 0.262 86 62 46 0 0
-0.0725 -0.0435 -1.1276 -0.347 -0.889 0.299 80 57 41 0 0
-0.0565 0.1407 -0.0698 -0.318 -0.262 0.911 82 74 72 0 0
-0.0724 0.0389 -0.1460 -0.034 -0.965 0.258 58 34 22 0 0
-0.0728 0.0363 -0.1487 0.132 -0.972 0.197 56 37 28 0 0
-0.0668 0.0699 -0.1948 -0.777 -0.381 -0.502 57 42 37 0 0
-0.0664 0.0719 -0.1980 -0.829 -0.398 -0.392 57 42 37 0 0
-0.0649 0.0806 -0.2076 0.269 -0.888 0.372 59 44 39 0 0
-0.0652 0.0783 -0.2103 0.130 -0.876 0.465 58 43 38 0 0
-0.0660 0.0736 -0.2128 -0.816 -0.473 0.333 58 43 38 0 0
-0.0614 0.1000 -0.2365 -0.382 -0.754 -0.534 56 41 34 0 0
-0.0579 0.1181 -0.2870 -0.228 -0.953 0.201 52 37 30 0 0
-0.0579 0.1177 -0.2930 -0.276 -0.960 0.057 52 37 29 0 0
-0.0434 0.1807 -0.6832 -0.989 -0.042 0.142 113 104 100 0 0
-0.0445 0.1737 -0.6908 -0.978 -0.013 0.209 98 86 80 0 0
-0.0530 0.1188 -0.7400 0.275 -0.905 0.324 72 49 33 0 0
-0.0635 0.0477 -0.8495 0.343 -0.841 -0.418 75 39 18 0 0
-0.0637 0.0449 -0.8707 -0.480 -0.827 -0.292 83 56 37 0 0
-0.0649 0.0378 -0.8706 -0.072 -0.996 -0.054 83 56 37 0 0
-0.0628 0.0489 -0.8983 -0.284 -0.903 -0.321 56 34 21 0 0
-0.0626 0.0493 -0.9082 -0.394 -0.917 0.054 59 37 24 0 0
-0.0626 0.0494 -0.9115 -0.569 -0.819 0.074 66 44 31 0 0
-0.0630 0.0465 -0.9133 -0.590 -0.789 -0.170 72 51 38 0 0
-0.0626 0.0489 -0.9177 0.022 -0.996 -0.088 74 53 39 0 0
-0.0625 0.0492 -0.9211 -0.021 -0.990 -0.143 71 51 36 0 0
-0.0627 0.0476 -0.9236 0.001 -0.995 -0.097 72 50 36 0 0
-0.0661 0.0236 -0.9729 -0.496 -0.792 -0.356 87 69 57 0 0
-0.0667 0.0199 -0.9806 -0.054 -0.656 -0.753 85 67 55 0 0
-0.0745 -0.0314 -1.0420 -0.347 -0.938 0.006 80 57 41 0 0
-0.0758 -0.0398 -1.0434 -0.207 -0.966 0.155 79 56 41 0 0
-0.0717 -0.0184 -1.1010 0.177 -0.911 0.373 40 23 15 0 0
-0.0748 -0.0402 -1.1454 -0.451 -0.885 -0.114 66 47 35 0 0
-0.0612 0.1299 -0.0725 0.086 -0.285 0.955 85 75 73 0 0
-0.0717 0.0629 -0.1161 -0.478 -0.861 0.174 95 77 73 0 0
-0.0671 0.0849 -0.2081 -0.691 -0.705 0.160 59 44 39 0 0
-0.0681 0.0788 -0.2104 -0.569 -0.691 0.446 59 45 40 0 0
-0.0679 0.0798 -0.2134 -0.757 -0.471 0.453 60 45 40 0 0
-0.0647 0.0984 -0.2363 -0.218 -0.754 -0.620 56 41 34 0 0
-0.0638 0.1033 -0.2398 -0.003 -0.802 -0.598 54 40 33 0 0
-0.0631 0.1062 -0.2582 -0.767 -0.231 -0.599 59 44 37 0 0
-0.0610 0.1174 -0.2930 0.083 -0.996 0.032 57 42 36 0 0
-0.0560 0.1191 -0.7433 -0.642 -0.584 0.497 75 51 35 0 0
-0.0556 0.1217 -0.7475 -0.737 -0.637 0.226 74 48 33 0 0
-0.0554 0.1225 -0.7511 -0.951 -0.218 0.221 73 47 33 0 0
-0.0682 0.0366 -0.8698 0.442 -0.896 0.051 82 56 38 0 0
-0.0774 -0.0310 -1.0387 -0.206 -0.965 -0.164 84 61 46 0 0
-0.0773 -0.0303 -1.0423 -0.347 -0.938 0.006 83 60 46 0 0
-0.0788 -0.0396 -1.0433 -0.333 -0.927 0.172 77 55 40 0 0
-0.0755 -0.0225 -1.0886 -0.659 -0.752 0.027 38 23 18 0 0
-0.0750 -0.0198 -1.0966 -0.276 -0.802 -0.530 41 24 17 0 0
-0.0768 -0.0347 -1.1616 -0.499 -0.859 0.117 156 152 147 0 0
-0.0621 0.1436 -0.0700 -0.463 -0.199 0.864 92 82 80 0 0
-0.0634 0.1352 -0.0756 -0.722 -0.260 0.641 77 63 57 0 0
-0.0729 0.0696 -0.1802 -0.871 -0.484 -0.082 58 45 39 0 0
-0.0727 0.0702 -0.1832 -0.841 -0.497 -0.216 58 45 39 0 0
-0.0726 0.0710 -0.1862 -0.805 -0.393 -0.445 58 45 39 0 0
-0.0721 0.0737 -0.1893 -0.735 -0.461 -0.497 59 46 40 0 0
-0.0651 0.1128 -0.2560 -0.815 -0.374 -0.442 60 45 38 0 0
-0.0637 0.1200 -0.2811 -0.440 -0.881 0.171 60 43 38 0 0
-0.0633 0.1220 -0.2875 -0.200 -0.975 0.099 64 46 42 0 0
-0.0558 0.1650 -0.3499 -0.860 -0.494 -0.131 76 68 64 0 0
-0.0559 0.1641 -0.3529 -0.894 -0.427 -0.139 66 56 49 0 0
-0.0576 0.1289 -0.7435 -0.866 -0.344 0.363 77 54 38 0 0
-0.0577 0.1282 -0.7465 -0.810 -0.462 0.362 75 52 36 0 0
-0.0588 0.1210 -0.7536 -0.839 -0.061 0.541 71 48 34 0 0
-0.0708 0.0400 -0.8584 -0.593 -0.650 -0.476 82 55 36 0 0
-0.0677 0.0564 -0.9047 -0.241 -0.948 0.207 56 34 21 0 0
-0.0801 -0.0293 -1.0426 -0.347 -0.938 0.006 82 60 46 0 0
-0.0799 -0.0281 -1.0465 -0.551 -0.829 -0.098 79 57 43 0 0
-0.0784 -0.0215 -1.0921 -0.460 -0.873 -0.161 38 22 17 0 0
-0.0801 -0.0365 -1.1537 -0.488 -0.873 0.009 99 91 78 0 0
-0.0626 0.1592 -0.0675 -0.489 -0.088 0.868 109 102 102 0 0
-0.0785 0.0531 -0.1700 -0.553 -0.813 -0.184 58 43 38 0 0
-0.0757 0.0704 -0.1803 -0.734 -0.361 -0.575 59 45 40 0 0
-0.0753 0.0725 -0.1834 -0.599 -0.492 -0.632 59 46 40 0 0
-0.0736 0.0828 -0.1872 -0.292 -0.664 -0.688 59 46 40 0 0
-0.0736 0.0828 -0.1931 -0.790 -0.503 -0.351 59 46 40 0 0
-0.0701 0.1018 -0.2366 -0.822 -0.329 -0.464 59 46 38 0 0
-0.0692 0.1073 -0.2403 -0.809 -0.425 -0.406 58 45 37 0 0
-0.0652 0.1290 -0.2976 -0.306 -0.929 -0.211 56 41 36 0 0
-0.0628 0.1434 -0.3028 -0.894 -0.449 0.005 60 45 38 0 0
-0.0586 0.1672 -0.3471 -0.715 -0.637 -0.288 59 51 47 0 0
-0.0583 0.1684 -0.3504 -0.715 -0.637 -0.288 75 69 64 0 0
-0.0581 0.1697 -0.3538 -0.715 -0.637 -0.288 75 67 59 0 0
-0.0620 0.1434 -0.3803 -0.785 -0.616 -0.061 66 52 42 0 0
-0.0629 0.1380 -0.3824 -0.772 -0.625 -0.112 66 50 41 0 0
-0.0722 0.0503 -0.8597 -0.641 -0.708 0.297 77 47 28 0 0
-0.0693 0.0675 -0.8773 -0.368 -0.878 -0.307 80 58 41 0 0
-0.0692 0.0672 -0.8901 -0.796 -0.467 0.386 73 50 36 0 0
-0.0739 0.0328 -0.9737 -0.340 -0.938 -0.074 85 67 55 0 0
-0.0751 0.0251 -0.9730 -0.607 -0.795 0.011 84 66 54 0 0
-0.0829 -0.0283 -1.0430 -0.347 -0.938 0.006 80 58 44 0 0
-0.0829 -0.0283 -1.0462 -0.347 -0.938 0.006 79 57 43 0 0
-0.0823 -0.0292 -1.1225 -0.437 -0.899 -0.018 82 59 43 0 0
-0.0829 -0.0350 -1.1512 -0.488 -0.873 0.009 78 66 52 0 0
-0.0829 -0.0350 -1.1544 -0.488 -0.873 0.009 106 100 88 0 0
-0.0823 -0.0316 -1.1630 -0.421 -0.677 -0.603 165 163 159 0 0
-0.0691 0.1366 -0.0816 -0.923 -0.201 0.329 69 54 47 0 0
-0.0781 0.0736 -0.1835 -0.122 -0.646 -0.754 59 46 40 0 0
-0.0768 0.0814 -0.1871 0.137 -0.700 -0.701 59 46 40 0 0
-0.0725 0.1057 -0.2371 -0.729 -0.453 -0.513 60 47 39 0 0
-0.0725 0.1055 -0.2400 -0.794 -0.365 -0.486 61 48 40 0 0
-0.0718 0.1097 -0.2435 -0.805 -0.565 -0.184 60 47 39 0 0
-0.0668 0.1385 -0.2867 -0.803 -0.569 -0.176 67 53 47 0 0
-0.0666 0.1396 -0.2900 -0.843 -0.521 -0.137 65 51 46 0 0
-0.0665 0.1404 -0.2932 -0.821 -0.533 -0.202 62 48 43 0 0
-0.0660 0.1432 -0.2966 -0.706 -0.591 -0.391 62 47 42 0 0
-0.0656 0.1455 -0.3000 -0.729 -0.674 -0.122 62 47 41 0 0
-0.0653 0.1472 -0.3034 -0.811 -0.578 -0.095 65 50 43 0 0
-0.0637 0.1570 -0.3079 -0.687 -0.586 -0.429 65 49 41 0 0
-0.0645 0.1511 -0.3256 -0.111 -0.836 0.538 67 47 36 0 0
-0.0621 0.1647 -0.3435 -0.403 -0.644 -0.651 71 61 57 0 0
-0.0612 0.1705 -0.3476 0.560 -0.813 -0.160 126 121 119 0 0
-0.0610 0.1713 -0.3508 0.560 -0.813 -0.160 137 135 134 0 0
-0.0605 0.1743 -0.3545 0.370 -0.849 -0.377 125 122 120 0 0
-0.0785 0.0558 -0.4355 -0.826 -0.453 0.337 72 52 39 0 0
-0.0634 0.1315 -0.7573 -0.961 -0.273 -0.042 74 50 38 0 0
-0.0722 0.0647 -0.9376 -0.045 -0.997 0.058 80 58 44 0 0
-0.0720 0.0656 -0.9446 -0.116 -0.974 0.197 73 47 28 0 0
-0.0844 -0.0163 -1.0081 -0.434 -0.803 0.408 57 28 14 0 0
-0.0855 -0.0251 -1.0318 -0.233 -0.885 0.402 72 42 21 0 0
-0.0854 -0.0259 -1.0632 -0.506 -0.848 -0.156 79 57 43 0 0
-0.0830 -0.0120 -1.0747 -0.687 -0.725 -0.043 77 58 44 0 0
-0.0857 -0.0335 -1.1550 -0.414 -0.907 -0.075 116 109 98 0 0
-0.0856 -0.0333 -1.1584 -0.414 -0.907 -0.075 148 143 138 0 0
-0.0854 -0.0320 -1.1625 -0.411 -0.751 -0.517 168 166 165 0 0
-0.0833 0.0608 -0.1591 -0.111 -0.951 0.289 58 47 40 0 0
-0.0829 0.0630 -0.1622 -0.199 -0.961 -0.192 57 47 39 0 0
-0.0834 0.0591 -0.1705 -0.925 -0.227 -0.306 58 46 40 0 0
-0.0763 0.1023 -0.2128 -0.433 -0.580 -0.690 62 49 43 0 0
-0.0670 0.1560 -0.3077 -0.333 -0.899 0.283 72 58 51 0 0
-0.0666 0.1583 -0.3112 0.187 -0.817 0.546 66 50 43 0 0
-0.0664 0.1589 -0.3144 -0.278 -0.684 0.675 67 49 41 0 0
-0.0668 0.1564 -0.3171 -0.278 -0.684 0.675 68 49 39 0 0
-0.0672 0.1535 -0.3198 -0.301 -0.952 0.050 67 47 35 0 0
-0.0672 0.1537 -0.3229 -0.173 -0.983 -0.062 69 49 38 0 0
-0.0675 0.1515 -0.3256 -0.270 -0.948 0.170 70 50 40 0 0
-0.0693 0.1398 -0.3269 -0.749 -0.622 -0.229 73 54 45 0 0
-0.0689 0.1420 -0.3303 -0.781 -0.479 -0.402 75 57 50 0 0
-0.0645 0.1694 -0.3411 0.484 -0.821 0.303 90 79 78 0 0
-0.0649 0.1669 -0.3438 -0.088 -0.817 -0.570 92 84 85 0 0
-0.0670 0.1506 -0.3909 -0.706 -0.302 0.640 73 58 50 0 0
-0.0613 0.1659 -0.7437 -0.942 -0.017 0.335 96 81 75 0 0
-0.0750 0.0675 -0.9322 -0.390 -0.890 0.236 79 59 48 0 0
-0.0752 0.0656 -0.9378 -0.264 -0.743 0.615 76 54 40 0 0
-0.0753 0.0648 -0.9407 0.220 -0.974 -0.061 75 51 36 0 0
-0.0754 0.0639 -0.9435 -0.256 -0.932 -0.257 74 49 35 0 0
-0.0759 0.0607 -0.9452 -0.429 -0.778 -0.458 75 51 37 0 0
-0.0767 0.0556 -0.9459 -0.215 -0.808 -0.548 79 55 42 0 0
-0.0790 0.0388 -0.9764 0.121 -0.900 0.420 83 65 54 0 0
-0.0802 0.0316 -0.9759 -0.652 -0.558 0.514 82 64 53 0 0
-0.0876 -0.0185 -1.0225 -0.201 -0.830 0.521 54 25 11 0 0
-0.0881 -0.0226 -1.0330 -0.292 -0.944 0.153 72 45 23 0 0
-0.0904 -0.0377 -1.0465 -0.519 -0.854 -0.043 78 56 42 0 0
-0.0882 -0.0247 -1.0637 -0.447 -0.894 -0.008 77 57 43 0 0
-0.0887 -0.0334 -1.1516 -0.413 -0.910 0.035 93 81 70 0 0
-0.0878 -0.0282 -1.1646 -0.561 -0.769 -0.305 172 169 167 0 0
-0.0685 0.1797 -0.0712 -0.662 -0.037 0.748 134 131 130 0 0
-0.0867 0.0573 -0.1589 -0.033 -0.945 0.325 58 47 40 0 0
-0.0863 0.0599 -0.1619 -0.422 -0.875 -0.237 58 48 40 0 0
-0.0860 0.0619 -0.1650 -0.297 -0.607 -0.737 57 47 38 0 0
-0.0857 0.0632 -0.1709 -0.079 -0.534 -0.842 59 48 42 0 0
-0.0813 0.0898 -0.1967 -0.021 -0.679 -0.734 60 49 43 0 0
-0.0772 0.1139 -0.2410 -0.013 -0.804 -0.594 63 52 46 0 0
-0.0699 0.1570 -0.3079 -0.333 -0.899 0.283 76 63 57 0 0
-0.0692 0.1610 -0.3116 -0.230 -0.922 0.310 73 58 51 0 0
-0.0689 0.1633 -0.3150 -0.175 -0.963 0.206 72 54 46 0 0
-0.0692 0.1612 -0.3178 0.005 -0.839 0.545 72 53 43 0 0
-0.0704 0.1532 -0.3228 -0.584 -0.718 0.379 70 50 40 0 0
-0.0708 0.1501 -0.3254 -0.746 -0.597 0.294 69 49 40 0 0
-0.0714 0.1463 -0.3279 -0.803 -0.584 -0.117 73 54 45 0 0
-0.0680 0.1675 -0.3407 0.484 -0.821 0.303 92 84 84 0 0
-0.0654 0.1824 -0.3748 -0.947 -0.105 0.304 75 67 63 0 0
-0.0658 0.1795 -0.3774 -0.955 -0.112 0.276 75 63 57 0 0
-0.0814 0.0765 -0.4188 -0.563 -0.771 0.297 88 59 41 0 0
-0.0619 0.1826 -0.7463 -0.916 0.091 0.390 108 101 98 0 0
-0.0630 0.1753 -0.7470 -0.919 0.085 0.386 103 94 89 0 0
-0.0669 0.1490 -0.7736 -0.681 -0.418 0.602 77 54 41 0 0
-0.0676 0.1444 -0.7751 -0.829 -0.371 0.418 75 52 39 0 0
-0.0786 0.0636 -0.9366 0.597 -0.789 0.144 77 54 39 0 0
-0.0786 0.0636 -0.9399 0.181 -0.933 -0.312 75 52 36 0 0
-0.0788 0.0623 -0.9425 -0.320 -0.762 -0.563 75 52 38 0 0
-0.0783 0.0651 -0.9472 -0.433 -0.742 -0.511 73 51 37 0 0
-0.0796 0.0567 -0.9463 -0.241 -0.694 -0.679 76 54 41 0 0
-0.0792 0.0588 -0.9506 -0.230 -0.679 -0.697 83 63 51 0 0
-0.0820 0.0398 -0.9734 -0.360 -0.661 0.658 83 65 55 0 0
-0.0821 0.0387 -0.9761 -0.347 -0.821 0.454 83 65 55 0 0
-0.0900 -0.0146 -1.0149 0.087 -0.952 0.292 55 26 12 0 0
-0.0905 -0.0177 -1.0227 -0.034 -0.880 0.475 55 26 10 0 0
-0.0910 -0.0218 -1.0332 -0.292 -0.944 0.153 76 51 29 0 0
-0.0882 -0.0068 -1.0804 -0.269 -0.961 -0.059 71 52 42 0 0
-0.0899 -0.0200 -1.1209 0.160 -0.978 0.135 80 53 34 0 0
-0.0882 -0.0115 -1.1588 -0.392 -0.900 -0.192 65 46 33 0 0
-0.0912 -0.0308 -1.1626 -0.645 -0.698 -0.310 174 170 169 0 0
-0.0724 0.1745 -0.0740 -0.813 -0.029 0.582 113 110 109 0 0
-0.0884 0.0652 -0.1653 -0.621 -0.550 -0.558 59 48 43 0 0
-0.0832 0.0967 -0.2003 -0.514 -0.452 -0.729 62 51 45 0 0
-0.0802 0.1155 -0.2172 -0.765 -0.426 -0.483 63 51 45 0 0
-0.0724 0.1605 -0.3177 -0.154 -0.783 0.603 76 57 48 0 0
-0.0732 0.1550 -0.3230 -0.707 -0.675 0.211 77 59 49 0 0
-0.0840 0.0772 -0.4462 -0.884 -0.463 -0.060 98 91 85 0 0
-0.0697 0.1513 -0.7743 -0.867 -0.368 0.336 78 58 44 0 0
-0.0708 0.1445 -0.7750 -0.852 -0.095 0.515 77 57 42 0 0
-0.0716 0.1387 -0.7826 -0.371 -0.094 0.924 73 51 38 0 0
-0.0724 0.1332 -0.7870 -0.751 -0.574 0.327 69 46 34 0 0
-0.0799 0.0777 -0.9007 -0.646 -0.724 -0.241 70 48 36 0 0
-0.0790 0.0817 -0.9288 -0.603 -0.795 0.062 81 61 50 0 0
-0.0796 0.0779 -0.9303 -0.622 -0.548 0.559 82 62 51 0 0
-0.0931 -0.0148 -1.0146 0.087 -0.952 0.292 61 31 14 0 0
-0.0936 -0.0191 -1.0313 -0.171 -0.849 0.500 76 48 25 0 0
-0.0939 -0.0211 -1.0333 -0.111 -0.985 -0.130 79 54 32 0 0
-0.0942 -0.0234 -1.0415 -0.445 -0.894 0.052 79 57 42 0 0
-0.0949 -0.0282 -1.0451 -0.541 -0.783 0.306 79 57 43 0 0
-0.0954 -0.0314 -1.0465 -0.534 -0.836 0.124 79 57 43 0 0
-0.0954 -0.0317 -1.0495 -0.566 -0.821 0.079 79 57 43 0 0
-0.0911 -0.0061 -1.0903 -0.014 -0.995 -0.096 42 28 20 0 0
-0.0923 -0.0148 -1.0979 -0.332 -0.943 0.038 45 28 21 0 0
-0.0921 -0.0138 -1.1018 -0.332 -0.920 -0.208 43 26 19 0 0
-0.0920 -0.0130 -1.1055 -0.332 -0.920 -0.208 43 26 19 0 0
-0.0919 -0.0128 -1.1089 -0.583 -0.804 -0.116 45 27 20 0 0
-0.0915 -0.0127 -1.1577 -0.513 -0.787 -0.342 65 48 37 0 0
-0.0908 0.0695 -0.1425 -0.464 -0.482 0.743 56 33 20 0 0
-0.0826 0.1193 -0.2175 -0.609 -0.682 -0.405 65 54 48 0 0
-0.0750 0.1593 -0.3955 0.204 -0.477 0.855 79 70 67 0 0
-0.0866 0.0820 -0.4137 0.459 -0.835 0.304 98 77 63 0 0
-0.0883 0.0698 -0.4323 -0.659 -0.634 -0.406 69 42 26 0 0
-0.0868 0.0788 -0.4465 -0.691 -0.415 -0.591 109 102 97 0 0
-0.0691 0.1772 -0.7607 -0.925 0.111 0.362 97 87 84 0 0
-0.0743 0.1420 -0.7771 -0.677 -0.437 0.591 77 59 47 0 0
-0.0748 0.1389 -0.7792 -0.626 -0.404 0.667 74 55 43 0 0
-0.0756 0.1332 -0.7835 -0.804 -0.160 0.573 73 52 39 0 0
-0.0755 0.1336 -0.7870 -0.857 -0.223 0.464 72 50 37 0 0
-0.0815 0.0863 -0.9210 -0.860 -0.502 0.088 77 58 47 0 0
-0.0816 0.0858 -0.9240 -0.800 -0.532 0.278 80 61 50 0 0
-0.0819 0.0831 -0.9293 -0.754 -0.623 0.207 83 61 50 0 0
-0.0963 -0.0159 -1.0105 -0.665 -0.689 0.287 64 35 18 0 0
-0.0964 -0.0173 -1.0225 0.029 -0.988 -0.152 68 40 16 0 0
-0.0962 -0.0162 -1.0263 -0.310 -0.936 0.165 72 39 15 0 0
-0.0971 -0.0232 -1.0414 -0.433 -0.850 0.299 80 59 44 0 0
-0.0936 0.0706 -0.1454 -0.548 -0.811 0.207 55 35 21 0 0
-0.0932 0.0727 -0.1485 -0.237 -0.961 -0.140 57 38 25 0 0
-0.0938 0.0686 -0.1511 0.159 -0.951 0.265 61 46 36 0 0
-0.0952 0.0593 -0.1590 -0.385 -0.897 -0.217 64 52 48 0 0
-0.0912 0.0846 -0.1786 -0.868 -0.495 -0.036 65 52 49 0 0
-0.0856 0.1195 -0.2175 -0.486 -0.767 -0.419 70 59 53 0 0
-0.0810 0.1487 -0.2481 -0.942 -0.084 -0.326 79 73 67 0 0
-0.0790 0.1611 -0.2558 -0.961 -0.079 -0.264 84 77 73 0 0
-0.0747 0.1873 -0.3029 -0.977 -0.116 0.179 176 175 179 0 0
-0.0903 0.0757 -0.4396 -0.747 -0.633 -0.205 84 69 60 0 0
-0.0772 0.1437 -0.7842 -0.901 -0.347 0.261 74 56 43 0 0
-0.0866 0.0772 -0.8577 0.336 -0.937 -0.091 77 49 28 0 0
-0.0881 0.0667 -0.8627 -0.429 -0.891 0.148 83 60 43 0 0
-0.0833 0.0947 -0.9347 -0.831 -0.491 0.262 83 63 52 0 0
-0.0845 0.0870 -0.9343 -0.496 -0.866 -0.060 82 62 51 0 0
-0.1006 -0.0266 -1.0424 -0.139 -0.908 0.395 80 58 43 0 0
-0.0972 -0.0062 -1.0864 -0.375 -0.843 -0.387 42 28 23 0 0
-0.0992 -0.0222 -1.1349 -0.165 -0.941 -0.296 80 57 43 0 0
-0.0993 -0.0231 -1.1375 -0.631 -0.711 -0.309 79 57 42 0 0
-0.0987 -0.0191 -1.1433 -0.313 -0.784 -0.537 77 57 40 0 0
-0.0974 -0.0114 -1.1579 -0.538 -0.840 -0.063 73 60 49 0 0
-0.0832 0.1626 -0.1007 -0.915 -0.190 0.356 94 84 83 0 0
-0.0844 0.1543 -0.1033 -0.364 -0.203 0.909 97 87 85 0 0
-0.0964 0.0708 -0.1541 -0.423 -0.904 -0.054 66 54 48 0 0
-0.0894 0.1146 -0.2080 -0.659 -0.512 -0.551 67 58 53 0 0
-0.0890 0.1174 -0.2113 -0.737 -0.459 -0.496 70 60 55 0 0
-0.0885 0.1105 -0.4012 0.429 -0.436 0.791 80 67 60 0 0
-0.0919 0.0869 -0.4116 -0.777 -0.384 0.500 81 59 45 0 0
-0.0923 0.0828 -0.4412 -0.780 -0.490 -0.390 86 73 64 0 0
-0.0918 0.0855 -0.4448 -0.736 -0.493 -0.464 101 91 87 0 0
-0.0781 0.1590 -0.7867 -0.918 -0.064 0.391 77 62 51 0 0
-0.0792 0.1513 -0.7904 -0.935 -0.220 0.280 76 58 43 0 0
-0.0901 0.0745 -0.8563 -0.377 -0.867 -0.326 81 53 32 0 0
-0.0903 0.0724 -0.8619 -0.589 -0.769 -0.249 84 58 39 0 0
-0.0871 0.0901 -0.9356 -0.353 -0.935 0.034 81 61 50 0 0
-0.1023 -0.0225 -1.1344 -0.288 -0.940 -0.180 80 57 43 0 0
-0.0878 0.1516 -0.1032 -0.348 -0.164 0.923 99 89 87 0 0
-0.0970 0.0862 -0.1582 -0.799 -0.548 -0.247 68 55 52 0 0
-0.0913 0.1221 -0.2088 -0.701 -0.509 -0.498 73 63 61 0 0
-0.0800 0.1931 -0.3163 -0.916 -0.245 0.319 175 172 175 0 0
-0.0801 0.1920 -0.3192 -0.985 -0.103 0.141 167 164 164 0 0
-0.0809 0.1610 -0.7940 -0.942 -0.078 0.326 79 62 52 0 0
-0.0830 0.1470 -0.7984 -0.894 0.005 0.447 75 54 43 0 0
-0.0888 0.0996 -0.9400 -0.498 -0.845 -0.195 82 62 51 0 0
-0.0896 0.0938 -0.9537 -0.527 -0.579 -0.622 80 57 43 0 0
-0.1065 -0.0260 -1.0486 -0.590 -0.798 -0.119 80 58 44 0 0
-0.1038 -0.0103 -1.0931 0.006 -0.905 -0.426 44 26 19 0 0
-0.1040 -0.0119 -1.1019 -0.710 -0.591 0.384 44 27 21 0 0
-0.1039 -0.0119 -1.1051 -0.599 -0.730 0.328 48 30 24 0 0
-0.1041 -0.0134 -1.1074 -0.570 -0.625 0.533 56 35 24 0 0
-0.1052 -0.0219 -1.1345 0.059 -0.899 -0.434 80 57 43 0 0
-0.1023 -0.0043 -1.1652 -0.587 -0.803 -0.102 115 107 99 0 0
-0.1028 -0.0075 -1.1697 -0.555 -0.779 0.290 165 162 157 0 0
-0.0899 0.1583 -0.1035 -0.204 -0.213 0.956 104 95 93 0 0
-0.0980 0.1023 -0.1126 0.032 -0.640 0.768 83 72 66 0 0
-0.0994 0.0899 -0.1585 -0.536 -0.769 -0.347 70 58 55 0 0
-0.0987 0.0950 -0.1618 -0.250 -0.750 -0.612 68 57 52 0 0
-0.0981 0.0986 -0.1680 0.328 -0.939 0.107 65 54 50 0 0
-0.0971 0.1051 -0.1774 -0.527 -0.796 0.299 66 56 53 0 0
-0.0834 0.1655 -0.8090 -0.819 -0.012 0.574 76 56 46 0 0
-0.0932 0.0951 -0.8652 -0.859 -0.498 -0.115 85 58 38 0 0
-0.1070 -0.0079 -1.0235 -0.698 -0.715 0.045 73 42 21 0 0
-0.1072 -0.0092 -1.0260 -0.731 -0.681 0.034 75 44 22 0 0
-0.1052 -0.0031 -1.1623 -0.500 -0.743 -0.445 95 84 75 0 0
-0.1051 -0.0022 -1.1662 -0.587 -0.803 -0.102 124 117 110 0 0
-0.1052 -0.0031 -1.1722 -0.557 -0.825 -0.092 169 166 162 0 0
-0.0919 0.1651 -0.1039 -0.321 -0.223 0.921 104 96 93 0 0
-0.0944 0.1481 -0.1061 -0.513 -0.147 0.846 98 89 86 0 0
-0.1024 0.0894 -0.1585 -0.446 -0.698 -0.561 68 57 53 0 0
-0.1013 0.0972 -0.1649 -0.185 -0.839 -0.511 67 56 52 0 0
-0.0998 0.1068 -0.1716 -0.688 -0.691 -0.222 67 56 52 0 0
-0.0993 0.1106 -0.1749 -0.662 -0.749 0.033 68 57 55 0 0
-0.0994 0.1094 -0.1778 -0.674 -0.738 -0.026 68 58 56 0 0
-0.0996 0.1079 -0.1806 -0.769 -0.552 -0.324 69 60 57 0 0
-0.0997 0.1070 -0.1835 -0.801 -0.477 -0.361 74 65 61 0 0
-0.0971 0.0892 -0.8819 -0.787 -0.508 -0.351 91 77 67 0 0
-0.0943 0.1059 -0.9326 -0.887 -0.370 0.275 90 73 65 0 0
-0.0947 0.1010 -0.9667 0.712 -0.384 0.587 82 60 46 0 0
-0.1097 -0.0055 -1.0246 -0.568 -0.822 -0.035 75 44 23 0 0
-0.1098 -0.0065 -1.0273 -0.649 -0.761 -0.008 78 47 25 0 0
-0.1025 0.1088 -0.1747 -0.473 -0.858 -0.197 72 62 60 0 0
-0.1018 0.1137 -0.1781 -0.632 -0.712 -0.306 73 65 62 0 0
-0.1003 0.1124 -0.4136 -0.606 -0.663 -0.439 82 58 46 0 0
-0.0994 0.1180 -0.4179 -0.800 -0.051 0.598 82 58 46 0 0
-0.0990 0.0984 -0.8597 -0.784 -0.389 0.484 88 64 40 0 0
-0.0955 0.1196 -0.9323 -0.882 -0.436 -0.180 90 75 67 0 0
-0.0968 0.1103 -0.9345 -0.853 -0.491 0.175 91 73 65 0 0
-0.0998 0.0880 -0.9633 0.922 -0.216 0.322 78 55 41 0 0
-0.1124 -0.0040 -1.0252 -0.457 -0.889 0.015 75 44 23 0 0
-0.1125 -0.0042 -1.0283 -0.576 -0.818 -0.013 76 46 25 0 0
-0.1124 -0.0039 -1.0317 -0.641 -0.747 0.179 80 52 30 0 0
-0.1137 -0.0186 -1.1389 -0.466 -0.647 -0.603 81 60 45 0 0
-0.1073 0.0962 -0.1648 -0.663 -0.483 -0.572 69 61 59 0 0
-0.1051 0.1115 -0.1720 -0.596 -0.677 -0.431 74 65 63 0 0
-0.0973 0.1335 -0.8385 0.499 -0.544 0.674 75 52 38 0 0
-0.0984 0.1212 -0.9361 -0.880 -0.462 -0.110 95 79 71 0 0
-0.0993 0.1145 -0.9363 -0.872 -0.455 0.179 93 74 67 0 0
-0.1036 0.0822 -0.9800 0.827 -0.505 -0.245 86 65 53 0 0
-0.1145 0.0029 -1.0224 -0.434 -0.690 0.579 71 40 20 0 0
-0.1151 -0.0020 -1.0325 -0.500 -0.832 0.240 85 58 37 0 0
-0.1157 -0.0066 -1.0395 -0.497 -0.624 0.604 93 70 55 0 0
-0.1157 -0.0065 -1.0492 -0.415 -0.881 0.229 88 65 50 0 0
-0.1154 -0.0074 -1.1003 0.064 -0.984 0.166 49 30 22 0 0
-0.1155 -0.0080 -1.1031 -0.550 -0.819 0.162 53 32 19 0 0
-0.1098 0.1013 -0.1271 0.205 -0.860 -0.468 70 48 37 0 0
-0.1098 0.1014 -0.1359 -0.628 -0.684 0.371 59 39 30 0 0
-0.1089 0.1076 -0.1393 -0.545 -0.807 -0.227 57 37 27 0 0
-0.1095 0.1032 -0.1419 -0.478 -0.532 -0.699 59 37 26 0 0
-0.1021 0.1168 -0.9471 0.084 -0.919 -0.385 82 60 48 0 0
-0.1017 0.1196 -0.9519 0.023 -0.776 -0.631 81 59 46 0 0
-0.1001 0.1303 -0.9638 -0.080 -0.622 -0.779 76 54 40 0 0
-0.1185 -0.0053 -1.0496 -0.414 -0.859 0.301 85 63 47 0 0
-0.1181 -0.0048 -1.1015 -0.160 -0.985 -0.069 50 31 20 0 0
-0.1180 -0.0044 -1.1050 -0.382 -0.923 0.051 57 34 20 0 0
-0.1180 -0.0046 -1.1081 -0.382 -0.923 0.051 66 38 19 0 0
-0.1181 -0.0052 -1.1110 -0.348 -0.936 0.044 80 52 31 0 0
-0.1176 -0.0036 -1.1510 -0.520 -0.718 -0.462 71 55 42 0 0
-0.1129 0.1007 -0.1271 0.259 -0.806 -0.533 72 50 39 0 0
-0.1126 0.1029 -0.1302 0.302 -0.889 -0.343 65 44 34 0 0
-0.1115 0.1099 -0.1394 -0.675 -0.708 -0.206 57 37 27 0 0
-0.1129 0.0999 -0.1417 -0.794 -0.425 -0.435 58 37 27 0 0
-0.1043 0.1290 -0.8395 -0.602 -0.199 0.774 77 54 40 0 0
-0.1061 0.1148 -0.8598 -0.821 -0.462 0.335 90 66 45 0 0
-0.1069 0.1090 -0.8605 -0.888 -0.434 0.154 96 73 51 0 0
-0.1028 0.1351 -0.9356 -0.924 -0.378 -0.052 107 94 85 0 0
-0.1046 0.1220 -0.9461 -0.409 -0.190 0.892 86 65 54 0 0
-0.1049 0.1193 -0.9482 -0.803 -0.552 -0.226 83 61 48 0 0
-0.1037 0.1274 -0.9588 -0.393 -0.690 -0.608 78 56 42 0 0
-0.1070 0.1028 -0.9734 0.821 -0.517 -0.243 77 51 38 0 0
-0.1204 0.0040 -1.0289 -0.421 -0.906 0.042 84 56 34 0 0
-0.1181 0.0167 -1.1011 -0.260 -0.670 0.695 51 32 25 0 0
-0.1210 -0.0041 -1.0985 -0.629 -0.763 0.149 50 32 21 0 0
-0.1098 0.1455 -0.1119 -0.696 -0.098 0.712 101 93 88 0 0
-0.1144 0.1107 -0.1395 -0.448 -0.721 -0.529 64 43 32 0 0
-0.1087 0.1395 -0.4159 -0.833 -0.443 0.332 86 66 55 0 0
-0.1095 0.1339 -0.4209 -0.832 -0.408 0.375 83 61 47 0 0
-0.1097 0.1319 -0.4236 -0.832 -0.408 0.375 81 59 45 0 0
-0.0978 0.2004 -0.8288 -0.843 0.003 0.538 106 96 90 0 0
-0.1093 0.1145 -0.8627 -0.929 -0.339 -0.151 96 75 57 0 0
-0.1087 0.1140 -0.9621 0.331 -0.538 -0.775 77 55 41 0 0
-0.1228 0.0082 -1.0310 -0.164 -0.871 0.463 86 60 38 0 0
-0.1239 0.0002 -1.0330 0.399 -0.880 0.258 91 68 51 0 0
-0.1204 0.0223 -1.1009 0.048 -0.981 0.190 51 33 25 0 0
-0.1238 -0.0026 -1.1023 -0.491 -0.871 -0.021 59 37 23 0 0
-0.1231 0.0007 -1.1499 -0.666 -0.720 -0.193 73 56 42 0 0
-0.0989 0.2164 -0.8317 -0.802 0.085 0.591 141 134 133 0 0
-0.1016 0.1960 -0.8336 -0.625 0.000 0.781 104 90 83 0 0
-0.1012 0.1991 -0.8383 -0.172 -0.279 0.945 99 84 77 0 0
-0.1046 0.1737 -0.8413 -0.182 -0.717 0.673 87 67 56 0 0
-0.1249 0.0144 -1.0343 -0.560 -0.813 0.160 89 63 43 0 0
-0.1264 0.0001 -1.1134 -0.393 -0.918 -0.043 85 58 40 0 0
-0.1261 0.0009 -1.1432 -0.695 -0.677 -0.242 82 60 45 0 0
-0.1151 0.1371 -0.4277 -0.970 -0.218 0.105 86 66 54 0 0
-0.1042 0.2012 -0.8356 -0.680 0.085 0.729 112 100 95 0 0
-0.1042 0.2005 -0.8387 -0.474 -0.016 0.880 106 92 85 0 0
-0.1059 0.1878 -0.8402 -0.410 -0.046 0.911 97 80 71 0 0
-0.1124 0.1341 -0.9648 -0.998 -0.053 0.033 79 57 43 0 0
-0.1283 0.0117 -1.0325 -0.466 -0.884 -0.034 87 61 43 0 0
-0.1284 0.0065 -1.1464 -0.615 -0.762 0.201 81 61 47 0 0
-0.1209 0.1293 -0.1259 -0.705 -0.654 -0.276 77 57 47 0 0
-0.1210 0.1286 -0.1288 -0.312 -0.662 -0.681 76 54 43 0 0
-0.1038 0.2285 -0.8396 -0.706 0.125 0.697 210 208 210 0 0
-0.1077 0.1988 -0.8412 -0.602 0.027 0.798 107 95 88 0 0
-0.1135 0.1504 -0.9556 -0.986 -0.162 0.043 84 64 53 0 0
-0.1310 0.0130 -1.0653 -0.050 -0.978 0.201 82 62 48 0 0
-0.1228 0.1382 -0.1235 -0.880 -0.236 0.412 91 71 62 0 0
-0.1235 0.1327 -0.1261 -0.780 -0.551 -0.296 79 59 48 0 0
-0.1240 0.1282 -0.1288 -0.599 -0.574 -0.559 78 57 46 0 0
-0.1241 0.1278 -0.1317 -0.820 -0.469 -0.328 78 56 45 0 0
-0.1141 0.1925 -0.4139 -0.775 -0.032 0.631 117 110 105 0 0
-0.1152 0.1837 -0.4153 -0.886 -0.042 0.462 110 101 95 0 0
-0.1163 0.1753 -0.4167 -0.929 -0.032 0.369 104 93 87 0 0
-0.1103 0.2038 -0.8430 -0.703 0.063 0.709 123 115 111 0 0
-0.1170 0.1519 -0.8650 -0.961 -0.270 0.061 106 86 75 0 0
-0.1334 0.0195 -1.0396 -0.219 -0.939 0.264 87 64 47 0 0
-0.1323 0.0232 -1.1496 -0.371 -0.614 0.697 83 62 46 0 0
-0.1179 0.1876 -0.4191 -0.928 -0.035 0.372 126 119 117 0 0
-0.1184 0.1831 -0.4214 -0.945 -0.062 0.321 119 111 109 0 0
-0.1183 0.1617 -0.9810 -0.534 -0.781 -0.323 78 55 41 0 0
-0.1361 0.0222 -1.0311 -0.403 -0.892 -0.205 86 59 39 0 0
-0.1352 0.0239 -1.1498 -0.614 -0.699 0.367 83 62 46 0 0
-0.1245 0.1716 -0.1194 -0.728 -0.127 0.674 112 99 94 0 0
-0.1257 0.1626 -0.1219 -0.809 -0.145 0.570 103 85 78 0 0
-0.1183 0.1878 -0.9694 -0.513 -0.695 0.504 92 73 62 0 0
-0.1187 0.1843 -0.9712 -0.286 -0.923 -0.257 89 69 58 0 0
-0.1186 0.1854 -0.9751 -0.286 -0.923 -0.257 85 65 54 0 0
-0.1187 0.1844 -0.9781 -0.211 -0.920 0.330 81 61 49 0 0
-0.1297 0.0980 -0.9694 -0.869 -0.332 0.367 78 55 41 0 0
-0.1297 0.0985 -0.9729 -0.843 -0.257 0.473 78 54 40 0 0
-0.1298 0.0973 -0.9823 -0.247 -0.759 0.603 77 54 40 0 0
-0.1343 0.0617 -0.9936 0.475 -0.878 0.066 79 57 43 0 0
-0.1391 0.0221 -1.0276 -0.276 -0.942 0.190 89 61 40 0 0
-0.1389 0.0236 -1.0381 -0.189 -0.982 -0.012 89 66 48 0 0
-0.1392 0.0211 -1.0400 -0.176 -0.898 0.403 88 67 49 0 0
-0.1385 0.0226 -1.1519 -0.670 -0.715 -0.201 80 61 47 0 0
-0.1382 0.0241 -1.1628 -0.681 -0.726 -0.099 127 120 112 0 0
-0.1382 0.0245 -1.1664 -0.681 -0.726 -0.099 150 144 138 0 0
-0.1378 0.0270 -1.1713 -0.709 -0.700 -0.083 167 162 159 0 0
-0.1217 0.1864 -0.9754 -0.286 -0.923 -0.257 83 65 53 0 0
-0.1218 0.1856 -0.9785 -0.597 -0.714 0.366 81 62 50 0 0
-0.1225 0.1801 -0.9827 -0.055 -0.798 0.600 80 58 46 0 0
-0.1332 0.0951 -0.9876 0.698 -0.553 0.454 77 54 40 0 0
-0.1388 0.0506 -0.9876 -0.255 -0.061 0.965 80 57 43 0 0
-0.1382 0.0546 -1.0027 -0.795 0.111 0.596 81 59 44 0 0
-0.1416 0.0263 -1.0459 -0.282 -0.959 -0.032 91 71 56 0 0
