ply
format ascii 1.0
element vertex 847
property float x
property float y
property float z
property float nx
property float ny
property float nz
property uchar diffuse_red
property uchar diffuse_green
property uchar diffuse_blue
property uchar class
property uchar detection
end_header
0.0956 0.1129 -0.5163 0.212 -0.977 0.007 181 180 180 0 0
0.0947 0.1123 -0.5193 0.178 -0.982 0.059 182 180 180 0 0
0.0864 0.1074 -0.5199 -0.884 0.467 0.035 181 180 181 0 0
0.0852 0.1066 -0.5229 -0.862 0.506 0.026 182 181 181 0 0
0.0841 0.1047 -0.5731 -0.846 0.533 -0.010 188 188 188 0 0
0.0951 0.1110 -0.5806 0.282 -0.957 0.068 187 187 187 0 0
0.0959 0.1113 -0.5843 0.283 -0.957 0.068 188 188 187 0 0
0.0849 0.1049 -0.5836 0.218 -0.975 0.035 187 188 186 0 0
0.0845 0.1046 -0.5868 0.216 -0.975 0.055 188 187 186 0 0
0.0996 0.1119 -0.6475 0.307 -0.949 0.067 192 190 189 0 0
0.0989 0.1114 -0.6506 0.292 -0.953 0.085 189 187 186 0 0
0.0847 0.1032 -0.6483 0.086 -0.994 0.073 188 187 186 0 0
0.0844 0.1029 -0.6515 0.086 -0.994 0.073 186 184 183 0 0
0.0841 0.1027 -0.6549 0.117 -0.987 0.106 182 178 177 0 0
0.0836 0.1023 -0.6581 0.117 -0.987 0.106 177 173 169 0 0
0.0832 0.1019 -0.6613 0.099 -0.990 0.096 171 165 161 0 0
0.0826 0.1015 -0.6645 0.143 -0.987 0.073 161 154 150 0 0
0.0822 0.1012 -0.6678 0.143 -0.987 0.073 153 146 142 0 0
0.0814 0.1007 -0.6709 0.168 -0.981 0.094 144 136 131 0 0
-0.0186 0.0385 -0.8153 -0.298 -0.952 0.068 82 54 39 0 0
-0.0239 0.0354 -0.8158 -0.112 -0.693 0.712 85 58 41 0 0
-0.0228 0.0359 -0.8197 -0.205 -0.920 -0.335 89 63 46 0 0
-0.0438 0.0224 -0.8710 -0.863 -0.505 -0.022 87 62 40 0 0
-0.0443 0.0220 -0.8740 -0.780 -0.588 -0.215 80 58 41 0 0
-0.0407 0.0240 -0.8794 -0.430 -0.735 -0.525 77 55 41 0 0
-0.0375 0.0257 -0.8846 -0.437 -0.727 -0.530 77 54 40 0 0
-0.0305 0.0282 -0.9455 -0.736 -0.605 0.306 74 41 22 0 0
-0.0205 0.0618 0.0115 -0.966 -0.097 0.239 84 51 28 0 0
-0.0338 0.0536 -0.0025 -0.569 -0.764 0.306 62 32 15 0 0
-0.0216 0.0603 -0.0210 -0.824 -0.513 -0.242 65 43 31 0 0
-0.0203 0.0610 -0.0240 -0.631 -0.775 -0.024 62 42 32 0 0
0.0426 0.0972 -0.0531 -0.769 -0.548 0.328 26 19 17 0 0
0.0418 0.0967 -0.0561 -0.769 -0.548 0.328 27 19 17 0 0
-0.0151 0.0622 -0.0992 -0.581 -0.453 0.677 64 43 32 0 0
-0.0530 0.0382 -0.1689 -0.048 -0.986 -0.158 62 48 41 0 0
-0.0322 0.0493 -0.2115 0.077 -0.994 -0.076 64 50 41 0 0
0.0085 0.0687 -0.3916 -0.417 -0.787 0.455 67 43 32 0 0
-0.0305 0.0455 -0.4056 -0.673 -0.551 0.493 79 50 38 0 0
-0.0442 0.0370 -0.4232 -0.872 -0.417 0.258 75 39 13 0 0
-0.0529 0.0316 -0.4329 -0.343 -0.929 0.141 80 51 34 0 0
-0.0560 0.0298 -0.4350 -0.194 -0.979 0.069 83 61 46 0 0
0.0863 0.1112 -0.5172 -0.294 -0.953 0.068 131 122 117 0 0
0.0866 0.1113 -0.5206 -0.362 -0.932 0.011 130 123 118 0 0
0.0851 0.1102 -0.5302 -0.029 -0.990 0.138 134 127 122 0 0
0.0845 0.1097 -0.5334 -0.029 -0.990 0.138 137 129 124 0 0
0.0852 0.1101 -0.5370 0.003 -0.994 0.112 139 132 127 0 0
0.0842 0.1094 -0.5400 0.163 -0.976 0.146 141 134 128 0 0
0.0833 0.1088 -0.5431 0.163 -0.976 0.146 142 135 130 0 0
0.0827 0.1083 -0.5462 0.118 -0.980 0.159 142 135 130 0 0
0.0820 0.1079 -0.5494 0.166 -0.978 0.129 142 135 130 0 0
0.0814 0.1075 -0.5526 0.186 -0.976 0.110 142 135 129 0 0
0.0870 0.1101 -0.5783 -0.889 0.443 0.113 145 138 133 0 0
0.0854 0.1091 -0.5811 0.103 -0.988 0.111 145 139 133 0 0
0.0858 0.1092 -0.5847 0.101 -0.994 0.041 145 139 133 0 0
0.0852 0.1088 -0.5878 0.170 -0.985 -0.010 145 138 132 0 0
0.0856 0.1089 -0.5914 0.168 -0.984 -0.055 146 138 132 0 0
0.0855 0.1088 -0.5947 0.082 -0.991 -0.111 148 140 133 0 0
0.0857 0.1087 -0.6050 -0.558 -0.759 0.335 151 144 137 0 0
0.0854 0.1084 -0.6083 -0.622 -0.666 0.412 152 146 139 0 0
0.0858 0.1083 -0.6187 -0.835 0.549 0.022 156 147 141 0 0
0.0843 0.1074 -0.6216 -0.560 -0.826 -0.072 155 146 140 0 0
0.0849 0.1077 -0.6252 -0.433 -0.893 -0.123 155 146 140 0 0
0.0866 0.1085 -0.6293 -0.324 -0.933 -0.156 155 145 138 0 0
0.0870 0.1087 -0.6329 0.087 -0.996 -0.023 154 143 135 0 0
0.0859 0.1080 -0.6358 0.271 -0.962 0.030 152 140 133 0 0
0.0846 0.1072 -0.6387 0.312 -0.948 0.065 150 138 131 0 0
0.0863 0.1079 -0.6497 0.215 -0.977 0.015 140 130 121 0 0
0.0862 0.1077 -0.6531 0.176 -0.983 0.042 135 123 114 0 0
0.0878 0.1086 -0.6572 0.085 -0.991 0.102 133 119 109 0 0
0.0874 0.1082 -0.6605 0.126 -0.983 0.136 129 115 104 0 0
0.0424 0.0811 -0.6887 -0.280 -0.931 0.232 87 66 52 0 0
0.0416 0.0806 -0.6918 -0.280 -0.931 0.232 84 61 49 0 0
0.0122 0.0619 -0.7486 -0.426 -0.661 0.617 79 48 30 0 0
-0.0278 0.0368 -0.8147 -0.065 -0.836 0.545 86 58 39 0 0
-0.0280 0.0365 -0.8179 -0.199 -0.950 -0.240 87 59 40 0 0
-0.0371 0.0312 -0.8163 -0.889 -0.343 -0.303 87 60 42 0 0
-0.0362 0.0316 -0.8234 -0.808 -0.569 -0.152 87 59 41 0 0
-0.0348 0.0323 -0.8275 -0.773 -0.545 -0.326 89 60 40 0 0
-0.0365 0.0312 -0.8298 -0.394 -0.841 0.371 88 55 34 0 0
-0.0440 0.0257 -0.8752 -0.700 -0.555 -0.450 82 58 40 0 0
-0.0441 0.0256 -0.8784 -0.703 -0.498 -0.507 76 54 40 0 0
-0.0417 0.0269 -0.8832 -0.703 -0.498 -0.507 77 54 40 0 0
-0.0316 0.0325 -0.8923 -0.474 -0.800 -0.368 74 51 37 0 0
-0.0309 0.0328 -0.8994 -0.380 -0.903 -0.201 66 43 29 0 0
-0.0302 0.0329 -0.9133 -0.472 -0.758 0.451 67 41 27 0 0
-0.0427 0.0248 -0.9425 -0.890 -0.356 0.284 68 37 16 0 0
-0.0995 -0.0108 -1.0346 -0.773 -0.496 0.395 81 55 37 0 0
-0.1007 -0.0116 -1.0370 -0.887 -0.386 0.254 82 60 43 0 0
-0.0996 -0.0113 -1.0510 -0.924 -0.353 -0.149 81 60 45 0 0
-0.0919 -0.0077 -1.0829 -0.755 -0.650 0.086 56 41 34 0 0
-0.0881 -0.0062 -1.1158 -0.282 -0.930 -0.235 56 35 22 0 0
-0.0907 -0.0092 -1.1743 -0.492 -0.858 0.149 179 180 175 0 0
-0.0216 0.0647 0.0144 -0.501 -0.461 0.733 82 49 25 0 0
-0.0232 0.0629 -0.0210 -0.824 -0.513 -0.242 59 37 25 0 0
-0.0585 0.0397 -0.1151 -0.580 -0.714 0.392 100 79 70 0 0
-0.0590 0.0393 -0.1180 -0.689 -0.721 0.077 111 91 84 0 0
-0.0328 0.0476 -0.4054 -0.809 -0.544 0.225 76 48 36 0 0
-0.0458 0.0395 -0.4233 -0.875 -0.455 0.165 73 37 12 0 0
-0.0530 0.0350 -0.4334 -0.509 -0.847 0.155 80 51 34 0 0
0.0766 0.1093 -0.5179 0.179 -0.984 -0.007 106 90 79 0 0
0.0614 0.0994 -0.5527 -0.052 -0.994 -0.094 111 98 87 0 0
0.0620 0.0997 -0.5563 -0.052 -0.994 -0.094 110 97 85 0 0
0.0632 0.1003 -0.5601 -0.011 -0.996 -0.085 109 95 84 0 0
0.0634 0.1004 -0.5635 -0.053 -0.994 -0.091 109 95 84 0 0
0.0738 0.1047 -0.6352 0.286 -0.955 0.085 127 103 89 0 0
0.0758 0.1056 -0.6462 0.250 -0.968 0.000 119 98 79 0 0
0.0476 0.0891 -0.6413 0.053 -0.999 -0.010 118 96 78 0 0
0.0501 0.0905 -0.6457 0.004 -0.989 -0.147 118 95 79 0 0
0.0513 0.0911 -0.6496 -0.106 -0.948 -0.301 115 90 76 0 0
0.0487 0.0895 -0.6519 -0.045 -0.988 -0.151 112 87 71 0 0
0.0499 0.0901 -0.6557 0.032 -0.988 0.151 108 83 64 0 0
0.0460 0.0877 -0.6608 -0.100 -0.424 0.900 98 76 59 0 0
0.0366 0.0819 -0.6702 -0.684 -0.727 0.067 94 69 53 0 0
0.0129 0.0660 -0.7465 -0.003 -0.891 0.455 80 49 31 0 0
-0.0263 0.0413 -0.8132 -0.234 -0.934 0.268 85 55 37 0 0
-0.0305 0.0388 -0.8143 -0.123 -0.896 0.427 87 57 38 0 0
-0.0346 0.0363 -0.8153 -0.396 -0.837 -0.378 84 53 33 0 0
-0.0363 0.0353 -0.8177 -0.665 -0.616 -0.423 86 54 35 0 0
-0.0386 0.0339 -0.8198 -0.932 -0.269 -0.243 84 51 32 0 0
-0.0369 0.0348 -0.8240 -0.907 -0.374 -0.195 85 52 33 0 0
-0.0351 0.0342 -0.8914 -0.474 -0.800 -0.368 72 49 35 0 0
-0.0349 0.0341 -0.8982 -0.380 -0.903 -0.201 64 41 27 0 0
-0.0354 0.0336 -0.9079 -0.286 -0.941 0.180 56 33 19 0 0
-0.0737 0.0089 -0.9938 -0.999 -0.011 0.033 91 74 65 0 0
-0.0991 -0.0081 -1.0757 -0.545 -0.638 -0.543 71 54 46 0 0
-0.0914 -0.0045 -1.1146 -0.129 -0.985 0.114 49 30 17 0 0
0.0054 0.0852 0.0609 -0.326 -0.868 0.374 74 46 31 0 0
-0.0189 0.0701 0.0289 -0.182 -0.781 0.598 120 98 84 0 0
-0.0192 0.0699 0.0260 -0.031 -0.711 0.703 117 94 78 0 0
-0.0239 0.0668 0.0144 -0.523 -0.511 0.683 82 45 24 0 0
-0.0259 0.0649 -0.0151 -0.741 -0.624 -0.248 52 29 15 0 0
-0.0007 0.0784 -0.0710 -0.177 -0.391 0.903 17 10 9 0 0
-0.0597 0.0425 -0.1123 -0.606 -0.529 0.594 80 59 50 0 0
-0.0606 0.0419 -0.1151 -0.614 -0.647 0.452 93 73 64 0 0
-0.0612 0.0415 -0.1180 -0.687 -0.725 0.051 113 94 87 0 0
-0.0644 0.0393 -0.1264 -0.690 -0.672 0.270 85 56 42 0 0
-0.0700 0.0355 -0.1462 -0.599 -0.536 0.595 54 35 21 0 0
-0.0700 0.0355 -0.1491 -0.611 -0.766 0.202 56 40 29 0 0
-0.0757 0.0319 -0.1571 -0.875 -0.429 0.226 61 48 40 0 0
-0.0737 0.0330 -0.1604 -0.577 -0.811 -0.097 61 48 40 0 0
-0.0400 0.0521 -0.1957 -0.955 -0.298 -0.009 62 47 40 0 0
-0.0113 0.0681 -0.2344 -0.980 -0.178 -0.093 64 47 38 0 0
-0.0130 0.0670 -0.2372 -0.804 -0.591 -0.065 65 48 39 0 0
-0.0127 0.0659 -0.2898 -0.809 -0.538 0.237 62 40 29 0 0
-0.0350 0.0499 -0.4053 -0.788 -0.615 0.028 79 51 37 0 0
-0.0534 0.0384 -0.4308 -0.683 -0.561 0.468 73 37 15 0 0
0.0530 0.0985 -0.5437 -0.046 -0.997 -0.059 92 71 58 0 0
0.0537 0.0988 -0.5473 -0.102 -0.988 -0.118 93 76 62 0 0
0.0545 0.0992 -0.5509 -0.102 -0.988 -0.118 96 79 65 0 0
0.0386 0.0896 -0.5584 -0.999 -0.046 -0.006 96 78 64 0 0
0.0368 0.0885 -0.5611 -0.790 -0.611 0.045 96 78 65 0 0
0.0468 0.0929 -0.6216 -0.243 -0.846 0.474 111 84 65 0 0
0.0451 0.0918 -0.6243 -0.437 -0.782 0.444 112 85 66 0 0
0.0437 0.0909 -0.6270 -0.457 -0.820 0.343 111 86 64 0 0
0.0388 0.0880 -0.6284 -0.471 -0.802 0.367 113 87 65 0 0
0.0351 0.0857 -0.6302 -0.270 -0.924 0.273 112 85 64 0 0
0.0365 0.0865 -0.6341 -0.376 -0.911 0.168 114 86 65 0 0
0.0375 0.0870 -0.6379 -0.435 -0.900 -0.013 114 87 66 0 0
0.0427 0.0899 -0.6434 -0.228 -0.921 -0.317 115 89 68 0 0
0.0448 0.0910 -0.6476 -0.210 -0.921 -0.329 110 86 65 0 0
0.0466 0.0920 -0.6518 -0.171 -0.944 -0.283 109 82 61 0 0
0.0349 0.0846 -0.6703 -0.290 -0.909 0.299 87 61 44 0 0
0.0340 0.0840 -0.6733 -0.329 -0.881 0.340 83 57 40 0 0
0.0345 0.0842 -0.6768 -0.378 -0.870 0.317 83 57 40 0 0
0.0366 0.0854 -0.6811 -0.661 -0.588 0.466 83 57 39 0 0
0.0350 0.0843 -0.6872 -0.822 -0.567 0.059 81 55 36 0 0
0.0102 0.0682 -0.7427 -0.617 0.070 0.784 80 45 26 0 0
-0.0386 0.0377 -0.8142 -0.396 -0.837 -0.378 80 47 28 0 0
-0.0386 0.0376 -0.8175 -0.665 -0.616 -0.423 80 45 26 0 0
-0.0389 0.0373 -0.8206 -0.962 -0.049 -0.267 82 47 28 0 0
-0.0385 0.0375 -0.8241 -0.975 -0.124 0.183 92 57 37 0 0
-0.0386 0.0374 -0.8274 -0.996 0.092 -0.015 86 51 29 0 0
-0.0327 0.0392 -0.8939 -0.443 -0.704 -0.556 72 49 35 0 0
-0.0434 0.0328 -0.8976 -0.674 -0.657 -0.338 60 37 23 0 0
-0.0419 0.0336 -0.9018 -0.472 -0.826 -0.308 56 33 19 0 0
-0.0394 0.0348 -0.9099 -0.472 -0.787 0.397 55 32 17 0 0
-0.0433 0.0325 -0.9110 -0.488 -0.594 0.640 70 45 29 0 0
-0.0734 0.0131 -0.9753 -0.177 -0.807 0.564 99 82 74 0 0
-0.0755 0.0115 -0.9905 -0.302 -0.947 0.109 97 80 72 0 0
-0.0751 0.0117 -0.9941 -0.736 -0.643 -0.212 93 77 69 0 0
-0.1101 -0.0099 -1.0296 -0.852 -0.465 0.239 79 54 30 0 0
-0.1035 -0.0070 -1.0705 -0.602 -0.694 -0.395 76 59 47 0 0
-0.0071 0.0781 -0.0736 -0.380 -0.665 0.643 30 19 14 0 0
-0.0611 0.0451 -0.1094 -0.386 -0.286 0.877 85 65 56 0 0
-0.0613 0.0449 -0.1123 -0.586 -0.415 0.696 75 55 46 0 0
-0.0634 0.0436 -0.1179 -0.687 -0.725 0.051 115 97 90 0 0
-0.0642 0.0430 -0.1208 -0.729 -0.684 0.015 122 104 97 0 0
-0.0662 0.0417 -0.1264 -0.736 -0.668 0.111 85 55 42 0 0
-0.0665 0.0415 -0.1293 -0.739 -0.663 0.118 75 42 23 0 0
-0.0777 0.0341 -0.1571 -0.628 -0.777 0.050 61 49 41 0 0
-0.0751 0.0355 -0.1634 -0.567 -0.818 0.101 61 48 40 0 0
-0.0392 0.0560 -0.1961 -0.780 -0.616 -0.111 61 46 39 0 0
-0.0388 0.0511 -0.4078 -0.631 -0.768 0.111 102 81 67 0 0
-0.0555 0.0406 -0.4307 -0.724 -0.592 0.355 72 36 15 0 0
-0.0526 0.0422 -0.4347 -0.610 -0.789 0.066 74 44 25 0 0
0.0189 0.0774 -0.7311 -0.803 -0.206 0.558 71 40 20 0 0
-0.0081 0.0610 -0.7481 -0.616 -0.788 0.019 76 43 23 0 0
-0.0408 0.0399 -0.8172 -0.665 -0.616 -0.423 77 42 23 0 0
-0.0398 0.0404 -0.8211 -0.869 -0.311 -0.385 82 47 28 0 0
-0.0394 0.0406 -0.8246 -0.891 -0.441 -0.111 85 50 30 0 0
-0.0451 0.0355 -0.8943 -0.142 -0.801 0.582 64 41 27 0 0
-0.0443 0.0358 -0.9014 -0.341 -0.908 -0.243 58 35 21 0 0
-0.0717 0.0179 -0.9676 -0.857 -0.277 0.434 101 84 74 0 0
-0.0780 0.0136 -0.9900 -0.525 -0.790 -0.317 96 79 71 0 0
-0.0775 0.0139 -0.9937 -0.655 -0.722 -0.222 91 75 67 0 0
-0.0774 0.0138 -1.0004 -0.419 -0.717 0.557 83 69 60 0 0
-0.1012 -0.0022 -1.0734 -0.525 -0.782 0.337 77 61 46 0 0
-0.0995 -0.0032 -1.1547 -0.478 -0.777 0.411 80 62 47 0 0
-0.1006 -0.0038 -1.1573 -0.478 -0.777 0.411 75 61 45 0 0
-0.0958 -0.0012 -1.1643 -0.587 -0.804 0.094 85 74 60 0 0
-0.0014 0.0882 0.0609 -0.604 -0.795 0.051 66 37 22 0 0
-0.0017 0.0880 0.0579 -0.642 -0.751 0.156 73 44 30 0 0
-0.0020 0.0877 0.0549 -0.642 -0.751 0.156 88 64 51 0 0
-0.0306 0.0697 0.0145 -0.803 -0.424 0.418 63 34 15 0 0
0.0169 0.0962 -0.0578 -1.000 -0.009 0.008 16 10 10 0 0
-0.0147 0.0770 -0.0761 -0.491 -0.635 0.597 60 44 35 0 0
-0.0635 0.0471 -0.1093 -0.448 -0.247 0.859 73 53 44 0 0
-0.0631 0.0473 -0.1123 -0.618 -0.383 0.687 83 63 54 0 0
-0.0678 0.0442 -0.1235 -0.670 -0.696 0.258 110 89 80 0 0
-0.0480 0.0542 -0.2009 -0.435 -0.820 0.373 61 46 39 0 0
0.0048 0.0817 -0.3577 -0.714 -0.670 0.203 50 32 22 0 0
-0.0429 0.0523 -0.4040 -0.745 -0.633 -0.211 59 30 19 0 0
-0.0572 0.0431 -0.4307 -0.830 -0.437 0.346 71 37 17 0 0
-0.0552 0.0442 -0.4344 -0.746 -0.598 0.293 73 44 26 0 0
0.0390 0.0956 -0.6267 -0.227 -0.968 0.110 99 68 47 0 0
0.0280 0.0890 -0.6288 -0.598 -0.390 0.700 98 68 47 0 0
-0.0093 0.0632 -0.7784 -0.284 -0.914 0.290 78 43 22 0 0
-0.0127 0.0611 -0.7833 -0.475 -0.809 0.346 78 45 23 0 0
-0.0228 0.0549 -0.7914 -0.777 -0.406 -0.481 75 40 19 0 0
-0.0344 0.0477 -0.8019 -0.506 -0.822 0.260 74 39 19 0 0
-0.0378 0.0457 -0.8034 -0.423 -0.819 0.388 75 39 19 0 0
-0.0386 0.0450 -0.8095 -0.548 -0.817 0.178 74 38 19 0 0
-0.0403 0.0440 -0.8119 -0.697 -0.425 0.578 75 39 20 0 0
-0.0437 0.0419 -0.8134 -0.705 -0.647 -0.288 76 41 22 0 0
-0.0431 0.0422 -0.8170 -0.665 -0.616 -0.423 79 44 25 0 0
-0.0408 0.0434 -0.8215 -0.690 -0.498 -0.525 81 46 27 0 0
-0.0438 0.0416 -0.8232 -0.420 -0.893 -0.161 82 47 28 0 0
-0.0704 0.0223 -0.9663 -0.675 -0.716 0.180 95 78 69 0 0
-0.0745 0.0199 -0.9670 -0.750 -0.440 0.493 99 82 72 0 0
-0.0841 0.0138 -0.9839 -0.443 -0.882 -0.160 101 84 76 0 0
-0.0812 0.0154 -0.9891 -0.525 -0.790 -0.317 98 81 73 0 0
-0.0801 0.0159 -0.9931 -0.577 -0.804 -0.143 95 79 71 0 0
-0.1048 -0.0026 -1.1520 -0.686 -0.693 0.220 80 62 44 0 0
-0.1041 -0.0024 -1.1593 -0.577 -0.792 -0.198 81 68 53 0 0
-0.0990 0.0004 -1.1700 -0.684 -0.645 0.340 146 141 131 0 0
-0.0034 0.0904 0.0578 -0.651 -0.749 -0.121 71 42 28 0 0
-0.0059 0.0888 0.0520 -0.927 -0.250 0.278 93 70 60 0 0
-0.0157 0.0799 -0.0731 -0.297 -0.787 0.540 23 13 8 0 0
-0.0172 0.0790 -0.0760 -0.491 -0.635 0.597 53 38 30 0 0
-0.0697 0.0468 -0.1117 -0.702 -0.526 -0.479 83 63 54 0 0
-0.0713 0.0455 -0.1262 -0.559 -0.715 0.421 80 53 37 0 0
-0.0700 0.0460 -0.1382 -0.672 -0.680 0.293 53 26 12 0 0
-0.0173 0.0744 -0.2652 -0.403 -0.889 -0.219 60 41 34 0 0
0.0019 0.0837 -0.3574 -0.625 -0.776 0.087 48 30 21 0 0
-0.0131 0.0737 -0.3976 -0.576 -0.717 0.392 64 34 23 0 0
-0.0628 0.0433 -0.4326 -0.630 -0.716 0.302 67 39 22 0 0
0.0278 0.0926 -0.6329 -0.556 -0.829 0.058 93 60 35 0 0
-0.0096 0.0670 -0.7658 -0.943 -0.305 -0.130 74 42 17 0 0
-0.0107 0.0663 -0.7686 -0.850 -0.420 -0.319 74 41 18 0 0
-0.0128 0.0649 -0.7742 -0.438 -0.869 -0.229 77 42 20 0 0
-0.0133 0.0645 -0.7773 -0.399 -0.916 0.035 76 40 18 0 0
-0.0396 0.0483 -0.8034 -0.822 -0.463 0.332 72 36 17 0 0
-0.0413 0.0471 -0.8090 -0.802 -0.543 0.249 72 35 16 0 0
-0.0469 0.0437 -0.8126 -0.766 -0.615 -0.187 76 40 21 0 0
-0.0452 0.0446 -0.8168 -0.744 -0.587 -0.319 79 44 25 0 0
-0.0459 0.0441 -0.8198 -0.675 -0.567 -0.472 80 46 26 0 0
-0.0445 0.0448 -0.8238 -0.700 -0.638 -0.320 82 47 27 0 0
-0.0639 0.0328 -0.8427 -0.668 -0.659 -0.346 80 43 16 0 0
-0.0729 0.0245 -0.9658 -0.631 -0.764 0.138 98 81 72 0 0
-0.0889 0.0146 -0.9786 -0.465 -0.704 0.537 101 84 76 0 0
-0.0874 0.0154 -0.9828 -0.535 -0.813 -0.230 101 84 76 0 0
-0.0878 0.0150 -0.9892 -0.472 -0.879 -0.062 96 80 72 0 0
-0.0895 0.0139 -0.9914 -0.639 -0.769 0.026 91 77 68 0 0
-0.1084 -0.0001 -1.1073 -0.745 -0.662 0.083 47 28 18 0 0
-0.1070 -0.0003 -1.1517 -0.686 -0.693 0.220 80 62 45 0 0
-0.1076 -0.0007 -1.1546 -0.686 -0.693 0.220 74 58 42 0 0
-0.1068 -0.0004 -1.1585 -0.594 -0.788 -0.163 78 66 50 0 0
-0.1011 0.0028 -1.1697 -0.684 -0.645 0.340 140 134 124 0 0
0.0065 0.1002 0.0725 -0.042 -0.893 0.447 82 55 36 0 0
-0.0092 0.0904 0.0549 -0.236 -0.924 0.300 70 43 29 0 0
-0.0369 0.0733 0.0351 -0.499 -0.859 0.111 135 115 106 0 0
-0.0205 0.0807 -0.0699 -0.247 -0.924 0.291 12 6 6 0 0
-0.0371 0.0700 -0.0981 -0.782 -0.589 0.204 66 48 41 0 0
-0.0721 0.0481 -0.1381 -0.672 -0.680 0.293 51 24 9 0 0
-0.0769 0.0449 -0.1522 -0.448 -0.892 0.066 53 40 33 0 0
-0.0815 0.0420 -0.1603 -0.690 -0.699 0.189 56 48 37 0 0
-0.0116 0.0803 -0.3105 -0.933 -0.341 -0.118 89 75 66 0 0
-0.0112 0.0805 -0.3137 -0.933 -0.341 -0.118 93 71 56 0 0
-0.0145 0.0765 -0.3977 -0.425 -0.624 0.656 62 34 23 0 0
-0.0652 0.0454 -0.4293 -0.757 -0.654 0.002 65 31 12 0 0
-0.0657 0.0450 -0.4322 -0.731 -0.655 -0.193 67 38 21 0 0
0.0226 0.0932 -0.6315 -0.618 -0.781 0.092 89 55 28 0 0
0.0221 0.0928 -0.6346 -0.760 -0.634 -0.146 93 59 32 0 0
-0.0003 0.0784 -0.6781 -0.849 -0.487 -0.204 69 37 16 0 0
-0.0001 0.0784 -0.6815 -0.930 -0.365 -0.051 70 35 16 0 0
0.0006 0.0787 -0.6851 -0.942 -0.214 0.257 67 33 14 0 0
-0.0009 0.0778 -0.6877 -0.855 -0.086 0.512 66 33 14 0 0
-0.0078 0.0720 -0.7577 -0.577 -0.073 0.814 63 31 10 0 0
-0.0095 0.0709 -0.7601 -0.703 0.009 0.711 68 36 14 0 0
-0.0099 0.0706 -0.7633 -0.935 -0.355 0.010 72 40 17 0 0
-0.0105 0.0702 -0.7663 -0.921 -0.382 -0.077 72 40 17 0 0
-0.0407 0.0513 -0.8005 -0.924 -0.344 0.169 68 36 15 0 0
-0.0430 0.0499 -0.8025 -0.812 -0.100 0.576 69 34 14 0 0
-0.0433 0.0495 -0.8090 -0.939 -0.254 -0.233 72 35 16 0 0
-0.0483 0.0465 -0.8129 -0.721 -0.682 0.120 72 37 17 0 0
-0.0477 0.0467 -0.8165 -0.796 -0.585 -0.155 75 40 20 0 0
-0.0787 0.0246 -0.9665 -0.424 -0.741 0.520 102 85 77 0 0
-0.0931 0.0157 -0.9803 -0.724 -0.650 -0.233 103 84 77 0 0
-0.0925 0.0159 -0.9873 -0.881 -0.449 0.151 99 83 75 0 0
-0.1213 -0.0027 -1.0431 -0.776 -0.600 0.193 84 63 46 0 0
-0.1094 0.0019 -1.1513 -0.713 -0.643 0.280 82 65 48 0 0
-0.1101 0.0014 -1.1541 -0.639 -0.732 0.235 73 57 41 0 0
-0.1096 0.0015 -1.1578 -0.594 -0.788 -0.163 75 62 47 0 0
0.0111 0.1069 0.0904 -0.625 -0.699 0.348 125 101 86 0 0
0.0032 0.1017 0.0725 -0.617 -0.786 0.037 77 47 31 0 0
-0.0097 0.0939 0.0697 -0.807 -0.532 0.257 73 42 25 0 0
-0.0387 0.0757 0.0351 -0.544 -0.818 0.185 135 116 108 0 0
-0.0530 0.0667 0.0181 -0.753 -0.555 0.354 71 40 23 0 0
-0.0211 0.0838 -0.0700 -0.419 -0.873 0.249 11 6 6 0 0
-0.0400 0.0718 -0.0980 -0.600 -0.710 0.369 60 41 34 0 0
-0.0699 0.0532 -0.1210 -0.457 -0.869 -0.191 133 118 112 0 0
-0.0763 0.0487 -0.1525 -0.548 -0.797 0.255 54 41 34 0 0
-0.0177 0.0802 -0.3095 -0.525 -0.811 -0.259 86 73 65 0 0
0.0030 0.0877 -0.5226 -0.362 -0.926 -0.104 65 39 24 0 0
0.0211 0.0963 -0.6217 -0.480 -0.815 0.324 85 52 26 0 0
-0.0023 0.0809 -0.6747 -0.652 -0.690 0.314 70 37 17 0 0
-0.0085 0.0760 -0.7282 -0.869 -0.088 0.488 61 28 11 0 0
-0.0100 0.0750 -0.7308 -0.802 0.152 0.578 61 28 11 0 0
-0.0417 0.0542 -0.8075 -0.371 -0.928 -0.032 67 32 13 0 0
-0.0440 0.0527 -0.8129 -0.753 -0.545 0.368 70 35 16 0 0
-0.0496 0.0492 -0.8164 -0.278 -0.918 0.282 71 36 16 0 0
-0.0498 0.0490 -0.8196 -0.222 -0.965 -0.136 71 36 16 0 0
-0.0714 0.0348 -0.8699 -0.909 -0.307 0.281 81 56 39 0 0
-0.0707 0.0352 -0.8736 -0.778 -0.604 0.174 73 50 36 0 0
-0.0713 0.0348 -0.8766 -0.725 -0.394 -0.565 69 46 33 0 0
-0.0453 0.0490 -0.9354 -0.650 -0.698 0.301 75 48 31 0 0
-0.0951 0.0180 -0.9801 -0.780 -0.558 -0.284 104 88 80 0 0
-0.0940 0.0185 -0.9874 -0.922 -0.295 0.251 101 87 78 0 0
-0.0943 0.0183 -0.9906 -0.864 -0.440 0.243 94 80 72 0 0
-0.0944 0.0181 -0.9938 -0.722 -0.277 0.634 86 69 62 0 0
-0.0937 0.0184 -1.0009 -0.757 -0.654 0.007 75 56 44 0 0
-0.0939 0.0182 -1.0040 -0.772 -0.620 -0.141 71 46 35 0 0
-0.1228 -0.0000 -1.0400 -0.716 -0.663 0.219 83 62 45 0 0
-0.1082 0.0083 -1.0603 -0.882 -0.366 0.299 81 59 45 0 0
-0.1115 0.0054 -1.0976 -0.711 -0.674 0.199 46 29 21 0 0
-0.1116 0.0053 -1.1009 -0.678 -0.735 0.012 52 35 26 0 0
-0.1250 -0.0034 -1.1273 -0.836 -0.531 0.140 83 60 42 0 0
-0.1128 0.0034 -1.1500 -0.544 -0.801 0.251 82 64 47 0 0
-0.1134 0.0030 -1.1528 -0.544 -0.801 0.251 71 56 40 0 0
-0.1060 0.0071 -1.1687 -0.541 -0.806 0.241 129 124 112 0 0
0.0048 0.1062 0.0724 -0.590 -0.806 -0.053 69 37 22 0 0
-0.0114 0.0964 0.0697 -0.807 -0.532 0.257 66 33 18 0 0
-0.0410 0.0777 0.0350 -0.718 -0.695 0.031 143 125 118 0 0
-0.0573 0.0673 0.0095 -0.836 -0.471 0.281 61 30 12 0 0
-0.0477 0.0725 -0.0175 -0.935 -0.314 0.164 47 24 11 0 0
-0.0265 0.0840 -0.0727 -0.586 -0.742 0.326 19 13 10 0 0
-0.0258 0.0843 -0.0758 -0.595 -0.674 0.438 39 27 19 0 0
-0.0358 0.0779 -0.0927 -0.893 -0.432 0.129 44 24 17 0 0
-0.0787 0.0516 -0.1113 -0.365 -0.770 -0.524 85 65 56 0 0
-0.0741 0.0541 -0.1207 -0.759 -0.607 0.235 126 111 106 0 0
-0.0761 0.0529 -0.1234 -0.724 -0.513 0.461 109 89 81 0 0
-0.0802 0.0503 -0.1287 -0.644 -0.740 0.195 67 35 18 0 0
-0.0214 0.0817 -0.3059 -0.441 -0.772 -0.457 82 67 59 0 0
-0.0190 0.0830 -0.3096 -0.491 -0.858 -0.154 86 74 67 0 0
-0.0194 0.0827 -0.3126 -0.514 -0.856 -0.056 77 58 49 0 0
-0.0044 0.0834 -0.6746 -0.751 -0.606 0.263 69 37 16 0 0
-0.0002 0.0856 -0.6897 -0.852 -0.519 0.070 64 33 13 0 0
-0.0103 0.0777 -0.7649 -0.898 -0.247 -0.365 66 34 11 0 0
-0.0449 0.0559 -0.8101 -0.762 -0.595 0.257 65 32 13 0 0
-0.0458 0.0552 -0.8129 -0.581 -0.551 0.599 64 31 12 0 0
-0.0646 0.0423 -0.8849 -0.776 -0.394 -0.492 63 41 29 0 0
-0.0537 0.0474 -0.9447 -0.717 -0.682 0.144 60 31 13 0 0
-0.0745 0.0344 -0.9683 -0.661 -0.678 0.321 97 80 72 0 0
-0.0756 0.0336 -0.9709 -0.759 -0.503 0.413 97 80 72 0 0
-0.0974 0.0202 -0.9798 -0.854 -0.494 -0.166 100 86 77 0 0
-0.0965 0.0206 -0.9869 -0.935 -0.355 0.009 102 88 79 0 0
-0.1230 0.0035 -1.0345 -0.698 -0.708 0.107 84 61 40 0 0
-0.1153 0.0067 -1.0994 -0.839 -0.512 0.185 54 38 30 0 0
-0.0437 0.0795 0.0350 -0.802 -0.472 -0.365 155 138 131 0 0
-0.0569 0.0711 0.0181 -0.744 -0.540 0.393 66 34 19 0 0
-0.0595 0.0694 0.0095 -0.853 -0.407 0.327 62 30 15 0 0
-0.0603 0.0688 0.0066 -0.853 -0.407 0.327 59 29 12 0 0
-0.0199 0.0917 -0.0645 -0.369 -0.574 0.731 8 7 5 0 0
-0.0300 0.0855 -0.0665 -0.216 -0.792 0.571 9 7 5 0 0
-0.0294 0.0857 -0.0726 -0.659 -0.747 0.088 17 10 7 0 0
-0.0281 0.0864 -0.0757 -0.595 -0.674 0.438 38 26 20 0 0
-0.0767 0.0562 -0.1118 -0.483 -0.869 0.110 68 46 38 0 0
-0.0762 0.0563 -0.1207 -0.892 -0.409 0.194 121 106 99 0 0
-0.0339 0.0781 -0.2880 -0.541 -0.694 0.476 56 38 27 0 0
-0.0266 0.0822 -0.3020 -0.536 -0.667 -0.518 47 29 21 0 0
-0.0248 0.0832 -0.3056 -0.514 -0.730 -0.451 79 64 56 0 0
-0.0217 0.0850 -0.3094 -0.658 -0.750 0.062 67 51 45 0 0
-0.0168 0.0871 -0.3450 -0.580 -0.542 -0.608 38 23 16 0 0
-0.0238 0.0820 -0.3841 -0.850 -0.466 0.247 53 29 17 0 0
0.0036 0.0950 -0.5438 -0.731 -0.550 0.405 62 35 20 0 0
0.0021 0.0940 -0.5465 -0.565 -0.818 0.112 60 34 18 0 0
0.0025 0.0941 -0.5499 -0.700 -0.714 -0.009 59 33 18 0 0
0.0083 0.0956 -0.6378 -0.834 -0.539 -0.120 98 65 34 0 0
-0.0084 0.0835 -0.7267 -0.797 -0.526 0.298 63 30 11 0 0
-0.0313 0.0693 -0.7421 -0.668 -0.443 -0.597 61 28 11 0 0
-0.0189 0.0764 -0.7616 -0.411 -0.725 -0.552 65 33 10 0 0
-0.0167 0.0776 -0.7660 -0.451 -0.821 -0.351 66 34 11 0 0
-0.0300 0.0692 -0.7792 -0.744 -0.582 0.329 63 31 10 0 0
-0.0725 0.0414 -0.8714 -0.698 -0.714 -0.060 79 53 37 0 0
-0.0724 0.0414 -0.8747 -0.744 -0.553 -0.376 71 48 34 0 0
-0.0639 0.0462 -0.8863 -0.771 -0.387 -0.506 62 41 29 0 0
-0.0615 0.0476 -0.8911 -0.771 -0.387 -0.506 58 37 24 0 0
-0.0580 0.0495 -0.8998 -0.651 -0.759 -0.010 52 30 17 0 0
-0.0564 0.0503 -0.9074 -0.738 -0.669 -0.085 50 30 16 0 0
-0.0773 0.0362 -0.9709 -0.759 -0.503 0.413 95 78 70 0 0
-0.0979 0.0234 -0.9872 -0.910 -0.412 0.053 100 86 77 0 0
-0.1001 0.0220 -0.9891 -0.921 -0.225 0.319 92 77 69 0 0
-0.0955 0.0246 -0.9954 -0.835 -0.082 0.544 88 71 64 0 0
-0.1276 0.0042 -1.0390 -0.848 -0.515 0.129 83 63 46 0 0
-0.1279 0.0039 -1.0421 -0.807 -0.516 0.287 82 62 47 0 0
0.0023 0.1122 0.0903 -0.551 -0.597 0.583 135 108 94 0 0
-0.0376 0.0866 0.0289 -0.589 -0.627 0.510 133 117 106 0 0
-0.0637 0.0704 0.0154 -0.730 -0.654 0.201 67 35 20 0 0
-0.0641 0.0701 0.0125 -0.730 -0.654 0.201 62 31 16 0 0
-0.0229 0.0934 -0.0644 -0.311 -0.526 0.791 7 6 4 0 0
-0.0322 0.0874 -0.0785 -0.724 -0.662 0.194 69 56 49 0 0
-0.0789 0.0582 -0.1147 -0.717 -0.693 -0.080 91 73 65 0 0
-0.0786 0.0583 -0.1206 -0.829 -0.504 0.242 119 104 96 0 0
-0.0855 0.0537 -0.1373 -0.735 -0.660 0.157 57 30 14 0 0
-0.0350 0.0811 -0.2850 -0.428 -0.868 0.253 56 38 28 0 0
-0.0268 0.0856 -0.3055 -0.586 -0.498 -0.639 70 55 48 0 0
-0.0194 0.0892 -0.3449 -0.628 -0.602 -0.493 37 22 16 0 0
-0.0181 0.0897 -0.3578 -0.911 -0.342 0.230 37 20 13 0 0
-0.0184 0.0894 -0.3609 -0.837 -0.510 0.200 37 20 13 0 0
-0.0164 0.0904 -0.3708 -0.432 -0.884 0.178 47 30 21 0 0
-0.0268 0.0837 -0.3869 -0.595 -0.748 0.295 52 26 15 0 0
-0.0702 0.0565 -0.4238 -0.906 -0.387 -0.171 66 33 16 0 0
-0.0722 0.0551 -0.4356 -0.821 -0.571 -0.022 68 46 31 0 0
0.0009 0.0977 -0.5109 -0.802 -0.591 -0.086 56 33 17 0 0
0.0014 0.0953 -0.6324 -0.630 -0.777 0.025 95 62 31 0 0
0.0040 0.0959 -0.6767 -0.838 -0.510 -0.193 67 35 15 0 0
-0.0134 0.0844 -0.7153 -0.971 -0.235 0.045 63 30 11 0 0
-0.0085 0.0872 -0.7276 -0.666 -0.703 -0.249 65 32 13 0 0
-0.0300 0.0736 -0.7469 -0.392 -0.806 -0.444 62 29 11 0 0
-0.0257 0.0761 -0.7557 -0.267 -0.963 0.030 65 33 12 0 0
-0.0290 0.0737 -0.7707 -0.527 -0.551 0.647 68 36 12 0 0
-0.0701 0.0464 -0.8738 -0.675 -0.735 -0.065 79 52 37 0 0
-0.0643 0.0496 -0.8871 -0.843 -0.277 -0.462 62 41 29 0 0
-0.0632 0.0502 -0.8912 -0.814 -0.293 -0.501 57 37 24 0 0
-0.0594 0.0523 -0.9000 -0.908 -0.416 -0.058 48 26 13 0 0
-0.0589 0.0525 -0.9037 -0.819 -0.494 -0.291 48 27 14 0 0
-0.0583 0.0528 -0.9074 -0.849 -0.494 -0.186 47 28 14 0 0
-0.0857 0.0348 -0.9667 -0.829 -0.557 -0.050 95 78 70 0 0
-0.1000 0.0257 -0.9870 -0.821 -0.560 -0.109 97 84 76 0 0
-0.1003 0.0255 -0.9901 -0.936 -0.322 0.140 92 78 71 0 0
-0.1279 0.0076 -1.0368 -0.849 -0.471 0.241 82 60 40 0 0
-0.1292 0.0068 -1.0392 -0.848 -0.515 0.129 83 62 45 0 0
-0.1296 0.0065 -1.0422 -0.807 -0.516 0.287 85 64 50 0 0
-0.0383 0.0896 0.0288 -0.670 -0.743 -0.009 141 125 114 0 0
-0.0637 0.0739 0.0182 -0.837 -0.532 0.132 74 45 28 0 0
-0.0661 0.0723 0.0125 -0.730 -0.654 0.201 64 35 19 0 0
-0.0663 0.0719 0.0008 -0.612 -0.781 -0.123 52 25 8 0 0
-0.0661 0.0720 -0.0021 -0.825 -0.470 0.313 48 22 8 0 0
-0.0290 0.0931 -0.0670 -0.325 -0.501 0.802 8 5 6 0 0
-0.0353 0.0890 -0.0814 -0.779 -0.616 0.121 58 44 37 0 0
-0.0509 0.0790 -0.1006 -0.522 -0.838 0.155 56 36 26 0 0
-0.0476 0.0810 -0.1040 -0.399 -0.897 -0.191 57 37 26 0 0
-0.0808 0.0605 -0.1147 -0.690 -0.724 -0.030 89 71 63 0 0
-0.0381 0.0828 -0.2817 -0.829 -0.536 0.160 52 35 27 0 0
-0.0248 0.0903 -0.3095 -0.874 -0.474 0.111 73 58 53 0 0
-0.0222 0.0908 -0.3572 -0.883 -0.400 -0.246 38 21 14 0 0
-0.0204 0.0918 -0.3608 -0.885 -0.423 0.196 35 18 11 0 0
-0.0197 0.0920 -0.3705 -0.432 -0.884 0.178 41 25 17 0 0
-0.0667 0.0625 -0.4069 -0.811 -0.568 0.141 87 67 59 0 0
-0.0671 0.0623 -0.4099 -0.778 -0.582 0.237 102 85 77 0 0
-0.0676 0.0619 -0.4128 -0.778 -0.582 0.237 100 81 72 0 0
-0.0674 0.0619 -0.4160 -0.678 -0.724 0.128 74 44 25 0 0
-0.0732 0.0580 -0.4358 -0.851 -0.485 0.199 67 45 30 0 0
-0.0754 0.0566 -0.4382 -0.884 -0.351 0.308 69 51 36 0 0
-0.0023 0.0999 -0.4909 -0.981 0.015 0.194 56 33 19 0 0
-0.0057 0.0976 -0.5027 -0.912 -0.395 0.109 55 31 20 0 0
-0.0028 0.0990 -0.5167 -0.847 -0.519 -0.113 58 35 19 0 0
-0.0027 0.0990 -0.5200 -0.851 -0.356 -0.385 56 33 17 0 0
-0.0081 0.0952 -0.5441 -0.528 -0.841 0.117 60 34 19 0 0
0.0010 0.0983 -0.6529 -0.657 -0.733 0.176 79 44 16 0 0
0.0097 0.1026 -0.6968 -0.825 -0.554 -0.112 58 29 11 0 0
-0.0163 0.0864 -0.7147 -0.444 -0.858 -0.258 63 30 11 0 0
-0.0116 0.0890 -0.7270 -0.798 -0.503 -0.333 64 31 12 0 0
-0.0147 0.0871 -0.7288 -0.415 -0.883 -0.217 64 31 12 0 0
-0.0421 0.0701 -0.7386 -0.289 -0.803 -0.521 61 28 11 0 0
-0.0320 0.0756 -0.7700 -0.673 -0.740 -0.016 67 35 13 0 0
-0.0314 0.0757 -0.7803 -0.837 -0.525 0.155 65 33 12 0 0
-0.0721 0.0488 -0.8770 -0.612 -0.786 0.084 71 48 35 0 0
-0.0830 0.0404 -0.9530 -0.598 -0.742 -0.302 82 61 49 0 0
-0.0826 0.0406 -0.9565 -0.729 -0.684 -0.001 86 71 59 0 0
-0.0874 0.0375 -0.9667 -0.857 -0.502 0.112 94 77 69 0 0
-0.1017 0.0282 -0.9903 -0.892 -0.438 0.115 93 78 73 0 0
-0.1246 0.0115 -1.1131 -0.833 -0.550 -0.053 75 41 19 0 0
-0.0654 0.0762 0.0181 -0.789 -0.548 0.277 74 46 28 0 0
-0.0689 0.0740 0.0096 -0.752 -0.658 0.020 68 41 24 0 0
-0.0694 0.0734 -0.0020 -0.828 -0.420 0.372 62 36 18 0 0
-0.0517 0.0834 -0.0355 -0.563 -0.718 0.409 28 16 12 0 0
-0.0365 0.0917 -0.0845 -0.867 -0.490 0.092 52 31 23 0 0
-0.0497 0.0832 -0.1040 -0.376 -0.901 -0.215 60 40 29 0 0
-0.0821 0.0630 -0.1207 -0.557 -0.726 0.404 135 120 113 0 0
-0.0830 0.0624 -0.1235 -0.716 -0.681 0.152 115 96 87 0 0
-0.0888 0.0587 -0.1286 -0.713 -0.680 0.169 58 28 9 0 0
-0.0903 0.0574 -0.1460 -0.771 -0.578 0.267 49 25 12 0 0
-0.0909 0.0570 -0.1488 -0.771 -0.578 0.267 51 34 23 0 0
-0.0914 0.0566 -0.1517 -0.679 -0.721 0.137 51 41 34 0 0
-0.0260 0.0923 -0.3441 -0.646 -0.738 -0.195 33 19 12 0 0
-0.0253 0.0927 -0.3474 -0.677 -0.717 -0.168 42 27 18 0 0
-0.0224 0.0939 -0.3766 -0.780 -0.549 0.301 56 36 29 0 0
-0.0683 0.0651 -0.4070 -0.776 -0.575 0.261 86 66 58 0 0
-0.0689 0.0647 -0.4099 -0.776 -0.575 0.261 96 79 71 0 0
-0.0696 0.0642 -0.4128 -0.776 -0.575 0.261 104 85 76 0 0
-0.0701 0.0638 -0.4157 -0.708 -0.647 0.284 75 45 27 0 0
-0.0070 0.1005 -0.5029 -0.957 -0.281 0.066 54 32 19 0 0
-0.0050 0.1014 -0.5133 -0.821 -0.570 0.044 58 35 19 0 0
-0.0163 0.0898 -0.7290 -0.988 -0.129 0.082 62 29 12 0 0
-0.0165 0.0896 -0.7322 -0.986 -0.146 0.076 59 26 10 0 0
-0.0334 0.0781 -0.7836 -0.932 -0.276 -0.233 60 27 10 0 0
-0.0731 0.0518 -0.8775 -0.700 -0.714 0.014 72 49 36 0 0
-0.0594 0.0590 -0.9290 -0.723 -0.636 0.269 75 49 34 0 0
-0.0850 0.0429 -0.9529 -0.851 -0.525 0.023 82 61 49 0 0
-0.0851 0.0427 -0.9561 -0.697 -0.714 0.069 84 68 56 0 0
-0.0853 0.0425 -0.9593 -0.697 -0.714 0.069 91 78 68 0 0
-0.0889 0.0401 -0.9669 -0.857 -0.502 0.112 95 78 70 0 0
-0.1021 0.0318 -0.9814 -0.594 -0.798 0.100 93 78 73 0 0
-0.1033 0.0309 -0.9872 -0.711 -0.689 -0.140 96 83 75 0 0
-0.1029 0.0311 -0.9907 -0.740 -0.583 0.336 96 81 76 0 0
-0.1219 0.0157 -1.1632 -0.630 -0.740 -0.237 105 98 81 0 0
-0.0340 0.0998 0.0579 -0.851 -0.367 0.375 54 25 10 0 0
-0.0685 0.0778 0.0182 -0.779 -0.476 0.408 74 49 30 0 0
-0.0703 0.0765 0.0124 -0.772 -0.430 0.468 69 43 28 0 0
-0.0710 0.0760 0.0067 -0.964 -0.212 0.159 68 42 25 0 0
-0.0704 0.0762 -0.0021 -0.813 -0.238 0.531 68 41 25 0 0
-0.0507 0.0875 -0.0387 -0.523 -0.814 0.253 19 12 7 0 0
-0.0188 0.1064 -0.0654 -0.446 -0.686 0.575 9 5 6 0 0
-0.0531 0.0846 -0.1038 -0.558 -0.806 -0.198 61 40 29 0 0
-0.0910 0.0608 -0.1285 -0.685 -0.715 0.144 61 30 11 0 0
-0.0431 0.0868 -0.2845 -0.732 -0.680 0.042 49 35 26 0 0
-0.0377 0.0895 -0.3105 -0.748 -0.284 -0.599 77 61 51 0 0
-0.0282 0.0945 -0.3472 -0.702 -0.685 0.194 34 20 13 0 0
-0.0222 0.0975 -0.3803 -0.597 -0.593 0.540 53 31 20 0 0
-0.0704 0.0674 -0.4069 -0.703 -0.562 0.435 81 61 53 0 0
-0.0713 0.0668 -0.4097 -0.665 -0.553 0.503 84 68 62 0 0
-0.0729 0.0657 -0.4123 -0.594 -0.539 0.597 104 85 76 0 0
-0.0742 0.0649 -0.4150 -0.607 -0.560 0.564 73 44 28 0 0
-0.0841 0.0587 -0.4181 -0.789 -0.580 0.201 64 32 13 0 0
-0.0098 0.1003 -0.6004 -0.468 -0.882 -0.059 70 41 24 0 0
-0.0484 0.0724 -0.7965 -0.442 -0.896 -0.051 56 26 6 0 0
-0.0786 0.0503 -0.9581 -0.562 -0.773 0.293 90 67 54 0 0
-0.0851 0.0463 -0.9573 -0.892 -0.309 0.329 89 71 59 0 0
-0.0885 0.0442 -0.9617 -0.895 -0.399 0.201 98 83 77 0 0
-0.0901 0.0431 -0.9673 -0.902 -0.425 0.080 93 78 71 0 0
-0.0912 0.0423 -0.9699 -0.914 -0.388 0.123 93 79 71 0 0
-0.1091 0.0310 -0.9845 -0.985 0.030 0.169 98 85 77 0 0
-0.1062 0.0327 -0.9897 -0.787 -0.485 0.381 98 85 78 0 0
-0.1290 0.0153 -1.1457 -0.899 -0.342 -0.274 80 60 41 0 0
-0.0338 0.1035 0.0608 -0.810 -0.573 0.126 52 23 9 0 0
-0.0693 0.0807 0.0181 -0.932 -0.162 0.325 66 44 28 0 0
-0.0695 0.0806 0.0152 -0.970 -0.051 0.238 71 48 32 0 0
-0.0702 0.0801 0.0123 -0.995 0.048 0.087 69 46 30 0 0
-0.0736 0.0777 0.0009 -0.988 0.042 0.147 66 43 27 0 0
-0.0709 0.0792 -0.0080 -0.657 -0.635 -0.406 67 43 30 0 0
-0.0669 0.0815 -0.0141 -0.486 -0.757 -0.437 65 42 29 0 0
-0.0497 0.0916 -0.0389 -0.277 -0.915 -0.293 18 10 6 0 0
-0.0575 0.0854 -0.1005 -0.857 -0.314 0.408 59 39 29 0 0
-0.0930 0.0630 -0.1285 -0.558 -0.660 0.504 64 33 15 0 0
-0.0896 0.0647 -0.1437 -0.931 -0.324 -0.167 48 22 9 0 0
-0.0950 0.0613 -0.1517 -0.828 -0.274 0.490 49 39 32 0 0
-0.0888 0.0648 -0.1644 -0.628 -0.715 -0.307 52 41 37 0 0
-0.0289 0.0977 -0.3506 -0.340 -0.935 -0.098 30 17 11 0 0
-0.0775 0.0659 -0.4330 -0.733 -0.507 0.454 62 35 17 0 0
-0.0654 0.0650 -0.8213 -0.985 -0.162 0.050 54 25 11 0 0
-0.1075 0.0356 -0.9834 -0.658 -0.415 0.628 99 86 78 0 0
-0.1350 0.0175 -1.0368 -0.761 -0.591 0.269 76 54 31 0 0
-0.1243 0.0216 -1.1540 -0.743 -0.661 0.107 77 57 40 0 0
-0.1246 0.0214 -1.1572 -0.743 -0.661 0.107 70 52 36 0 0
-0.1248 0.0211 -1.1603 -0.743 -0.661 0.107 72 60 43 0 0
-0.1264 0.0201 -1.1624 -0.701 -0.699 0.141 98 89 73 0 0
0.0403 0.1542 0.1267 -0.452 -0.714 0.534 182 182 182 0 0
0.0455 0.1573 0.1238 -0.364 -0.925 -0.111 182 181 182 0 0
-0.0376 0.1047 0.0638 -0.541 -0.805 0.245 52 23 9 0 0
-0.0355 0.1059 0.0608 -0.810 -0.573 0.126 52 23 9 0 0
-0.0434 0.1003 0.0227 -0.697 -0.706 0.125 76 51 33 0 0
-0.0594 0.0896 -0.0147 -0.301 -0.895 -0.331 62 39 28 0 0
-0.0545 0.0923 -0.0298 -0.615 -0.753 0.232 58 38 26 0 0
-0.0564 0.0910 -0.0326 -0.591 -0.795 -0.140 53 36 25 0 0
-0.0493 0.0947 -0.0689 -0.640 -0.436 0.632 13 7 9 0 0
-0.0441 0.0977 -0.0753 -0.678 -0.735 -0.003 34 23 21 0 0
-0.0575 0.0890 -0.0978 -0.857 -0.314 0.408 66 49 40 0 0
-0.0597 0.0875 -0.1035 -0.857 -0.314 0.408 59 38 27 0 0
-0.0953 0.0650 -0.1285 -0.685 -0.715 0.144 64 32 15 0 0
-0.0956 0.0648 -0.1314 -0.758 -0.652 0.003 60 29 10 0 0
-0.0915 0.0666 -0.1643 -0.808 -0.585 -0.072 58 47 43 0 0
-0.0392 0.0964 -0.2800 -0.833 -0.535 -0.143 44 29 23 0 0
-0.0380 0.0971 -0.2834 -0.880 -0.462 0.111 45 30 24 0 0
-0.0407 0.0953 -0.2858 -0.755 -0.629 0.186 47 33 25 0 0
-0.0491 0.0899 -0.2963 -0.610 -0.766 0.202 38 25 19 0 0
-0.0518 0.0882 -0.2987 -0.591 -0.773 -0.231 32 19 13 0 0
-0.0326 0.0990 -0.3501 -0.340 -0.935 -0.098 31 17 14 0 0
-0.0805 0.0676 -0.4358 -0.792 -0.610 0.036 61 37 24 0 0
-0.0158 0.1028 -0.6588 -0.759 -0.636 0.140 62 29 12 0 0
-0.0149 0.1025 -0.6990 -0.989 -0.125 0.083 57 28 10 0 0
-0.0169 0.1011 -0.7047 -0.898 -0.378 0.226 58 25 8 0 0
-0.0180 0.1004 -0.7075 -0.738 -0.460 0.494 58 25 8 0 0
-0.0170 0.1009 -0.7113 -0.631 -0.504 0.589 59 26 9 0 0
-0.0225 0.0972 -0.7286 -0.736 -0.673 -0.076 59 26 9 0 0
-0.0578 0.0741 -0.7869 -0.980 -0.035 -0.196 58 30 9 0 0
-0.0576 0.0742 -0.7903 -0.990 -0.032 -0.140 58 30 9 0 0
-0.0732 0.0640 -0.8147 -0.649 -0.018 0.761 52 23 9 0 0
-0.0685 0.0668 -0.8206 -0.560 -0.826 0.071 55 26 11 0 0
-0.1376 0.0194 -1.0427 -0.820 -0.512 0.255 80 58 37 0 0
-0.1243 0.0252 -1.1555 -0.734 -0.545 0.406 77 56 39 0 0
0.0355 0.1548 0.1266 -0.601 -0.746 0.287 182 182 182 0 0
-0.0123 0.1245 0.0931 -0.763 -0.638 0.100 134 114 105 0 0
-0.0124 0.1244 0.0901 -0.720 -0.682 0.128 166 146 137 0 0
-0.0479 0.1017 0.0580 -0.672 -0.734 -0.101 52 23 8 0 0
-0.0505 0.0993 0.0199 -0.775 -0.623 0.105 63 40 27 0 0
-0.0316 0.1092 -0.0678 -0.555 -0.535 0.637 9 4 4 0 0
-0.0472 0.0994 -0.0752 -0.635 -0.741 0.219 32 20 19 0 0
-0.0477 0.0990 -0.0782 -0.757 -0.626 0.187 60 46 41 0 0
-0.0489 0.0982 -0.0810 -0.685 -0.583 0.437 76 61 53 0 0
-0.0586 0.0918 -0.0979 -0.857 -0.314 0.408 69 52 42 0 0
-0.0893 0.0723 -0.1178 -0.897 -0.295 0.329 122 108 103 0 0
-0.0987 0.0660 -0.1458 -0.935 -0.314 -0.163 48 24 11 0 0
-0.0988 0.0658 -0.1487 -0.759 -0.624 -0.188 49 32 22 0 0
-0.0413 0.0988 -0.2769 -0.968 -0.148 0.203 46 31 25 0 0
-0.0515 0.0920 -0.2961 -0.723 -0.675 0.147 35 23 17 0 0
-0.0317 0.1032 -0.3477 -0.291 -0.937 -0.195 37 25 21 0 0
-0.0807 0.0709 -0.4394 -0.407 -0.791 0.456 67 46 34 0 0
-0.0196 0.1042 -0.6579 -0.857 -0.499 0.126 67 35 15 0 0
-0.0179 0.1041 -0.7118 -0.925 0.142 0.353 59 26 8 0 0
-0.0435 0.0872 -0.7622 -0.976 -0.140 0.165 60 29 11 0 0
-0.0452 0.0861 -0.7647 -0.993 0.003 0.115 58 29 11 0 0
-0.0477 0.0845 -0.7667 -0.800 -0.345 0.490 56 27 10 0 0
-0.0523 0.0815 -0.7743 -0.626 -0.373 0.685 57 28 10 0 0
-0.0592 0.0770 -0.7871 -0.794 -0.077 0.603 58 30 9 0 0
-0.0707 0.0691 -0.8204 -0.665 -0.710 0.231 54 25 11 0 0
-0.0833 0.0603 -0.8691 -0.708 -0.553 0.439 75 52 36 0 0
-0.1390 0.0219 -1.0528 -0.877 -0.471 0.099 78 59 40 0 0
-0.1260 0.0278 -1.1555 -0.733 -0.580 0.356 75 56 40 0 0
0.0011 0.1369 0.1170 -0.124 -0.741 0.660 119 98 89 0 0
-0.0031 0.1342 0.1140 -0.443 -0.480 0.757 119 91 78 0 0
-0.0142 0.1269 0.0930 -0.763 -0.638 0.100 138 118 110 0 0
-0.0145 0.1267 0.0901 -0.763 -0.638 0.100 156 136 129 0 0
-0.0473 0.1055 0.0579 -0.795 -0.513 0.324 53 24 10 0 0
-0.0481 0.1050 0.0550 -0.795 -0.513 0.324 54 28 15 0 0
-0.0439 0.1070 0.0254 -0.880 -0.467 0.085 64 42 28 0 0
-0.0602 0.0959 -0.0238 -0.999 0.035 0.017 69 47 34 0 0
-0.0602 0.0958 -0.0268 -0.811 -0.529 0.248 69 47 36 0 0
-0.0358 0.1102 -0.0615 -0.894 -0.396 -0.211 7 6 4 0 0
-0.0494 0.1015 -0.0752 -0.660 -0.604 0.448 45 33 31 0 0
-0.0506 0.1007 -0.0781 -0.660 -0.604 0.448 69 54 50 0 0
-0.0925 0.0739 -0.1147 -0.893 -0.399 0.209 95 78 76 0 0
-0.0929 0.0736 -0.1176 -0.873 -0.457 0.171 124 110 106 0 0
-0.0988 0.0693 -0.1461 -0.481 -0.870 -0.109 47 24 11 0 0
-0.0327 0.1063 -0.3448 -0.536 -0.765 -0.359 23 12 8 0 0
-0.0329 0.1055 -0.3762 -0.240 -0.964 0.117 56 37 30 0 0
-0.0674 0.0825 -0.4505 -0.394 -0.253 -0.884 66 43 30 0 0
-0.0153 0.1134 -0.5227 -0.925 -0.336 0.176 50 26 14 0 0
-0.0215 0.1084 -0.5758 -0.655 -0.732 0.187 57 30 14 0 0
-0.0182 0.1099 -0.6066 -0.814 -0.581 -0.026 57 30 13 0 0
-0.0180 0.1099 -0.6100 -0.841 -0.540 0.026 60 33 16 0 0
-0.0178 0.1099 -0.6166 -0.864 -0.503 0.028 62 33 15 0 0
-0.0216 0.1067 -0.6578 -0.696 -0.701 0.152 74 42 21 0 0
-0.0189 0.1075 -0.6955 -0.867 -0.439 -0.237 57 28 10 0 0
-0.0191 0.1074 -0.6988 -0.763 -0.643 0.061 57 28 10 0 0
-0.0612 0.0787 -0.8200 -0.535 -0.606 0.589 52 23 9 0 0
-0.0635 0.0772 -0.8221 -0.568 -0.382 0.729 52 23 9 0 0
-0.0823 0.0639 -0.9005 -0.396 -0.894 -0.209 46 28 16 0 0
-0.1114 0.0443 -0.9745 -0.936 -0.219 -0.276 98 82 75 0 0
-0.1369 0.0261 -1.0853 -0.505 -0.861 -0.058 38 24 19 0 0
-0.1279 0.0302 -1.1554 -0.734 -0.545 0.406 76 57 41 0 0
-0.1306 0.0285 -1.1600 -0.802 -0.512 0.307 71 56 41 0 0
-0.1317 0.0277 -1.1624 -0.772 -0.461 0.438 90 81 64 0 0
-0.1629 0.0084 -1.1576 -0.736 0.177 0.653 197 197 195 0 0
-0.0043 0.1371 0.1139 -0.595 -0.534 0.600 122 94 81 0 0
-0.0481 0.1085 0.0550 -0.825 -0.477 0.304 48 23 11 0 0
-0.0510 0.1065 0.0492 -0.774 -0.273 0.572 96 78 70 0 0
-0.0466 0.1089 0.0314 -0.839 -0.544 0.020 71 47 31 0 0
-0.0645 0.0974 0.0145 -0.619 -0.355 0.701 68 46 32 0 0
-0.0625 0.0986 0.0115 -0.913 0.144 0.381 66 44 30 0 0
-0.0605 0.0996 -0.0033 -0.820 -0.073 0.568 66 44 31 0 0
-0.0378 0.1125 -0.0615 -0.851 -0.509 -0.129 6 5 3 0 0
-0.0337 0.1150 -0.0649 -0.394 -0.666 0.633 9 5 4 0 0
-0.0515 0.1037 -0.0752 -0.660 -0.604 0.448 49 36 35 0 0
-0.0945 0.0760 -0.1147 -0.807 -0.575 0.139 94 80 77 0 0
-0.0944 0.0761 -0.1176 -0.837 -0.546 0.027 116 102 101 0 0
-0.1014 0.0711 -0.1460 -0.798 -0.595 0.092 46 24 11 0 0
-0.1016 0.0710 -0.1489 -0.798 -0.595 0.092 48 32 22 0 0
-0.0353 0.1084 -0.3415 -0.932 -0.322 -0.168 23 11 8 0 0
-0.0348 0.1086 -0.3447 -0.932 -0.322 -0.168 22 11 8 0 0
-0.0390 0.1054 -0.3719 -0.444 -0.809 0.385 40 28 23 0 0
-0.0401 0.1047 -0.3747 -0.444 -0.809 0.385 54 36 29 0 0
-0.0179 0.1137 -0.6108 -0.776 -0.567 0.276 60 33 16 0 0
-0.0186 0.1132 -0.6138 -0.776 -0.567 0.276 61 33 15 0 0
-0.0192 0.1128 -0.6168 -0.849 -0.417 0.325 62 33 15 0 0
-0.0343 0.1011 -0.7256 -0.596 -0.685 0.419 60 28 13 0 0
-0.0435 0.0947 -0.7575 -0.949 -0.256 -0.181 57 26 8 0 0
-0.0589 0.0847 -0.7760 -0.815 -0.580 -0.004 57 28 11 0 0
-0.0664 0.0789 -0.8281 -0.633 -0.501 0.590 54 25 9 0 0
-0.0861 0.0666 -0.8335 -0.860 -0.096 0.502 55 26 10 0 0
-0.1378 0.0293 -1.0760 -0.448 -0.894 -0.010 68 52 43 0 0
-0.1377 0.0293 -1.0794 -0.448 -0.894 -0.010 55 45 36 0 0
-0.1401 0.0275 -1.0974 -0.487 -0.847 0.215 44 26 19 0 0
-0.1385 0.0283 -1.1053 -0.596 -0.732 -0.330 51 28 18 0 0
-0.1328 0.0309 -1.1529 -0.746 -0.659 -0.100 76 57 42 0 0
-0.1325 0.0310 -1.1566 -0.746 -0.659 -0.100 68 50 37 0 0
-0.1325 0.0310 -1.1599 -0.805 -0.593 0.034 69 53 41 0 0
-0.1331 0.0305 -1.1628 -0.793 -0.602 0.093 89 79 65 0 0
-0.1610 0.0131 -1.1605 -0.648 0.111 0.753 196 196 194 0 0
-0.0510 0.1101 0.0520 -0.936 -0.024 0.351 76 58 47 0 0
-0.0521 0.1094 0.0491 -0.936 -0.024 0.351 112 95 85 0 0
-0.0406 0.1144 -0.0585 -0.793 -0.605 0.075 7 6 4 0 0
-0.0381 0.1159 -0.0617 -0.698 -0.714 0.060 7 6 4 0 0
-0.0367 0.1167 -0.0649 -0.287 -0.785 0.549 13 8 7 0 0
-0.0405 0.1143 -0.0675 -0.615 -0.652 0.444 25 19 18 0 0
-0.0576 0.1032 -0.0867 -0.782 -0.518 0.346 45 25 18 0 0
-0.0622 0.1001 -0.0952 -0.720 -0.544 0.430 35 17 12 0 0
-0.1029 0.0736 -0.1490 -0.700 -0.708 0.095 47 30 20 0 0
-0.0454 0.1073 -0.2586 -0.508 -0.726 0.463 44 33 29 0 0
-0.0662 0.0942 -0.2634 -0.519 -0.854 -0.047 43 30 24 0 0
-0.0362 0.1114 -0.3417 -0.982 -0.170 0.081 23 12 9 0 0
-0.0375 0.1105 -0.3445 -0.983 -0.177 0.048 21 11 7 0 0
-0.0392 0.1094 -0.3472 -0.987 -0.147 -0.068 29 18 14 0 0
-0.0734 0.0859 -0.4497 -0.207 -0.509 -0.835 64 41 29 0 0
-0.0210 0.1153 -0.6168 -0.867 -0.487 -0.107 65 36 18 0 0
-0.0442 0.0980 -0.7581 -0.885 -0.329 -0.329 58 29 11 0 0
-0.0430 0.0986 -0.7620 -0.885 -0.329 -0.329 58 29 11 0 0
-0.0894 0.0672 -0.8786 -0.718 -0.685 0.120 66 46 32 0 0
-0.0896 0.0670 -0.8817 -0.728 -0.686 0.010 64 46 32 0 0
-0.0865 0.0688 -0.8936 -0.675 -0.680 -0.285 49 31 17 0 0
-0.0846 0.0699 -0.8980 -0.758 -0.441 -0.481 47 29 16 0 0
-0.1387 0.0319 -1.0998 -0.863 -0.503 -0.042 45 27 20 0 0
-0.1393 0.0314 -1.1093 -0.603 -0.798 0.006 65 34 17 0 0
-0.1370 0.0327 -1.1144 -0.904 -0.369 -0.215 75 44 19 0 0
-0.1369 0.0327 -1.1178 -0.901 -0.430 0.061 78 49 23 0 0
-0.1355 0.0334 -1.1255 -0.835 -0.547 0.063 85 60 42 0 0
-0.0415 0.1196 0.0517 -0.377 -0.875 0.305 81 60 51 0 0
-0.0436 0.1181 0.0458 -0.427 -0.645 0.633 96 73 58 0 0
-0.0425 0.1188 0.0429 -0.540 -0.749 0.384 79 53 38 0 0
-0.0418 0.1172 -0.0586 -0.934 -0.343 -0.100 7 5 4 0 0
-0.0380 0.1195 -0.0619 -0.768 -0.434 0.471 11 7 6 0 0
-0.0410 0.1176 -0.0646 -0.498 -0.793 0.351 16 10 8 0 0
-0.0434 0.1160 -0.0674 -0.717 -0.635 0.289 23 14 12 0 0
-0.0990 0.0800 -0.1204 -0.354 -0.722 0.595 114 103 101 0 0
-0.0459 0.1104 -0.2682 -0.582 -0.810 0.066 43 30 24 0 0
-0.0630 0.0992 -0.2952 -0.489 -0.871 0.051 33 22 17 0 0
-0.0395 0.1130 -0.3413 -0.980 -0.186 -0.073 24 12 10 0 0
-0.0393 0.1131 -0.3445 -0.980 -0.186 -0.073 22 11 7 0 0
-0.0399 0.1126 -0.3475 -0.931 -0.144 -0.336 31 17 14 0 0
-0.0418 0.1110 -0.3690 -0.666 -0.638 0.387 22 12 10 0 0
-0.0425 0.1105 -0.3719 -0.665 -0.519 0.538 39 26 21 0 0
-0.0445 0.1091 -0.3777 -0.579 -0.784 0.224 50 28 19 0 0
-0.0791 0.0867 -0.4112 -0.867 -0.496 0.050 99 81 73 0 0
-0.0806 0.0857 -0.4138 -0.885 -0.455 0.103 125 109 100 0 0
-0.0733 0.0895 -0.4535 -0.368 -0.304 -0.878 61 38 24 0 0
-0.0261 0.1160 -0.6122 -0.806 -0.568 -0.166 62 33 17 0 0
-0.0257 0.1161 -0.6156 -0.754 -0.618 0.222 67 38 22 0 0
-0.0265 0.1156 -0.6186 -0.733 -0.665 0.145 68 39 20 0 0
-0.0376 0.1064 -0.7291 -0.842 -0.540 -0.016 57 25 12 0 0
-0.0521 0.0960 -0.7981 -0.813 -0.386 0.436 53 24 8 0 0
-0.0771 0.0778 -0.9203 -0.868 -0.440 0.229 64 44 33 0 0
-0.0778 0.0773 -0.9232 -0.694 -0.707 0.133 66 46 33 0 0
-0.0785 0.0766 -0.9395 -0.558 -0.812 -0.174 63 38 21 0 0
-0.0887 0.0698 -0.9564 -0.745 -0.512 0.428 68 45 30 0 0
-0.1091 0.0564 -0.9829 -0.611 -0.759 0.225 109 95 88 0 0
-0.1286 0.0444 -0.9731 -0.555 -0.412 0.722 115 102 94 0 0
-0.1212 0.0488 -0.9847 -0.828 -0.515 0.222 108 94 89 0 0
-0.1192 0.0500 -0.9894 -0.659 -0.691 -0.297 100 85 82 0 0
-0.1329 0.0415 -0.9833 -0.894 -0.073 0.442 91 76 73 0 0
-0.1399 0.0365 -1.0146 -0.743 -0.653 -0.143 68 36 15 0 0
-0.1443 0.0329 -1.0541 -0.632 -0.761 0.147 80 59 41 0 0
-0.1408 0.0345 -1.0863 -0.787 -0.483 -0.383 34 23 18 0 0
-0.1430 0.0327 -1.1079 -0.700 -0.694 -0.166 66 35 18 0 0
-0.1382 0.0347 -1.1548 -0.748 -0.634 -0.197 71 52 40 0 0
-0.1371 0.0353 -1.1590 -0.747 -0.658 0.093 68 52 42 0 0
-0.1379 0.0347 -1.1651 -0.844 -0.510 0.169 125 117 109 0 0
-0.1383 0.0344 -1.1681 -0.844 -0.510 0.169 157 154 149 0 0
-0.0501 0.1179 0.0607 -0.847 -0.374 0.378 50 21 8 0 0
-0.0513 0.1171 0.0578 -0.910 -0.376 0.177 48 20 6 0 0
-0.0430 0.1221 0.0487 -0.711 -0.699 0.077 89 66 55 0 0
-0.0431 0.1220 0.0457 -0.721 -0.671 0.172 73 48 35 0 0
-0.0436 0.1216 0.0428 -0.717 -0.650 0.252 68 42 29 0 0
-0.0540 0.1128 -0.0726 -0.554 -0.352 0.754 52 41 37 0 0
-0.0567 0.1110 -0.0753 -0.766 -0.406 0.497 84 73 67 0 0
-0.0599 0.1088 -0.0869 -0.821 -0.477 0.313 40 22 15 0 0
-0.0634 0.1064 -0.0955 -0.868 -0.446 0.217 33 16 9 0 0
-0.1141 0.0737 -0.1333 -0.726 -0.581 0.370 49 24 12 0 0
-0.0551 0.1074 -0.3099 -0.970 -0.226 -0.094 72 57 49 0 0
-0.0536 0.1083 -0.3133 -0.963 -0.209 -0.168 47 28 21 0 0
-0.0452 0.1131 -0.3372 -0.961 -0.267 0.070 39 24 17 0 0
-0.0454 0.1129 -0.3403 -0.963 -0.246 0.112 25 13 11 0 0
-0.0453 0.1129 -0.3435 -0.969 -0.104 0.223 26 16 12 0 0
-0.0399 0.1162 -0.3480 -0.842 -0.179 -0.509 37 23 20 0 0
-0.0435 0.1136 -0.3659 -0.557 -0.770 0.311 21 11 8 0 0
-0.0441 0.1132 -0.3689 -0.667 -0.717 0.203 20 10 9 0 0
-0.0451 0.1125 -0.3717 -0.619 -0.667 0.415 40 27 21 0 0
-0.0474 0.1109 -0.3774 -0.666 -0.696 0.268 44 24 17 0 0
-0.0805 0.0894 -0.4113 -0.848 -0.522 -0.093 106 88 79 0 0
-0.0805 0.0893 -0.4144 -0.807 -0.570 0.156 120 104 95 0 0
-0.0956 0.0795 -0.4282 -0.595 -0.679 0.430 56 29 11 0 0
-0.1003 0.0764 -0.4359 -0.739 -0.669 -0.075 66 47 33 0 0
-0.0754 0.0918 -0.4534 -0.368 -0.304 -0.878 59 37 23 0 0
-0.0274 0.1200 -0.5568 -0.876 -0.435 0.209 51 25 13 0 0
-0.0372 0.1103 -0.7369 -0.752 -0.627 0.206 52 23 7 0 0
-0.0947 0.0718 -0.8513 -0.777 -0.619 0.113 71 39 16 0 0
-0.0958 0.0707 -0.8704 -0.885 -0.439 0.156 77 55 39 0 0
-0.0806 0.0795 -0.9093 -0.898 -0.259 -0.356 45 27 15 0 0
-0.0799 0.0798 -0.9197 -0.740 -0.672 -0.027 62 42 31 0 0
-0.0799 0.0797 -0.9230 -0.652 -0.642 0.405 65 45 32 0 0
-0.0921 0.0714 -0.9521 -0.725 -0.669 -0.166 73 46 28 0 0
-0.0916 0.0717 -0.9557 -0.926 -0.368 0.085 77 54 40 0 0
-0.1240 0.0509 -0.9741 -0.458 -0.814 0.357 105 91 84 0 0
-0.1279 0.0484 -0.9748 -0.750 -0.209 0.628 106 93 85 0 0
-0.1234 0.0511 -0.9844 -0.743 -0.667 0.060 99 86 81 0 0
-0.1221 0.0518 -0.9886 -0.635 -0.750 -0.185 96 82 79 0 0
-0.1373 0.0423 -0.9816 -0.978 -0.206 0.021 96 82 79 0 0
-0.1349 0.0414 -1.1053 -0.689 -0.672 0.269 44 27 19 0 0
-0.1434 0.0360 -1.1089 -0.833 -0.529 0.160 67 33 17 0 0
-0.1438 0.0357 -1.1119 -0.833 -0.529 0.160 76 41 18 0 0
-0.1437 0.0357 -1.1153 -0.771 -0.637 -0.025 80 48 23 0 0
-0.1416 0.0363 -1.1502 -0.788 -0.557 -0.263 80 58 43 0 0
-0.1398 0.0373 -1.1583 -0.786 -0.569 -0.242 67 51 40 0 0
-0.0517 0.1204 0.0606 -0.937 -0.226 0.267 66 39 23 0 0
-0.0527 0.1197 0.0577 -0.910 -0.352 0.221 65 39 21 0 0
-0.0471 0.1229 0.0399 -0.990 0.108 0.095 70 44 30 0 0
-0.0445 0.1225 -0.0647 -0.784 -0.180 0.594 43 36 32 0 0
-0.0464 0.1212 -0.0675 -0.783 -0.171 0.598 49 40 35 0 0
-0.0628 0.1104 -0.0898 -0.886 -0.364 0.288 35 18 11 0 0
-0.1035 0.0842 -0.1145 -0.609 -0.778 0.153 93 79 76 0 0
-0.1086 0.0803 -0.1489 -0.798 -0.579 0.166 43 29 22 0 0
-0.0559 0.1104 -0.3132 -0.992 -0.119 0.032 47 28 20 0 0
-0.0460 0.1161 -0.3438 -0.902 -0.170 0.396 24 13 9 0 0
-0.0399 0.1198 -0.3485 -0.812 -0.519 -0.266 34 20 17 0 0
-0.0379 0.1210 -0.3553 -0.766 -0.637 -0.087 22 14 9 0 0
-0.0530 0.1113 -0.3607 -0.732 -0.532 0.425 23 15 10 0 0
-0.0469 0.1150 -0.3717 -0.896 -0.424 0.132 36 23 17 0 0
-0.0738 0.0963 -0.4545 -0.463 -0.146 -0.874 61 38 24 0 0
-0.0280 0.1225 -0.5998 -0.853 -0.380 0.358 54 26 14 0 0
-0.0285 0.1221 -0.6029 -0.715 -0.544 0.440 54 26 14 0 0
-0.0527 0.1036 -0.7665 -0.881 -0.450 -0.147 55 26 12 0 0
-0.0835 0.0815 -0.9019 -0.904 -0.428 -0.008 47 29 17 0 0
-0.0831 0.0817 -0.9055 -0.871 -0.492 0.006 47 29 17 0 0
-0.1349 0.0475 -0.9811 -0.705 -0.474 0.527 98 85 82 0 0
-0.1303 0.0499 -1.0039 -0.592 -0.802 0.080 60 31 16 0 0
-0.1325 0.0485 -1.0057 -0.921 -0.380 -0.090 56 27 11 0 0
-0.1398 0.0423 -1.0897 -0.949 -0.313 -0.032 35 24 19 0 0
-0.1444 0.0383 -1.1460 -0.620 -0.734 -0.278 83 60 42 0 0
