ply
format ascii 1.0
element vertex 697
property float x
property float y
property float z
property uchar diffuse_red
property uchar diffuse_green
property uchar diffuse_blue
end_header
0.16616081218700074 0.18724785402463606 -0.40275469617408594 65 33 22
0.17095491159549037 0.18659768111218963 -0.40473223195939856 91 62 51
0.1762811319453545 0.18586339266847818 -0.40658716884835383 96 75 68
0.18102959475273483 0.1852193853446228 -0.4085452036221746 104 78 66
0.1837293907997542 0.18489708126759652 -0.4109139306349955 83 46 25
0.18483868694794664 0.18482474230992005 -0.41360745850389713 76 39 17
0.1896740244157974 0.18416592352554315 -0.4155145974386545 68 32 10
0.19143904327402975 0.18398998330710847 -0.41805855880613585 73 36 14
0.18924558112892706 0.184437312089076 -0.42144378066338356 73 37 14
0.1866865462145964 0.18494252375872486 -0.42491593805367445 71 35 12
0.18604702506977622 0.18514554566655927 -0.4279813227333116 71 36 15
0.18642029059188994 0.18518900898926208 -0.43082878514172046 78 47 28
0.1800615820016944 0.18629419861725022 -0.435157505188612 76 48 31
0.07631043771672391 0.2027657047526511 -0.46109241832063463 79 51 36
0.14416238901303033 0.19216551727300699 -0.4490545432290983 81 54 40
0.13070853222227766 0.19439446137547822 -0.45508043071118137 78 50 36
0.11819409351519912 0.19647658711686233 -0.46093800504384463 78 51 37
0.11764345001546507 0.19666995888910963 -0.4641088560919458 75 48 34
0.09892879747963822 0.1997342488990926 -0.47145389838320234 73 45 31
0.10065985916768364 0.1995681030837699 -0.4741324085947857 69 41 27
0.10057050611381178 0.19968972877302674 -0.47723055639708206 67 39 25
0.09801734440124418 0.20020122844951563 -0.48090795354426014 63 35 21
0.09857106650092866 0.20022132263354273 -0.48386146653794815 62 34 20
0.09754857579823074 0.20049096236786476 -0.48718913240035144 61 34 17
0.09814905049371085 0.2005037080713281 -0.49013307559459235 58 30 17
0.09673080731114811 0.20083628266277176 -0.49356268290222377 58 30 17
0.0952423057731409 0.20118019877351842 -0.4970152154858359 63 35 21
0.09097419661344754 0.20196504835850262 -0.5011523714183156 66 38 24
0.09123237534188694 0.20203250584003546 -0.5041924416231046 65 37 23
0.09149867524412426 0.2020986921958095 -0.5072310025000071 65 37 23
0.0917651531695039 0.20216486683000376 -0.5102699924242055 68 36 21
0.09114409751498237 0.20237198043721993 -0.5135318248392603 68 36 21
0.08976119271866698 0.20270021984231334 -0.5169891030958318 67 35 20
0.0897282199163025 0.20281416761664572 -0.5201096010648854 67 36 20
0.09080028354138767 0.2027525213673604 -0.5229493268816034 66 39 20
0.090794578164198 0.2028621719491563 -0.5260639184720122 68 40 22
0.08963114169753998 0.2031560207625723 -0.5294792798489992 68 40 22
0.08706466817031917 0.2036732966746429 -0.5332648654502943 70 41 24
0.09212464807925028 0.2029769698353057 -0.5350630631767709 69 39 22
0.09019210512653633 0.20339354688143724 -0.5386885746723235 70 41 22
0.09314744625911767 0.20303180839033202 -0.541025940115538 70 40 21
0.09302627640515428 0.2031600074880855 -0.5441756185093367 71 40 20
0.09374608693354668 0.20315421394496713 -0.5471013678569135 67 36 16
0.09393815851057002 0.2032325378082589 -0.550168590562077 68 36 16
0.09334487691972067 0.20343616190934946 -0.553449815216338 69 38 20
0.09324753005795466 0.20356076334513437 -0.5565988195734753 70 39 20
0.09314994473785904 0.20368546083885983 -0.559749549708703 72 40 20
0.09160763618835621 0.20404091623302079 -0.5633013282129145 75 43 22
0.09285321296407988 0.20395125353489654 -0.5660842383649134 71 40 19
0.09365548834896927 0.20393233516646211 -0.5689884369249889 72 40 19
0.09466768038409051 0.20387981658141255 -0.5718323208521056 76 41 19
0.09589537952519928 0.2037927679913304 -0.574613283174168 81 46 24
0.09691594097763968 0.20373876242431957 -0.5774505444170528 84 49 27
0.0939289149914331 0.20432600324047476 -0.5814328122400174 82 47 25
0.09449705047861401 0.20434451302884854 -0.5844028728071861 82 47 25
0.09370322100424948 0.20458110920312067 -0.5877666686281003 82 46 24
0.09272732825818715 0.2048470088267376 -0.5911874015652785 81 45 23
0.09220908485531365 0.20503972723271852 -0.59447870732097 81 45 23
0.09119472787310685 0.20531208401040688 -0.5979190917589398 81 46 24
0.091700855621624 0.20534076824140227 -0.6009141029712131 84 49 27
0.09265158170286397 0.20529811790341496 -0.6037764987044845 81 46 25
0.08987158655764196 0.2058541168158881 -0.607753571458815 81 46 26
0.08895370083638737 0.20611154089935307 -0.6111808070462659 79 44 25
0.08763796209177287 0.20643301072184528 -0.6147327647060458 78 43 24
0.09223759392097655 0.20580435971202835 -0.6164911892290419 77 42 23
0.09218626694889617 0.2059226843336914 -0.6196581566493916 78 43 25
0.09295705503578636 0.20590889360871464 -0.6225739114037224 77 43 26
0.09307737763027904 0.20599967278627013 -0.6256895430168012 75 42 23
0.10303415492438879 0.20450798466503164 -0.6257498889728615 73 40 20
0.10101405207323072 0.2049427452347831 -0.6295198892118293 72 39 20
0.09720455341237497 0.20566586991608676 -0.6338597195488003 71 39 20
0.09768605186801824 0.20569840033964154 -0.6368590566899645 71 38 20
0.09862491591107674 0.2056572368301338 -0.639713069801615 66 34 17
0.09817457081389319 0.20583990908211366 -0.6430083977446964 64 35 17
0.10545864462887417 0.20477569750470356 -0.6438272761692205 65 35 17
0.10255850989337395 0.20535323298003078 -0.6479048983114191 65 35 17
0.10071664748436361 0.2057604074704481 -0.6516507074400105 64 35 17
0.1025990575339229 0.2055667530373713 -0.6541917418276648 65 35 19
0.10185138501462991 0.2057975698838882 -0.657588331539941 66 37 20
0.09979649431785532 0.2062396525387049 -0.6614185348862311 68 38 21
0.09921058418698145 0.20644467620210627 -0.6647714871021762 67 38 21
0.09281368400976976 0.2075890315143202 -0.6700574153047145 65 35 19
0.09072804735747832 0.20803710406897008 -0.6739270437624547 62 32 16
0.0935975677880793 0.20768400412276275 -0.676143112501881 63 33 16
0.09596001324501599 0.2074126665431447 -0.6785219865075585 63 33 15
0.09372120952409375 0.20788585404352297 -0.6824527529188263 63 33 15
0.09680425796226733 0.20749765618440566 -0.6845811415980961 62 32 14
0.11003091855724405 0.20546615455900713 -0.6832318579521705 64 33 15
0.10975722362343525 0.20562065278307093 -0.6864793325930058 64 33 15
0.11546565825335221 0.20480559325457387 -0.68766356236238 65 34 16
0.11500422438566171 0.20499034607399838 -0.6909708265565188 66 35 17
0.11392791039066821 0.20527493640089972 -0.6944953279784867 68 37 19
0.1137496773270511 0.20541397428862085 -0.6977102129726038 65 34 16
0.11357102078243786 0.2055531494327222 -0.7009272085031372 64 33 15
0.1159221789761227 0.2052816065483981 -0.7032517258730617 62 33 15
0.11561620928895405 0.20544145269945333 -0.7065136808798098 61 32 14
0.11401173307934244 0.2058123817556327 -0.7102414301570794 60 31 14
0.1128684967722953 0.20610856933161517 -0.7138105063395833 58 29 14
0.11069227762379025 0.20657291082338022 -0.7177568302691762 57 28 14
0.10511199401190877 0.20759128513260477 -0.7229435446907112 56 27 13
0.10591625055064267 0.20757142470871182 -0.7258292830350899 55 26 12
0.1043156271106104 0.20794299537887798 -0.7295919483132376 57 26 11
0.10098019198667636 0.2085973008375699 -0.7339977268952457 58 27 12
0.10189566485070918 0.20855956839514334 -0.7368494993860868 59 28 13
0.10650722250021563 0.2079194700121702 -0.7383314282323056 58 28 12
0.11038052387566877 0.20739923174980418 -0.7400739009645967 56 27 12
0.11264941445799855 0.20714023009764457 -0.7424041090873176 54 25 11
0.124803344977206 0.20526843681579143 -0.7410195762741646 55 26 12
0.12770192411752732 0.2049056681937541 -0.7430836564770291 56 27 13
0.130847093214941 0.20450235423551008 -0.7450461088871501 56 27 13
0.13743367288432917 0.20353671262282766 -0.745691107399882 56 27 13
0.13188691432281874 0.20455252671906932 -0.7509485186913241 56 27 13
0.11721666950622879 0.2070600363802165 -0.7597248072716964 57 28 14
0.11270626134098341 0.2079083482078454 -0.7646380900365953 57 28 14
0.10641850118510318 0.2090479054995919 -0.7702554193393433 57 28 14
0.10853702799389231 0.20881298086931566 -0.7726290917841205 58 29 15
0.1035950127390777 0.20973337191633695 -0.7777521057935763 59 30 16
0.12151632162266918 0.2069112859679174 -0.7739334895386983 59 30 16
0.13309011095943435 0.205126717413171 -0.7725543178496713 59 30 16
0.13581816573318437 0.20479007067066718 -0.7746338125679376 58 29 15
0.13656890579051367 0.204777218958645 -0.7774903426604876 54 26 12
0.13363339609516975 0.2053686905473117 -0.7818149938144622 53 25 13
0.14203299455427404 0.2041014918758606 -0.7816139336015476 54 26 15
0.15075787003137864 0.20277998921252774 -0.781255323654143 54 26 14
0.1546055175242064 0.20225799372887857 -0.7828373061433617 56 28 15
0.15651538566144266 0.20205374935869555 -0.7851931032428324 54 26 13
0.1572249574465848 0.2020464700032277 -0.7880323407791275 55 27 14
0.1527604201541857 0.20288927483804536 -0.7929849851568148 55 27 14
0.1560967011053326 0.20245049900290094 -0.7947530598240709 55 27 15
0.15990979785214215 0.2019329808836751 -0.7963148246020532 58 30 18
0.1551158203252302 0.20283074482201705 -0.801425892226356 62 34 21
0.15104298302707211 0.2036104659117509 -0.8062549272197679 62 35 20
0.12997194027288506 0.20718856184321904 -0.8181885297527774 60 32 17
0.12457868615778046 0.20818775300918455 -0.8236293630671218 60 32 18
0.1381870481948698 0.20605778819318296 -0.8211006768952271 61 33 19
0.13752253000805958 0.20627805868756577 -0.824552494129006 57 29 17
0.14618509701183785 0.20496105118431635 -0.8240549556516693 54 26 14
0.1481471076585094 0.20474793385817316 -0.8263806898405636 53 25 13
0.15722666627627632 0.20336059177206983 -0.8256605919753341 52 24 12
0.16187514604060835 0.20270339550904606 -0.8268116212673443 53 25 12
0.15980778505674975 0.20315427150775675 -0.8308400017674143 53 25 12
0.16161059789241392 0.20296636791431388 -0.8332037997804297 54 26 12
0.16895500143641484 0.2018629029046334 -0.833158041970318 55 26 12
0.17359518003660285 0.2012054791079918 -0.8342669036390709 58 27 12
0.17938463649546427 0.20035757305199775 -0.8348587883764496 57 25 11
0.1837555863034128 0.19974359969457148 -0.8360552111637736 55 24 8
0.18931827725976136 0.19893201476905942 -0.8367129390114794 68 35 17
0.19443187028850364 0.19819413640714287 -0.8375518623260896 69 35 15
0.1842107192970115 0.19999424116064515 -0.8451854295675245 69 34 14
0.18814575192133276 0.1994513256913652 -0.8465438327628642 71 35 14
0.186944324765057 0.19975889946611744 -0.8501889436162496 74 38 16
0.1914378869635176 0.19912289117792906 -0.8512811704021862 76 38 15
0.1830009062692366 0.2006300118419853 -0.8581902022630461 79 41 17
0.18166696922311792 0.20096022400265912 -0.8619142748812978 85 51 25
0.183202126912886 0.2008146656723398 -0.8643407536936795 90 61 39
0.18072711622250232 0.2013344902336419 -0.8685921381213806 94 67 47
0.18071949368962892 0.2014450291079697 -0.8717239256668923 92 65 47
0.19342713289770472 0.1994439117326117 -0.8690152752236423 93 66 47
0.18269733904055283 0.20133513019112118 -0.8770726253673227 90 63 44
0.1857226683305381 0.200941634743573 -0.8788014482603986 86 59 40
0.17745152844284254 0.202425922733443 -0.8857691135301347 86 60 40
0.17760586607419693 0.20250996407245822 -0.8888379487124092 85 60 40
0.176863236834753 0.20274326773047796 -0.8923273923457468 79 53 34
0.17903672915219576 0.20249136663895712 -0.8944511381562088 76 48 29
0.1755909047328763 0.203174835487839 -0.899217686106178 79 51 31
0.17754925621610754 0.20295868036469358 -0.9014407374848601 76 46 27
0.1769031699853429 0.20317627348527711 -0.9048950721924918 71 42 21
0.17620551444277474 0.2034025876451441 -0.9083775826141769 76 44 22
0.17590253858174254 0.203563227864922 -0.9116751289351004 92 62 39
0.17521079485821106 0.20378879661724358 -0.9151616911380764 94 67 45
0.17457231822928945 0.20400560916546132 -0.9186263629506275 92 64 43
0.17352408591888532 0.2042909402140337 -0.922292681566646 85 56 39
0.1729941485340108 0.20448990485062085 -0.925712579517645 84 55 40
0.17313527113627153 0.2045768933410283 -0.9288090273255921 82 54 38
0.17466644878764315 0.20443164669706976 -0.9312273347655851 70 42 29
0.17060327835954478 0.20522137203239132 -0.936384292579462 51 27 17
0.1559642104806351 0.20778005142105624 -0.9467593831076859 42 20 11
0.15844318326753082 0.20747716733448324 -0.9487356264984337 42 20 10
0.16625328403092657 0.2062819659500766 -0.9480638070405809 43 19 7
0.15109200648262006 0.20893110565763054 -0.958785705385797 47 20 9
0.16884196292854559 0.20607105433066075 -0.953144245633353 54 26 16
0.15744590863729682 0.20809123834379595 -0.9620320359517894 58 28 19
0.16051557285025855 0.20768878425937784 -0.9636948092266302 67 38 27
0.17860412516863114 0.20476835140045477 -0.9577790157231791 76 53 43
0.18076592445177206 0.2045165955239558 -0.9598566968401027 80 61 53
0.18197191820768233 0.2044249678583537 -0.9624133432896659 84 65 59
0.18457136356029524 0.20409940383982772 -0.9642577348581818 82 65 58
0.1857320942486263 0.2040150980729891 -0.9668295876873013 85 69 62
0.18224668038731878 0.2047109479665529 -0.9717805445390155 84 70 63
0.19209928684795002 0.2031665527656742 -0.9698845659731415 84 69 63
0.19449237370246497 0.20287462612408605 -0.9718056183776828 89 72 67
0.19775736352165862 0.20243587907644814 -0.9732683196167723 92 75 70
0.20743815445197894 0.20091780394832132 -0.9713878838898007 95 78 70
0.20840316378887955 0.20086491749382004 -0.9740185852728441 98 80 72
0.21118125979967456 0.2005068264004536 -0.9756990959230896 97 79 69
0.21309305822929853 0.20029429523560474 -0.9778259478550477 101 81 72
0.21551021128943215 0.19999647050975042 -0.9796815139332313 102 82 73
0.22023807513239474 0.1993090968239888 -0.9803095756120087 101 81 71
0.2240361384817869 0.19877790635454506 -0.9814153570209156 100 80 68
0.22591415496030587 0.19857002297924956 -0.9835301721999117 99 79 68
0.22863539612894185 0.19821974175110052 -0.9851900717986919 99 77 68
0.22873308885073296 0.19831182617479579 -0.9882458742445902 93 68 58
0.22886326857539924 0.19839846389262003 -0.9912852800833103 91 65 53
0.22948994427585068 0.19840130464696257 -0.9940581967391089 96 67 53
0.23102864637828044 0.198250073582542 -0.9963374988700049 86 50 32
0.23459940513353653 0.19775535970106473 -0.9975112584389697 82 43 19
0.23670862246236257 0.19750729655749752 -0.9994688146912754 81 39 16
0.23839496258227222 0.1973305275515983 -1.0016511218296116 79 38 13
0.24030512634635504 0.1971157426356365 -1.0037064320360647 79 40 15
0.24196294198335908 0.19694347255629982 -1.005895021729755 79 41 16
0.24363313514532986 0.19676895366970867 -1.0080723940124674 75 38 12
0.24549582574382886 0.1965616840546823 -1.010138954912662 77 40 14
0.2507433903500115 0.19578087126303417 -1.0103241557027856 78 41 15
0.25127437823132576 0.19579869584319987 -1.013115049919862 78 39 14
0.2448244436320252 0.19699985513492652 -1.0197993881082472 81 41 16
0.24652527817316067 0.19681969793403917 -1.0219469513742039 83 43 18
0.24744507046662162 0.19677187289133335 -1.0245283431889138 84 44 19
0.2482297958570816 0.19674690402785375 -1.0271839493453092 86 46 21
0.2510744750262434 0.1963721968920523 -1.0286747496509525 87 49 23
0.2506786641123434 0.19654748283108658 -1.0319928468753998 88 53 28
0.2508555029350631 0.1966255844237795 -1.0349882812391422 89 56 31
0.2515111585592633 0.19662234254352046 -1.037711532796335 92 60 37
0.25126473612218286 0.19677242328742675 -1.0409496792255932 93 61 38
0.2485656422448563 0.19733969051995923 -1.0455968168364604 96 64 41
0.25184167797868956 0.19689082431549737 -1.0468172675907994 98 68 44
0.25147418281800266 0.19706168026873414 -1.050130159408052 98 68 44
0.25055037878261593 0.19732733956199858 -1.0537677347086072 101 71 47
0.25091243053873036 0.1973741692273846 -1.056663405910874 103 73 49
0.25047079464644406 0.19755792687027038 -1.0600272129155721 100 70 45
0.24935993172315232 0.19785584438591983 -1.063784858778218 95 66 41
0.24734246020639356 0.19830851699893745 -1.0680789498381618 93 63 40
0.24620078697180448 0.1986121156978052 -1.071866906408083 88 63 40
0.24609632897455885 0.19873893881817944 -1.0750489710054114 86 58 36
0.24375401997926005 0.19924777326712945 -1.0795556863249944 79 49 31
0.2419305301363171 0.1996683627019132 -1.0837644515922327 67 40 24
0.2383479650005048 0.20038967613286654 -1.0890271154668671 58 35 24
0.23573526718055654 0.20094576704861195 -1.0937253691653128 36 16 9
0.240163358387796 0.20029879362435216 -1.0942224842035642 43 23 15
0.24303760423982032 0.19991700764622794 -1.0956376199468698 46 24 12
0.28117761182154066 0.19350281927536025 -1.075823577414908 46 23 13
0.24264979992518745 0.2002024918105374 -1.1021448801491152 46 21 14
0.2460711580594775 0.1997265183070241 -1.103213462418226 48 23 13
0.25444836153723316 0.19840157115408125 -1.1012629812859558 54 25 11
0.25780243249741075 0.1979360696932634 -1.102342358613525 61 30 10
0.2578885537573602 0.19803018457249488 -1.1054065895240108 70 34 10
0.25372897650623644 0.198852125713581 -1.1110717569423298 79 44 18
0.2552536732702021 0.19869989370002641 -1.113262250372262 85 52 28
0.25592690517110045 0.19869358357595363 -1.1159731543384062 86 54 29
0.2528590768329185 0.19932921832194328 -1.1209938036528628 87 56 30
0.2537739963255883 0.19928158207751728 -1.1235596715919336 90 59 31
0.25328990238987326 0.1994741307681934 -1.1269927916991558 96 65 37
0.25197519172815064 0.19980948013563535 -1.1309465110873302 98 67 39
0.2508338159604384 0.20011525416778336 -1.1347980211145008 99 68 40
0.25334923871027215 0.199792565272395 -1.1363638426063276 100 69 41
0.25281743869353057 0.1999936622069669 -1.1398367843032242 99 68 41
0.25109042343319266 0.20040049723021985 -1.1440661470730267 95 67 45
0.2499803290624572 0.20070142427808293 -1.147913251315554 79 56 40
0.24679525784599454 0.20135977221943055 -1.1530805763278702 65 48 35
0.23689178408119704 0.20317564148010464 -1.1625298859548492 81 68 54
0.2277290538992756 0.20486517345867794 -1.1715439054309336 114 106 96
0.21431943811888493 0.207287845094625 -1.183305875670617 149 145 141
0.20419260561748362 0.20914624865410875 -1.1930135322581805 172 168 167
0.19473670926681666 0.21089024692824007 -1.202327664993345 180 179 177
0.1847247039932694 0.21273142517663116 -1.2120353787183988 187 186 184
0.18665419127348143 0.21251281710168024 -1.2140642339339547 190 190 189
0.2698639919419973 0.19826005813784423 -1.1634223190432207 193 193 193
0.2719763491446746 0.19800440764274332 -1.165176149099268 195 195 195
0.2713747829925473 0.1982174710649328 -1.1686920218762078 197 197 197
0.29067602707795615 0.19499048287966572 -1.1592086556845176 199 199 197
0.2738207297360536 0.1980130046085896 -1.1733439348367236 201 200 198
0.2564319954714574 0.2011299556695556 -1.1878914260288327 202 201 199
0.23875641991552332 0.20429876767863345 -1.2026916096691957 202 201 199
0.20274844546287102 0.2106431669750643 -1.2296648647616157 202 202 201
0.2046025907411384 0.2104358559034361 -1.2316935364267014 203 203 203
-0.015705414588158616 0.1926988980109108 0.1337258921553736 183 183 183
0.030545272954003017 0.1860627690103597 0.12705506912787487 184 182 183
0.0376845931784824 0.1851237194084726 0.12356811590540659 182 183 183
0.041692747213480076 0.18464061141994678 0.12034047638508714 180 178 176
0.05122540499947137 0.18335118962819372 0.11670913936577564 142 128 123
0.06967991210067737 0.1807588068667935 0.11244880038000388 127 104 96
0.07875851115358905 0.17953334276659041 0.10891727000130363 115 88 77
0.08563677233062858 0.17862832400464296 0.10556665865141732 131 105 91
0.09302901253369807 0.17764755260425594 0.10219969451559938 138 107 89
0.10139799251200929 0.17652332023253192 0.09878738214212562 122 81 60
0.10863211778397372 0.1755641769281053 0.09547371121531 93 51 27
0.09153349053620016 0.17816286659821237 0.09375342581757587 72 35 15
0.09304419868981938 0.17804088134116264 0.09080578595628218 66 31 11
0.094109273683915 0.17798399873542198 0.08788893934918154 65 32 11
0.09450830848616794 0.17802455485386745 0.08501417709753432 66 34 13
0.0964048848980525 0.17784579498281963 0.08205148214607216 66 34 13
0.0931733956849922 0.1784181520600422 0.07938677945650813 64 31 12
0.09306485488718405 0.17853320392760214 0.07653718505242811 63 30 11
0.09334752272180771 0.17859095466250946 0.07366486048871823 63 30 11
0.09176746086793439 0.17892189856411536 0.07089053079174311 62 29 10
0.0942334848958066 0.17865945271839406 0.06790275131511317 60 27 8
0.0940939524625228 0.17877918400228474 0.06505092498720444 58 25 6
0.09470233403780973 0.17878916834080558 0.06216135876936389 59 26 7
0.09349921372381109 0.17906517328957325 0.059357280565417975 58 25 6
0.09421964402122854 0.17905874577646344 0.056461199582167186 58 25 6
0.09542197145843727 0.1789814621423729 0.05354494367217558 58 25 7
0.09620727446030097 0.1789654052727106 0.050648760545598685 58 25 8
0.09425533398152242 0.17935187379983533 0.047865656756486 59 26 9
0.09203394072500097 0.1797782276232341 0.0450861694339868 58 25 8
0.09247696583446331 0.17981272143127994 0.04219787622126802 56 23 6
0.0934452817151195 0.17976987454774176 0.039290591311192474 56 23 6
0.09668744043344268 0.17939208411556157 0.036305602391325915 58 25 8
0.09651663613107773 0.1795168260372604 0.03344320257435099 61 28 10
0.09391657829593049 0.1799996514263319 0.030656689528548706 62 29 10
0.09593575944517009 0.1798017622745169 0.027720602246401424 62 29 10
0.09570620494930944 0.17993535794529836 0.024854458828307675 61 28 9
0.09572574015622272 0.18003226891367038 0.02197960387694011 58 25 8
0.09495967980400602 0.18024516367888863 0.019124010563029585 56 23 6
0.09640745791976309 0.1801313279930395 0.016210786170133933 57 24 7
0.09511338889593646 0.18042233220148876 0.013363666572467877 57 24 7
0.09466317274627942 0.1805888380354095 0.010493367854996907 57 24 7
0.09673162439455872 0.18038318278381077 0.007570240599482349 59 26 8
0.09759686067583229 0.180355246781531 0.0046743424890465166 62 29 10
0.09704240944354424 0.18053723414023945 0.0018039363453277602 67 34 14
0.09630314038859603 0.18074666486195964 -0.0010664667110051006 66 34 13
0.09504149257039476 0.1810335284096883 -0.003932986175309303 64 32 11
0.09456696768798789 0.181204026257284 -0.006814299846212289 61 29 8
0.09419613873933011 0.1813592568429066 -0.009699371566365866 61 28 9
0.0944003456587153 0.18142936985637065 -0.012592194249809332 61 28 9
0.09337394640675797 0.18168189505083493 -0.015475809400554978 60 27 8
0.0947146636443485 0.18158360783684357 -0.018378983824928228 60 27 7
0.09498939310626216 0.18164332686691886 -0.02127404909239751 59 26 6
0.09542693310268813 0.18167890266541803 -0.0241700473302495 57 26 6
0.09484144075266576 0.18186631495892333 -0.027063946767032263 53 24 6
0.09359797239039312 0.18215152276167956 -0.029960527969694027 51 22 6
0.09108319201413984 0.1826257261987667 -0.03286342838033063 48 19 6
0.09135160235263583 0.18268671087026467 -0.03576792134804594 45 17 6
0.09157689202050194 0.18275411837185582 -0.03867298667417965 44 16 5
0.09784777492667662 0.18192266230874424 -0.04154470930186505 43 16 5
0.0973567103543511 0.18209633731814417 -0.04444679538175022 43 16 5
0.09725803404120009 0.18221172269074792 -0.047348185109831784 43 16 5
0.09744311883541248 0.18228492492084894 -0.050248202309887996 46 19 8
0.09841188592943043 0.18224146430431942 -0.053139739803359294 48 21 9
0.09209765780466773 0.18328271752707567 -0.05612537407302366 50 24 11
0.09423209306485619 0.18306583675602203 -0.059007380796598216 56 31 19
0.10471505169818807 0.18160441663756619 -0.06174903429287789 74 53 46
0.1124548854405519 0.18055094659238313 -0.06450869995694991 68 49 43
0.1205414546413556 0.17944498654586263 -0.06723946221596934 63 41 35
0.12772911797718356 0.1784723420909293 -0.06996554931349125 93 72 64
0.13918500526953856 0.17686190082924838 -0.07257610289351213 138 120 113
0.14173358757000598 0.17658028176323157 -0.07536473423675943 135 122 113
0.14419078463422882 0.17631208530029813 -0.07814912790804775 107 86 78
0.14533443832676413 0.17623994010025157 -0.08096244300298168 65 33 21
0.1441661538247725 0.17651328614238646 -0.08383892674169782 66 29 14
0.1379460034457499 0.17754217697405117 -0.08687085133454217 63 27 12
0.15107097939236064 0.17567816387154403 -0.08931636429519764 59 25 10
0.15296198836266195 0.17549375156960484 -0.0920924421425876 60 27 12
0.14245437841343836 0.17716504797996366 -0.09529037679871716 96 75 63
0.15216762659745695 0.17580970071780788 -0.09779524516315022 91 66 58
0.15874421067628072 0.17492320606259154 -0.10038915820174299 96 65 55
0.16525382076816486 0.1740460925873695 -0.10296683394020094 110 75 61
0.17112783783098656 0.17326360357243323 -0.10555158630640456 105 70 55
0.17654804663547607 0.1725485812947493 -0.10813867353974896 119 86 75
0.18157186766442357 0.17189248435107665 -0.11072766142090516 128 91 81
0.19286094078935528 0.17029577194037246 -0.11302019582338857 143 114 100
0.19724470516052794 0.16973443657775994 -0.11560111927968374 164 141 129
0.1997514110694963 0.1694545352979754 -0.11826012632737697 149 124 110
0.20436720550999374 0.16885759663217725 -0.12080794620082971 127 94 74
0.19813705133856113 0.16988998285286278 -0.12389776243528786 96 55 27
0.20091339502284916 0.1695692246174357 -0.12653319068099178 90 46 17
0.20222740950247642 0.16946810513184313 -0.1292405826944293 77 35 9
0.20658306942240817 0.16890934682849107 -0.13177553256808502 73 34 10
0.20710928148908747 0.16892641415338425 -0.13451767734683007 68 33 12
0.2065366106083082 0.169108882061628 -0.1373240009635483 64 32 11
0.20557579386921238 0.16934989988566101 -0.14015666203019264 65 33 12
0.20670004103516448 0.16927697101967218 -0.1428644055214688 62 34 16
0.20823512711171527 0.16914205311735153 -0.14554381135528865 63 40 26
0.2110966956562294 0.1688070525653726 -0.14813351991435 62 42 31
0.20225335537397407 0.17023685782655604 -0.15149376104009532 62 42 33
0.197822157174029 0.17100207107967305 -0.15458221651509474 60 42 33
0.196717147226709 0.17126586205879957 -0.15745410712422 62 44 35
0.1922958810629085 0.17203042496460794 -0.16056630915720993 62 43 34
0.18514864552046006 0.17320715111382 -0.16389124682487877 61 42 35
0.17872116867387244 0.1742759514410007 -0.16718596021848806 60 41 35
0.1769212873241575 0.17464616841747835 -0.170151316553945 59 40 34
0.16736685154301925 0.17618888246042383 -0.17372235667960056 59 40 34
0.1766242118365049 0.1755779374372839 -0.19571828598526886 58 39 32
0.16942716549672093 0.17676813862876306 -0.1992183062573895 58 39 32
0.1592904250883761 0.17840512427187544 -0.20301416903739833 57 38 31
0.14754035552313993 0.18028807888316073 -0.20699456662697524 57 38 31
0.17257284963935138 0.17658823400237822 -0.2074903428804421 57 38 31
0.16939737054076953 0.17716961872733294 -0.21065461675040179 57 38 31
0.16473616137960267 0.1779771005409802 -0.2139767892425195 57 38 31
0.15134210933884945 0.18011230002369924 -0.2181913837668592 57 38 31
0.1514337354379464 0.18019876964758225 -0.2210738248520238 57 38 31
0.15037184457232183 0.18046070161770922 -0.22407658701583757 57 38 31
0.14711180718358813 0.18105720856904267 -0.22731477527276217 58 39 30
0.14735301041944143 0.18112125380138902 -0.23019105871871673 59 39 30
0.14873534989825607 0.18101158399795123 -0.23294439731686117 60 40 31
0.14896061423864923 0.18107802803093306 -0.23582160375094327 60 40 31
0.14883161690441193 0.18119846270375733 -0.2387387472383806 59 39 30
0.14953627714327403 0.18119189929050078 -0.24156346689448002 59 39 30
0.1469282615470139 0.18169035289381613 -0.2447660812875683 58 38 29
0.14480681376543522 0.1821149222067049 -0.2479216269542962 59 39 30
0.1403583271456895 0.18289479498645828 -0.2513583765549724 59 39 30
0.14142840324982026 0.18283293678550527 -0.25415330148356596 59 39 30
0.14360199262876988 0.18260252553807155 -0.2568130513556424 58 38 29
0.14226423431981733 0.18290821080841718 -0.2598961713887383 59 39 30
0.14166463382186267 0.18310130466764732 -0.2628933764868957 59 39 30
0.14333833637974874 0.18294705816124496 -0.2656089142782121 61 38 31
0.141988645865521 0.18325492764691662 -0.2687039128763257 59 36 29
0.13832262824176128 0.18391726096201594 -0.27210174455543934 55 33 24
0.1444007052941807 0.1830891786654269 -0.274246028899152 54 30 20
0.1428730679845993 0.18342457429771838 -0.27737279553135946 54 30 20
0.13798445553721386 0.18427477555208446 -0.2809528244164462 58 34 24
0.13511067855720296 0.1848169506995046 -0.284278104660871 58 34 24
0.13329676507894156 0.18519709083145444 -0.2874692613374057 54 30 20
0.1330215948915627 0.18534162447459818 -0.29045535477282997 52 28 18
0.14138240151720738 0.1841621060199527 -0.29224031793454447 51 27 17
0.143076485357772 0.18400427046905607 -0.2949396500760172 51 27 16
0.13594644340361892 0.1852002268533765 -0.2988920071907993 47 24 13
0.13801436628297903 0.18498520857674947 -0.3015431918559361 56 37 29
0.14232046588453284 0.1844263494403286 -0.30386327273549935 62 46 40
0.14602092632590605 0.18396009002192376 -0.30626022186869645 76 60 53
0.14864860178197725 0.1836583074443995 -0.30880636197172673 60 30 14
0.1484835767229753 0.18378554100601766 -0.31176524519972043 65 28 6
0.14953100606063713 0.18372640610151744 -0.3145417505761395 67 33 10
0.15005160522190375 0.18374823537530852 -0.31739704683674286 68 36 14
0.14975195879132971 0.18389626322199198 -0.320379100486552 68 36 15
0.14594676092475825 0.18458396193622711 -0.3239122654998104 67 34 15
0.14799150989252352 0.18437134199303745 -0.32653341622730914 72 42 24
0.1402546984662459 0.18566524552175176 -0.3307118280750492 66 39 26
0.1375553255585712 0.18618382047520202 -0.3341032667272946 45 25 16
0.1344044783430513 0.18677232641187538 -0.33757799944923683 29 13 7
0.12979383904117264 0.1875863193738629 -0.34130399350881113 32 15 8
0.1291955061470425 0.18778194693074063 -0.34437959754823033 54 31 20
0.12707631484900628 0.18821236541047529 -0.34771326621076337 54 31 18
0.1266226651343609 0.188385961283106 -0.3507730926851553 54 31 18
0.12291904364459061 0.18906150559868962 -0.35439060970578207 52 30 17
0.11819695712482527 0.1898948253503835 -0.3581966198792723 49 27 16
0.10865324215406566 0.1914737830854198 -0.36285743076376636 47 25 15
0.12773180916926757 0.18862932205227834 -0.36252626050496917 36 17 11
0.12039536299938555 0.189867565671214 -0.36681383628562536 27 12 9
0.11814044239225471 0.19032058509081698 -0.37021797349809255 39 23 18
0.12298696327510436 0.189674966479709 -0.37235047072986033 56 37 31
0.1320929906778587 0.18836947754961186 -0.3736943724141858 44 22 16
0.14114203876803944 0.18707185519466005 -0.37502115823916743 48 24 15
0.13727357485116326 0.1877743644440134 -0.3787103249313066 50 26 15
0.17345745296679474 0.18227053404110885 -0.37493971177793406 50 25 12
0.14403642641322523 0.1869330001785951 -0.38340076653738825 52 23 10
0.15974084242299327 0.1846008058564008 -0.38339337892688846 70 42 32
0.16794837560363243 0.18342993635511895 -0.38477192013607947 65 37 28
0.1620077509332507 0.18445382719360373 -0.388855335664396 62 32 21
0.16730128960231166 0.18373439194386706 -0.3907735610558524 58 28 17
0.15872590131767958 0.1851682345981048 -0.39539609526238734 53 23 12
0.16137812063847562 0.1848588212184364 -0.39782741884591954 53 23 12
0.16590455353759834 0.18425788985757868 -0.39987804729453685 57 24 13
0.1663921305057477 0.1842843979234265 -0.40272687299812815 63 30 20
0.17063640825065607 0.18372665716572106 -0.4048147601438409 94 66 54
0.17668472497681628 0.18288782853311494 -0.40652223813963184 99 78 71
0.18220150637310506 0.1821310970166439 -0.4083210152830622 110 84 72
0.18631315756138597 0.18159255606767907 -0.4103946791408458 85 48 26
0.18803010600889725 0.1814265550632547 -0.41295661329545574 76 40 18
0.1889578205525619 0.18138336642483202 -0.41568040669773837 71 35 13
0.1879814125189483 0.1816368779216853 -0.4188062377333103 73 37 15
0.18935867456550642 0.181523588289788 -0.42143359953926507 73 37 15
0.18745421835725623 0.1819220126615119 -0.42476415048642785 72 36 12
0.1868785117372558 0.1821133834570433 -0.42781391839105853 74 38 17
0.18660880547127523 0.18225710314568266 -0.4307999363456873 78 47 28
0.17770112962314483 0.1837495297608864 -0.4356886891600442 78 50 33
0.08429532385768143 0.19844025269295387 -0.45933460517717434 82 55 40
0.15579933000638918 0.18737594817894665 -0.44646770677938086 86 59 44
0.14615885368070772 0.18898623650852342 -0.45161708668444545 75 47 33
0.1026531080444282 0.19589250613414197 -0.46446691601497964 77 49 35
0.09973896018460973 0.19645487136322967 -0.4682010642486735 72 44 30
0.096392706353842 0.19708521489032982 -0.4720451003174805 66 37 23
0.09575143448769664 0.19729259878248862 -0.4752756735689059 64 36 22
0.090438865486883 0.19823150174903353 -0.4795973363857841 65 37 23
0.09605013823908007 0.19746004868360825 -0.48137622253194484 62 34 20
0.08647322626632728 0.1990677781203436 -0.48672375785689515 62 34 19
0.08807716892636622 0.1989241248782496 -0.4894460546655917 61 34 17
0.09850213184887784 0.197397231854383 -0.49005386476036644 52 24 11
0.09933727663886574 0.1973734081424127 -0.49293950982210216 53 25 12
0.09562119447762245 0.19806366279704268 -0.4969274323227274 59 31 17
0.09722170556835906 0.19791986348085402 -0.49963084529990565 59 31 17
0.09400784903698337 0.1985318841849737 -0.5035133837683606 62 34 20
0.0947498030520709 0.19852294707152213 -0.5064292361727827 67 39 25
0.0963513824917447 0.19837889835418404 -0.5091300349307488 68 40 24
0.09619497867697409 0.19851105046764672 -0.5122674583309198 65 36 20
0.09520759971778475 0.1987739321665541 -0.51561625558619 65 37 21
0.09930112840835204 0.1982377434789858 -0.5176801629157806 62 33 17
0.10004502485142854 0.1982282273421329 -0.5205876454178285 63 33 15
0.10094636383665222 0.198193890576139 -0.5234535915732895 67 37 19
0.0989167625535067 0.19862102909808993 -0.5270759562416616 68 38 20
0.1030707990652135 0.19807436756087213 -0.5290970025865942 67 36 18
0.10191450190666596 0.19836409131845228 -0.5324964786832056 67 36 18
0.09976031816099391 0.19881129479478762 -0.5361639424762702 70 39 20
0.100399849162577 0.1988182375145571 -0.5390991247404648 70 39 19
0.09736703276882726 0.19940446444829413 -0.5430130223443747 70 37 18
0.09673172993049707 0.19961273826726136 -0.5462947569154972 66 33 14
0.09533164801936643 0.1999418593631561 -0.5497863416810043 63 30 11
0.09512072679464567 0.20008339474226347 -0.5529608634370219 65 33 15
0.0952071341695366 0.20017803017512587 -0.5560561824928288 69 38 20
0.09657030660488775 0.20007093447920238 -0.5588016869245813 72 40 20
0.09692029110583904 0.20012390359635746 -0.5618241945483171 74 42 21
0.09761726048778913 0.200122006508731 -0.5647504242718803 73 42 21
0.09839008511934225 0.20010807715279205 -0.567654516904609 72 40 19
0.0990501311159751 0.2001119551555879 -0.5705891674811565 76 41 19
0.09942782731442934 0.20016050486524728 -0.5736029041771425 78 43 21
0.10033520408002135 0.20012517351168024 -0.5764660264580025 80 45 23
0.09872365124506685 0.20048884953439594 -0.5800484481493812 80 45 23
0.09893137249532916 0.2005644318557257 -0.5831138325284134 80 45 23
0.0977209407814007 0.20086486975366827 -0.5865903772971875 81 45 23
0.09628888465014733 0.20120064006566515 -0.5901367272645544 79 43 21
0.09502441832511117 0.20151003093273748 -0.5936400415400649 78 42 20
0.09532119709106059 0.20157182888747244 -0.5966892883610219 78 43 20
0.09527543581791369 0.20168802368734667 -0.5998403043842548 85 50 28
0.09528703574624389 0.20179516048372118 -0.6029757531270304 86 51 29
0.09318540094986337 0.20223809097499015 -0.6067448899050807 85 50 29
0.09355571607514793 0.20228842662758673 -0.6097784985712934 82 47 28
0.09568574068987529 0.20205898738514086 -0.612279922570978 77 42 23
0.09645162234322535 0.2020463189558981 -0.6151906389397487 76 41 22
0.09596022361705 0.20223365123237041 -0.6184846630565154 76 40 22
0.09797882070622217 0.20202158911948137 -0.621010031771113 75 39 23
0.09922391548774849 0.20193250130589144 -0.6237692063876957 77 42 23
0.10492167225868641 0.20113411544920387 -0.6251422372686296 74 39 19
0.1029033473282008 0.20156455651815922 -0.6289079523302811 70 37 18
0.1004199517279008 0.20206940216709923 -0.6328276631250264 69 36 17
0.09973232463633935 0.20228824777938606 -0.636190108867003 68 35 17
0.10258758819086623 0.20194211350560415 -0.6384321695133962 66 34 17
0.10262247767153729 0.20204572297758533 -0.6415656287065019 65 34 16
0.10177442007474233 0.20229031009071663 -0.6449833552237255 65 34 16
0.10333385828354355 0.20215062399853284 -0.6476295756920579 65 34 16
0.1010221456613188 0.20262915483158433 -0.651525618393416 63 32 14
0.09855032434233796 0.2031335806797953 -0.655482739852136 62 31 13
0.10370178005375397 0.20241978250904086 -0.6569556535928083 64 33 15
0.10049689399215612 0.20304165229531876 -0.6611602387892823 65 34 16
0.10062792074694515 0.2031303207528908 -0.6642745252052692 64 33 15
0.09858377296082206 0.2035670888193467 -0.6681120334742608 64 33 15
0.09744935381782055 0.20385851340411953 -0.6716540682839419 62 31 13
0.09916840958642106 0.2036931815703031 -0.6742442892184418 62 31 13
0.0982137317759093 0.20395600521178073 -0.6777312739309725 62 31 13
0.08090096099855934 0.20684032186629103 -0.6867625375797037 62 31 13
0.1054371901945503 0.20301809400976212 -0.6816108672037665 62 31 13
0.11028798885389109 0.2023498893937746 -0.6831111204742577 62 31 13
0.1123357887425925 0.20213083028979897 -0.6855598540029025 63 32 14
0.11368781861928284 0.2020232383758927 -0.6882434103268329 65 34 16
0.11484555230181481 0.2019467298406864 -0.6909912680290258 66 35 17
0.11844245294593565 0.2014784266863662 -0.692886436590905 72 41 23
0.11538515605534776 0.20207874663912354 -0.6971015515067276 70 39 21
0.11723619447747011 0.2018906651060334 -0.6996009951216597 65 34 16
0.11841885796433599 0.20180986872069262 -0.7023319732231715 61 32 14
0.11832588490272969 0.20193413342963845 -0.7055135047308151 59 30 12
0.11681517766503403 0.2022865400250139 -0.709202642584569 59 30 13
0.11581066991408775 0.20255770223705613 -0.712716683393299 57 28 13
0.11257849825318861 0.2031876688404769 -0.7170377814986215 55 26 12
0.10828253475442465 0.20398938146601212 -0.7217559059879731 54 25 11
0.10964961019401569 0.20387926798150677 -0.7244311825106624 54 25 11
0.10620658980181016 0.20454427447348664 -0.7288597468429783 54 26 10
0.11045208599122215 0.20397014578867936 -0.7304808273935364 55 28 11
0.1114409447425088 0.20392081409260657 -0.7332891915966786 55 29 12
0.1094452552812241 0.2043529445471855 -0.7372003753790057 56 28 12
0.11317540780859282 0.203861212754065 -0.7389906396530211 55 26 11
0.12285324539831118 0.20240880768839245 -0.7385485262993597 53 24 10
0.1244833975004448 0.2022551443315379 -0.7410945992987716 54 25 11
0.13013458722272145 0.20145165375453175 -0.7421214372777244 55 26 12
0.1405652241758069 0.19987505587026264 -0.7413218767814053 55 26 12
0.14330380014310654 0.19954100849508877 -0.7434130120361886 55 26 12
0.16184201684076602 0.19665116889195525 -0.7394637866552833 54 25 11
0.15349489776527817 0.19810937050942815 -0.7457642120663758 55 26 12
0.1501348502349853 0.1987613721725284 -0.7501730682096461 55 26 12
0.14233122459422637 0.20013331341658921 -0.7563134247794984 55 26 12
0.1301446598674735 0.2022161462457201 -0.7641840216765337 56 27 13
0.12223249653051096 0.2036078364442585 -0.7704289976217293 56 27 13
0.12208460572354816 0.2037419533027529 -0.7736594204463837 58 29 15
0.1341878150850388 0.2018895955587823 -0.7720706425131715 58 29 15
0.13851738480175585 0.20129684130486425 -0.7735148294026796 56 28 14
0.14011757476813072 0.20114652298588875 -0.7760291035959849 53 25 11
0.1364757691428485 0.20184698103690227 -0.7806285858304141 56 28 16
0.1371125729933886 0.20185313018429005 -0.7835292472453242 55 27 15
0.1451316548038628 0.2006600537858031 -0.7834621797953063 54 26 13
0.14657683396760873 0.2005343581602335 -0.7860226895532761 54 27 12
0.14984492930346452 0.20011220931520096 -0.7878409615424726 57 30 15
0.15117779722171154 0.20000442962411308 -0.7904371555066604 57 29 15
0.1540859686954942 0.19964027759587252 -0.7923865369277249 53 25 11
0.1574828327997766 0.1991963064947885 -0.7941269990572484 54 26 12
0.15914614923973566 0.19903419579878684 -0.7965716059417204 56 28 14
0.14268570948927758 0.20182341917399224 -0.8065092572757051 59 31 16
0.14076871193417026 0.20224534319287094 -0.8104630251195443 60 33 16
0.1404470887908908 0.20240754383836276 -0.8137593024047679 59 32 15
0.14106006755509293 0.2024174649744716 -0.8166667099532805 58 31 15
0.14129406289233645 0.2024891692420278 -0.8197327673714945 57 29 15
0.15453360271864708 0.20043911703020226 -0.8173098165695435 57 29 15
0.16927208346333933 0.19814293055272944 -0.8142083424218252 56 28 14
0.1643774271959446 0.19905039491148663 -0.8194118587396834 52 24 12
0.15346968340267045 0.20094053775772414 -0.8272018438685209 51 23 11
0.15383577673084187 0.20099010482455262 -0.8301952589115427 51 23 10
0.1545155716034393 0.20098840644949986 -0.8330537583814375 52 24 12
0.1555599695512409 0.20092706518093548 -0.835753749388429 54 26 13
0.16234806627739753 0.19992624025327904 -0.8359592526753927 55 27 13
0.16726676351281652 0.19923052452803464 -0.836957505364655 60 29 15
0.17376162528671008 0.19827630391033516 -0.8372512043431156 60 28 15
0.18064009574229276 0.197258558403959 -0.8373558677818215 58 29 14
0.17787977654251105 0.19781878795900285 -0.8416864130834938 67 35 18
0.1819822001443002 0.19725493775545822 -0.8429916346931335 67 34 15
0.18197191454855138 0.19736475677383028 -0.8461107365860625 65 32 12
0.1846724024944786 0.19703014815085668 -0.8480228075376857 68 33 12
0.18616934323255233 0.19689268131941962 -0.8504656531922814 71 36 14
0.1884773666820988 0.19662199934858848 -0.8525404561171469 76 39 15
0.18866952571339662 0.19669839816014664 -0.8555627995640029 82 44 21
0.1895012428192379 0.19666980473892842 -0.8582964038909727 89 55 29
0.19034845168166697 0.19663861596502127 -0.8610215116153702 93 64 42
0.18949280423831366 0.19688718928729337 -0.8645215909699121 93 66 46
0.18982835945268256 0.196940101647728 -0.8674807511697026 92 65 47
0.19058771492715196 0.19692333269600615 -0.8702454492747609 94 67 48
0.18305913538021434 0.19826987147078115 -0.876830489983633 90 63 44
0.17433479538698385 0.1998141202310454 -0.8839959741890079 86 59 40
0.18477221499515806 0.1982051075813784 -0.8822917872859194 85 58 39
0.17793999007643227 0.1994387986008449 -0.8886047414378868 83 58 38
0.17944688266277806 0.19929960253488366 -0.891040343440094 81 55 36
0.179854351883165 0.19934145466243217 -0.8939885075457306 74 46 28
0.1780467730175504 0.19974846533293542 -0.8979807028089957 78 47 31
0.17900714037435128 0.1996992684266392 -0.9006710943737202 77 45 28
0.17822873839116884 0.19993685459579588 -0.904185084651632 70 42 21
0.1779029572531924 0.20009988466921405 -0.9074874684182138 75 44 23
0.17719685254883835 0.2003257898190609 -0.9109742214517329 92 63 42
0.17625502046046373 0.20059075778202895 -0.9145779084920297 98 71 50
0.1755248393939114 0.20082091927952128 -0.9180842838572022 98 71 49
0.17490886684316242 0.20103234092117095 -0.921539358238049 96 68 49
0.17418055902021914 0.20126245668473078 -0.9250524280220958 92 63 47
0.1752644343415087 0.2011929931934536 -0.9276873174166512 86 58 41
0.17413305949604133 0.20148995839320355 -0.9314019574770882 73 45 32
0.17302410579367736 0.2017833961909749 -0.9351108916502753 50 25 14
0.16582397702492402 0.20308551539717956 -0.9418212779860428 42 20 9
0.1586044842231642 0.20439174962354534 -0.9485673702092148 41 19 8
0.1475994479615513 0.20632610922790381 -0.9572148100985278 43 19 7
0.1551524792306451 0.2051858969574203 -0.9566771227886569 46 19 8
0.1609734315110624 0.20433202134282086 -0.9569787900598996 52 23 14
0.16513137079283446 0.20375333666029288 -0.9580941727513903 57 26 18
0.16830029429754592 0.20333830723290297 -0.9596933553225437 61 32 20
0.17881831884562985 0.2017031026195606 -0.9575795067884545 71 47 35
0.18180080363060744 0.20131793053262878 -0.9592412830986188 77 58 48
0.18360923238164684 0.20112746714434396 -0.9614898852049801 85 66 59
0.18619220978044024 0.2008081328405861 -0.9633393176008168 83 65 58
0.18699483859697338 0.20078447648918502 -0.9660907154155906 83 67 60
0.18760330705488926 0.20079305861513175 -0.9689402656098224 84 71 63
0.19155570288896398 0.20024537059127503 -0.9700693484789552 89 75 68
0.19817943238842012 0.19925273348913644 -0.9698077010132631 91 76 71
0.20321522996998342 0.198523685124129 -0.9703467081374253 89 73 67
0.2083036147958411 0.19778532334411705 -0.9708423736648233 96 79 71
0.21069369439569255 0.19749589644338908 -0.972728216879178 102 84 76
0.21061174449274353 0.19761818282411206 -0.9758999120364837 106 87 80
0.21326876557418267 0.19728392581914764 -0.9776362069573631 104 84 76
0.2154028990395713 0.19703659715150287 -0.9796399390406645 101 81 74
0.22173504052179915 0.19608872358333296 -0.9794205115941482 101 81 71
0.22481949365350046 0.19568212966171838 -0.9809013884612082 100 80 68
0.22708357484443542 0.19541217032170416 -0.9828090683384779 98 78 67
0.22860821157355116 0.19526547825631718 -0.9851046547556965 103 81 73
0.22875542942136834 0.19534877147342408 -0.9881333670837524 92 69 58
0.2290082600838405 0.19541444420569892 -0.991106256429753 93 68 57
0.22764442440026594 0.1957504210029704 -0.9949503260487653 88 60 47
0.2322062952250583 0.19509554840244284 -0.9955988617512994 84 49 32
0.23447773745772563 0.19482338067273702 -0.9974744163472956 76 38 16
0.23442396434388188 0.1949401549341956 -1.000607856598538 74 34 13
0.2392225742033936 0.19424455300058657 -1.0010957846289221 68 31 7
0.24163733189230033 0.19394768938992116 -1.0028729757823678 69 33 9
0.2432049562863669 0.19379251890286178 -1.0051082142483794 73 37 12
0.244885557250082 0.1936182704785642 -1.0072771451325522 74 37 11
0.25292388070047167 0.192377858616961 -1.0059289796687945 76 39 13
0.2590048470579654 0.19146483183137267 -1.0056389843496119 75 38 12
0.259610218233306 0.191469879598567 -1.0083734884263487 75 36 10
0.24321277467733554 0.19432887832216925 -1.0205902920444327 74 34 9
0.244505192203913 0.194219541471809 -1.0229686330612264 78 38 13
0.24597540545013738 0.19408023066634844 -1.0252440562324867 80 40 15
0.24858862990236535 0.19374872316812194 -1.0268722305983804 82 42 17
0.25223091288591926 0.1932439655511558 -1.0279115054083423 83 44 19
0.2499372566966266 0.1937369819757995 -1.0323019989642104 85 50 25
0.25172342303757733 0.19354402719776048 -1.034383627943943 86 53 28
0.2515545319020081 0.19367989728560114 -1.0375747322491287 90 58 35
0.2519833126883927 0.1937152242999108 -1.0404261025120036 95 63 40
0.24876615124523563 0.1943645247543758 -1.0453682664246842 99 67 44
0.25212534874489545 0.1939064042503021 -1.0465400900431585 98 68 44
0.2516901932348329 0.19408735489543072 -1.0498908523065416 99 69 45
0.25159391996032643 0.19421127698383436 -1.0530484006984195 99 69 45
0.25099754324412527 0.19441959853582103 -1.0564979933988405 99 69 45
0.25083902039096045 0.19455417296328756 -1.0596961232388042 97 69 43
0.25126808732505357 0.19458964978969281 -1.0625530323319234 94 67 42
0.2472806202400769 0.19537075383538066 -1.0679969820816806 93 64 41
0.2464928888955849 0.1956119954901219 -1.071576359703441 89 64 40
0.2479657417818676 0.19547145741484281 -1.073827723586155 86 59 37
0.24411451449926108 0.1962306140433853 -1.0792222113841687 76 46 28
0.24177426313762984 0.19673482706762502 -1.0837359149938035 66 40 23
0.24025038445438018 0.1971012997128536 -1.0877738610988663 61 37 26
0.23904554420872426 0.1974140283315948 -1.0916283268973794 38 17 10
0.24007442316061706 0.1973488840020762 -1.094152405943053 39 19 11
0.24320282990145942 0.19692817693211156 -1.0954147703487955 44 23 10
0.24167642679686052 0.19729555852043668 -1.0994680998290365 45 22 12
0.24623607699970868 0.19663195795862487 -1.0998557486459637 45 20 13
0.24648424155265808 0.1966986475773013 -1.1028379706391602 48 23 13
0.2583124125772994 0.1948018220846005 -1.0987920856241502 53 26 11
0.273439037881711 0.19234409560808458 -1.0926978683512045 60 29 9
0.2698424250087973 0.19306161627141002 -1.0979820862183354 67 32 8
0.2649852646751944 0.19399360138801797 -1.1040522348975625 75 39 14
