ply
format ascii 1.0
element vertex 880
property float x
property float y
property float z
property float nx
property float ny
property float nz
property uchar diffuse_red
property uchar diffuse_green
property uchar diffuse_blue
property uchar class
property uchar detection
end_header
0.0182 0.2721 -0.3928 -0.098 0.818 0.566 62 29 14 0 0
0.0054 0.3085 -0.4362 -0.443 0.853 -0.275 82 53 35 0 0
0.0303 0.2313 -0.4684 -0.359 0.700 0.618 82 53 32 0 0
0.0293 0.2338 -0.4773 -0.423 0.905 0.040 51 25 13 0 0
0.0265 0.2343 -0.6248 -0.250 0.913 0.323 87 48 19 0 0
0.0238 0.2397 -0.6782 -0.219 0.935 0.277 81 44 20 0 0
0.0231 0.2419 -0.6806 -0.329 0.901 0.282 78 42 18 0 0
0.0215 0.2458 -0.6954 -0.368 0.855 0.365 65 30 10 0 0
0.0204 0.2479 -0.7175 -0.352 0.922 0.161 62 30 10 0 0
0.0184 0.2539 -0.7183 -0.431 0.877 0.211 62 29 10 0 0
0.0185 0.2536 -0.7217 -0.318 0.865 0.388 62 29 10 0 0
0.0175 0.2563 -0.7239 -0.386 0.740 0.550 60 29 9 0 0
0.0173 0.2570 -0.7269 -0.329 0.904 0.274 60 29 11 0 0
0.0169 0.2578 -0.7298 -0.329 0.904 0.274 60 29 11 0 0
0.0166 0.2588 -0.7326 -0.570 0.820 0.045 59 28 10 0 0
0.0167 0.2581 -0.7362 -0.415 0.909 -0.034 60 27 10 0 0
0.0171 0.2565 -0.7434 -0.323 0.881 0.345 63 30 13 0 0
0.0153 0.2612 -0.7610 -0.381 0.910 0.164 66 33 14 0 0
0.0152 0.2613 -0.7642 -0.449 0.879 0.160 59 26 8 0 0
0.0151 0.2615 -0.7674 -0.379 0.919 0.106 56 23 6 0 0
0.0148 0.2617 -0.7771 -0.395 0.913 0.105 56 24 9 0 0
0.0145 0.2627 -0.7800 -0.597 0.753 0.278 56 24 9 0 0
0.0006 0.3020 -0.8306 -0.390 0.841 0.374 62 28 8 0 0
0.0003 0.3027 -0.8335 -0.076 0.972 0.223 63 28 8 0 0
0.0004 0.3020 -0.8436 -0.222 0.975 -0.026 75 33 11 0 0
-0.0031 0.3110 -0.8748 -0.202 0.968 0.152 75 46 29 0 0
-0.0030 0.3106 -0.8783 0.137 0.974 0.178 72 45 31 0 0
-0.0030 0.3101 -0.8817 -0.106 0.975 -0.195 72 46 32 0 0
0.0004 0.2986 -0.9071 -0.458 0.858 0.233 57 30 19 0 0
0.0006 0.2977 -0.9108 -0.338 0.935 0.104 58 32 20 0 0
0.0004 0.2981 -0.9139 -0.320 0.934 0.156 65 39 26 0 0
0.0003 0.2985 -0.9170 -0.320 0.934 0.156 68 42 27 0 0
0.0011 0.2943 -0.9455 -0.303 0.911 0.280 68 35 16 0 0
-0.0230 0.3645 -1.0042 0.020 0.935 0.354 82 39 10 0 0
-0.0255 0.3710 -1.0261 -0.371 0.903 0.216 98 58 23 0 0
-0.0259 0.3719 -1.0287 -0.469 0.861 0.198 101 62 29 0 0
-0.0262 0.3726 -1.0348 -0.379 0.919 0.106 106 74 45 0 0
-0.0263 0.3729 -1.0378 -0.379 0.919 0.106 107 76 48 0 0
-0.0266 0.3736 -1.0406 -0.301 0.950 0.077 107 77 49 0 0
-0.0268 0.3738 -1.0437 -0.301 0.950 0.077 103 71 43 0 0
-0.0254 0.3680 -1.0731 -0.214 0.929 -0.303 92 64 43 0 0
-0.0258 0.3687 -1.0824 -0.376 0.921 0.101 59 41 30 0 0
-0.0256 0.3680 -1.0861 -0.291 0.956 0.048 39 20 13 0 0
-0.0261 0.3693 -1.0885 -0.238 0.970 -0.046 35 16 9 0 0
-0.0256 0.3674 -1.0995 -0.078 0.960 0.268 57 24 9 0 0
-0.0263 0.3694 -1.1015 -0.078 0.854 0.514 64 27 7 0 0
-0.0275 0.3727 -1.1091 -0.308 0.905 0.293 75 34 12 0 0
0.0600 0.1822 0.1192 -0.416 0.368 -0.831 183 183 185 0 0
0.0445 0.2279 0.0964 -0.137 0.988 0.077 140 109 94 0 0
0.0432 0.2315 0.0903 -0.049 0.924 0.380 127 96 78 0 0
0.0268 0.2777 0.0254 -0.199 0.936 0.292 103 64 36 0 0
0.0264 0.2787 0.0225 -0.281 0.958 -0.059 99 59 28 0 0
0.0247 0.2828 0.0023 -0.302 0.904 0.303 88 47 20 0 0
0.0247 0.2828 -0.0006 -0.305 0.897 0.320 87 47 21 0 0
0.0307 0.2620 -0.0508 0.400 0.804 -0.440 9 5 4 0 0
0.0153 0.3024 -0.1655 -0.029 0.967 0.253 63 44 37 0 0
0.0232 0.2744 -0.2433 -0.852 0.474 -0.221 58 37 27 0 0
0.0234 0.2736 -0.2465 -0.820 0.559 -0.122 60 39 29 0 0
0.0246 0.2692 -0.2653 -0.276 0.773 -0.571 63 39 27 0 0
0.0247 0.2681 -0.2745 -0.348 0.902 0.256 61 37 23 0 0
0.0245 0.2676 -0.2989 -0.507 0.857 0.094 56 28 14 0 0
0.0217 0.2750 -0.3189 -0.338 0.940 0.053 71 36 16 0 0
0.0226 0.2720 -0.3225 0.059 0.984 0.167 73 39 18 0 0
0.0223 0.2726 -0.3316 0.184 0.979 -0.088 69 40 29 0 0
0.0261 0.2606 -0.3370 -0.310 0.782 -0.541 37 15 8 0 0
0.0282 0.2534 -0.3569 -0.329 0.944 0.004 40 20 11 0 0
0.0275 0.2551 -0.3627 -0.476 0.793 0.380 26 14 8 0 0
0.0259 0.2596 -0.3680 -0.153 0.880 -0.451 36 18 11 0 0
0.0085 0.3095 -0.4210 -0.199 0.973 0.115 69 31 12 0 0
0.0084 0.3092 -0.4333 -0.260 0.962 -0.078 84 54 34 0 0
0.0085 0.3086 -0.4364 -0.160 0.964 -0.213 82 53 33 0 0
0.0333 0.2322 -0.4685 0.015 0.883 0.469 86 59 37 0 0
0.0313 0.2329 -0.5674 -0.351 0.936 0.008 69 37 13 0 0
0.0311 0.2333 -0.5706 -0.432 0.896 0.105 71 38 14 0 0
0.0310 0.2336 -0.5737 -0.432 0.896 0.105 72 39 14 0 0
0.0311 0.2330 -0.5771 -0.461 0.884 0.074 73 38 15 0 0
0.0313 0.2315 -0.5937 -0.387 0.912 0.133 72 36 14 0 0
0.0276 0.2390 -0.6625 -0.322 0.846 0.425 81 43 15 0 0
0.0270 0.2402 -0.6751 -0.426 0.900 0.094 72 34 11 0 0
0.0260 0.2430 -0.6806 -0.329 0.901 0.282 76 39 15 0 0
0.0257 0.2438 -0.6836 -0.329 0.901 0.282 72 37 12 0 0
0.0254 0.2446 -0.6865 -0.329 0.901 0.282 75 40 15 0 0
0.0254 0.2443 -0.6899 -0.535 0.792 0.296 73 39 16 0 0
0.0226 0.2511 -0.7231 -0.140 0.988 -0.057 61 28 9 0 0
0.0224 0.2514 -0.7263 -0.168 0.969 0.183 60 28 9 0 0
0.0213 0.2544 -0.7349 -0.201 0.899 0.390 61 27 10 0 0
0.0205 0.2563 -0.7406 -0.310 0.930 0.197 64 29 12 0 0
0.0201 0.2574 -0.7435 -0.445 0.862 0.242 63 29 11 0 0
0.0193 0.2598 -0.7490 -0.182 0.970 0.160 56 24 8 0 0
0.0190 0.2604 -0.7520 -0.396 0.910 0.125 55 22 7 0 0
0.0189 0.2605 -0.7552 -0.263 0.954 0.142 59 27 10 0 0
0.0183 0.2622 -0.7578 -0.495 0.823 0.277 62 30 10 0 0
0.0180 0.2629 -0.7640 -0.381 0.910 0.164 63 31 11 0 0
0.0180 0.2627 -0.7674 -0.379 0.919 0.106 56 23 5 0 0
0.0132 0.2758 -0.7911 -0.677 0.640 0.365 57 22 6 0 0
0.0128 0.2769 -0.7938 -0.677 0.640 0.365 58 23 7 0 0
0.0034 0.3035 -0.8272 -0.527 0.793 0.307 59 25 6 0 0
0.0035 0.2984 -0.9208 -0.441 0.843 0.308 71 44 28 0 0
-0.0190 0.3624 -0.9996 -0.175 0.894 0.413 82 38 8 0 0
-0.0194 0.3635 -1.0021 -0.175 0.894 0.413 82 38 9 0 0
-0.0200 0.3649 -1.0045 -0.178 0.906 0.384 82 39 10 0 0
-0.0206 0.3662 -1.0167 -0.136 0.976 0.171 91 48 17 0 0
-0.0234 0.3736 -1.0348 -0.418 0.902 0.107 105 72 44 0 0
-0.0239 0.3743 -1.0537 -0.341 0.932 0.124 98 67 39 0 0
-0.0230 0.3699 -1.0823 -0.376 0.921 0.101 59 40 30 0 0
-0.0247 0.3737 -1.1091 -0.308 0.905 0.293 74 34 12 0 0
-0.0249 0.3742 -1.1121 -0.205 0.976 0.080 79 42 19 0 0
-0.0252 0.3748 -1.1181 -0.135 0.987 0.084 95 59 32 0 0
-0.0254 0.3751 -1.1212 -0.135 0.987 0.084 99 67 39 0 0
-0.0255 0.3753 -1.1243 -0.135 0.987 0.084 100 69 40 0 0
0.0611 0.1880 0.1099 0.286 0.511 0.810 135 108 93 0 0
0.0400 0.2490 0.0605 -0.068 0.997 0.025 71 31 12 0 0
0.0391 0.2515 0.0547 -0.262 0.847 0.462 88 55 32 0 0
0.0334 0.2679 0.0399 -0.284 0.791 0.543 151 122 110 0 0
0.0323 0.2709 0.0341 -0.104 0.814 0.572 136 104 84 0 0
0.0322 0.2709 0.0312 0.031 0.545 0.838 135 104 83 0 0
0.0297 0.2781 0.0225 -0.133 0.991 0.028 96 55 28 0 0
0.0290 0.2800 0.0167 -0.474 0.872 -0.118 82 37 10 0 0
0.0288 0.2802 0.0138 -0.328 0.944 -0.025 81 35 9 0 0
0.0262 0.2868 -0.0093 -0.354 0.919 -0.175 76 36 12 0 0
0.0273 0.2829 -0.0238 -0.407 0.912 0.041 58 31 18 0 0
0.0276 0.2819 -0.0268 -0.480 0.869 0.123 53 29 17 0 0
0.0277 0.2814 -0.0297 -0.424 0.905 -0.046 41 21 13 0 0
0.0310 0.2694 -0.0712 -0.196 0.947 0.257 24 12 8 0 0
0.0300 0.2716 -0.0858 -0.137 0.981 0.136 45 16 5 0 0
0.0256 0.2767 -0.2462 -0.912 0.363 -0.190 61 39 28 0 0
0.0255 0.2763 -0.2583 -0.438 0.871 -0.222 64 40 30 0 0
0.0270 0.2707 -0.2773 -0.018 0.994 -0.109 65 39 26 0 0
0.0269 0.2708 -0.2804 -0.051 0.954 -0.295 64 38 23 0 0
0.0251 0.2744 -0.3193 -0.212 0.976 0.040 72 37 17 0 0
0.0289 0.2619 -0.3369 -0.471 0.736 -0.486 38 17 10 0 0
0.0310 0.2544 -0.3569 -0.245 0.959 0.145 41 21 13 0 0
0.0221 0.2794 -0.3917 -0.782 0.575 0.241 57 26 13 0 0
0.0209 0.2832 -0.3939 -0.448 0.609 0.654 67 33 18 0 0
0.0113 0.3105 -0.4211 -0.262 0.965 -0.019 67 29 10 0 0
0.0114 0.3098 -0.4273 -0.168 0.985 -0.036 74 38 18 0 0
0.0114 0.3096 -0.4334 0.097 0.980 -0.176 84 55 34 0 0
0.0116 0.3088 -0.4367 0.116 0.953 -0.281 90 59 39 0 0
0.0356 0.2327 -0.5101 -0.204 0.967 0.150 53 27 12 0 0
0.0343 0.2345 -0.5544 -0.423 0.901 0.097 59 26 8 0 0
0.0336 0.2355 -0.5734 -0.333 0.927 0.171 72 39 18 0 0
0.0335 0.2344 -0.6029 -0.398 0.917 0.011 79 42 16 0 0
0.0332 0.2347 -0.6125 -0.331 0.943 -0.022 90 53 24 0 0
0.0328 0.2340 -0.6517 -0.490 0.865 -0.105 86 49 20 0 0
0.0280 0.2463 -0.6928 -0.190 0.948 0.255 70 35 15 0 0
0.0257 0.2516 -0.7234 -0.140 0.988 -0.057 63 30 11 0 0
0.0256 0.2517 -0.7266 -0.143 0.964 0.225 62 29 10 0 0
0.0252 0.2527 -0.7327 0.077 0.900 0.430 63 27 11 0 0
0.0235 0.2575 -0.7406 -0.305 0.896 0.323 65 29 12 0 0
0.0231 0.2584 -0.7435 -0.305 0.896 0.323 64 29 10 0 0
0.0227 0.2595 -0.7463 -0.484 0.817 0.312 61 28 10 0 0
0.0222 0.2607 -0.7491 -0.532 0.817 0.223 59 26 9 0 0
0.0219 0.2616 -0.7519 -0.580 0.787 0.209 59 26 9 0 0
0.0161 0.2770 -0.7877 -0.482 0.751 0.451 58 22 6 0 0
0.0161 0.2770 -0.7910 -0.145 0.774 0.616 59 23 7 0 0
0.0031 0.3124 -0.8622 -0.452 0.891 -0.042 87 51 26 0 0
0.0031 0.3122 -0.8655 -0.424 0.905 0.027 86 52 29 0 0
0.0055 0.3045 -0.8758 -0.565 0.821 -0.083 79 50 30 0 0
0.0064 0.3001 -0.9074 -0.151 0.940 -0.305 60 34 21 0 0
0.0056 0.3018 -0.9196 -0.292 0.954 -0.072 73 46 29 0 0
0.0052 0.3013 -0.9527 -0.745 0.622 0.240 60 26 9 0 0
-0.0060 0.3340 -0.9742 -0.285 0.819 0.498 91 73 63 0 0
-0.0064 0.3351 -0.9768 -0.276 0.876 0.395 94 76 66 0 0
-0.0159 0.3626 -0.9968 -0.187 0.911 0.367 79 38 11 0 0
-0.0166 0.3646 -1.0021 -0.187 0.911 0.367 81 37 9 0 0
-0.0170 0.3656 -1.0047 -0.178 0.906 0.384 80 36 7 0 0
-0.0207 0.3749 -1.0378 -0.163 0.959 0.234 103 72 44 0 0
-0.0205 0.3734 -1.0548 -0.424 0.897 -0.123 97 66 38 0 0
-0.0210 0.3748 -1.0572 -0.246 0.969 -0.005 99 68 40 0 0
-0.0211 0.3751 -1.0603 -0.298 0.954 -0.017 98 67 39 0 0
-0.0202 0.3710 -1.0822 -0.242 0.965 0.101 57 37 28 0 0
-0.0203 0.3713 -1.0853 -0.505 0.858 0.098 38 18 11 0 0
-0.0208 0.3722 -1.0977 -0.590 0.634 0.500 58 25 10 0 0
-0.0218 0.3747 -1.1091 -0.308 0.905 0.293 78 37 14 0 0
-0.0219 0.3748 -1.1123 -0.180 0.943 0.281 87 49 24 0 0
-0.0223 0.3757 -1.1150 -0.190 0.941 0.280 92 56 30 0 0
-0.0226 0.3764 -1.1177 -0.190 0.941 0.280 95 61 33 0 0
-0.0229 0.3772 -1.1205 -0.190 0.941 0.280 98 65 37 0 0
-0.0225 0.3758 -1.1247 -0.135 0.987 0.084 100 69 40 0 0
0.0662 0.1828 0.1131 0.190 0.622 0.760 153 143 138 0 0
0.0648 0.1866 0.1099 0.218 0.671 0.709 133 109 96 0 0
0.0640 0.1890 0.1068 0.223 0.624 0.749 129 97 78 0 0
0.0410 0.2551 0.0546 -0.447 0.757 0.477 95 62 39 0 0
0.0399 0.2582 0.0516 -0.431 0.475 0.767 102 67 47 0 0
0.0290 0.2878 -0.0093 -0.354 0.919 -0.175 70 33 12 0 0
0.0339 0.2701 -0.0712 -0.196 0.947 0.257 23 12 7 0 0
0.0333 0.2715 -0.0741 -0.375 0.774 0.511 58 42 35 0 0
0.0329 0.2725 -0.0770 -0.324 0.893 0.314 67 48 40 0 0
0.0323 0.2744 -0.0798 -0.426 0.818 0.387 66 41 32 0 0
0.0321 0.2747 -0.0828 -0.486 0.871 0.076 59 31 19 0 0
0.0328 0.2726 -0.0858 -0.525 0.851 0.007 53 25 12 0 0
0.0304 0.2791 -0.0972 -0.218 0.537 0.815 72 45 32 0 0
0.0209 0.3073 -0.1041 -0.141 0.722 0.677 83 46 24 0 0
0.0142 0.3260 -0.1287 -0.548 0.729 0.410 74 35 7 0 0
0.0162 0.3181 -0.1642 0.020 0.987 0.158 63 44 37 0 0
0.0170 0.3155 -0.1703 -0.191 0.923 -0.335 63 44 37 0 0
0.0203 0.3054 -0.1773 -0.575 0.685 -0.447 62 43 36 0 0
0.0205 0.3047 -0.1803 -0.730 0.632 -0.259 62 43 36 0 0
0.0205 0.3044 -0.1832 -0.884 0.463 -0.062 62 42 34 0 0
0.0205 0.3041 -0.1862 -0.884 0.463 -0.062 62 42 33 0 0
0.0299 0.2720 -0.2682 -0.197 0.980 -0.037 67 44 30 0 0
0.0299 0.2719 -0.2713 -0.197 0.980 -0.037 65 42 28 0 0
0.0273 0.2773 -0.3190 -0.346 0.897 0.273 73 38 18 0 0
0.0321 0.2602 -0.3684 -0.176 0.702 0.690 42 23 14 0 0
0.0176 0.3017 -0.4082 -0.132 0.982 0.133 96 74 64 0 0
0.0173 0.3025 -0.4111 -0.125 0.957 0.263 96 70 50 0 0
0.0143 0.3105 -0.4274 -0.241 0.970 0.015 77 40 20 0 0
0.0387 0.2334 -0.5102 -0.204 0.967 0.150 54 28 11 0 0
0.0385 0.2338 -0.5133 -0.204 0.967 0.150 53 27 11 0 0
0.0366 0.2350 -0.5998 -0.255 0.920 0.298 78 41 17 0 0
0.0352 0.2362 -0.6578 -0.355 0.929 0.104 86 47 18 0 0
0.0310 0.2473 -0.6929 -0.393 0.875 0.282 65 30 11 0 0
0.0308 0.2475 -0.6993 -0.483 0.857 -0.180 64 29 10 0 0
0.0309 0.2468 -0.7061 -0.571 0.801 -0.181 60 27 8 0 0
0.0288 0.2521 -0.7236 -0.002 0.999 0.036 62 29 10 0 0
0.0264 0.2584 -0.7407 -0.426 0.823 0.375 64 29 12 0 0
0.0260 0.2595 -0.7435 -0.426 0.823 0.375 65 30 11 0 0
0.0254 0.2611 -0.7461 -0.484 0.817 0.312 64 30 11 0 0
0.0248 0.2629 -0.7486 -0.598 0.779 0.188 62 29 10 0 0
0.0244 0.2638 -0.7547 -0.519 0.814 0.260 61 29 9 0 0
0.0231 0.2671 -0.7631 -0.530 0.837 0.134 65 33 12 0 0
0.0217 0.2706 -0.7779 -0.224 0.972 -0.071 56 24 9 0 0
0.0058 0.3145 -0.8552 -0.305 0.923 0.235 88 52 22 0 0
0.0056 0.3147 -0.8583 -0.414 0.910 0.007 86 51 24 0 0
0.0052 0.3150 -0.8776 -0.121 0.989 -0.088 75 48 29 0 0
0.0088 0.3035 -0.8931 -0.001 0.928 0.372 68 42 27 0 0
0.0079 0.3059 -0.8984 0.017 0.985 -0.170 65 39 24 0 0
0.0090 0.3013 -0.9204 -0.335 0.937 0.104 74 46 28 0 0
0.0082 0.3021 -0.9528 -0.546 0.714 0.438 61 27 10 0 0
-0.0030 0.3347 -0.9711 -0.554 0.793 0.253 89 71 61 0 0
-0.0032 0.3354 -0.9740 -0.554 0.793 0.253 88 70 60 0 0
-0.0035 0.3361 -0.9768 -0.554 0.793 0.253 91 73 63 0 0
-0.0136 0.3650 -0.9992 -0.586 0.695 0.416 82 39 10 0 0
-0.0148 0.3684 -1.0069 -0.281 0.935 0.217 81 37 8 0 0
-0.0145 0.3673 -1.0107 -0.305 0.951 0.049 86 42 13 0 0
-0.0146 0.3674 -1.0139 -0.305 0.951 0.049 88 44 15 0 0
-0.0177 0.3755 -1.0380 -0.163 0.959 0.234 103 72 43 0 0
-0.0176 0.3749 -1.0416 -0.208 0.974 0.092 104 74 46 0 0
-0.0181 0.3755 -1.0574 -0.246 0.969 -0.005 99 68 40 0 0
-0.0184 0.3750 -1.0868 0.145 0.945 0.294 37 16 9 0 0
-0.0184 0.3745 -1.0969 -0.346 0.929 0.131 59 27 11 0 0
-0.0186 0.3749 -1.0999 -0.346 0.929 0.131 65 29 10 0 0
-0.0194 0.3769 -1.1083 -0.173 0.972 0.157 77 37 12 0 0
-0.0197 0.3776 -1.1111 -0.277 0.961 0.023 83 46 20 0 0
0.0700 0.1808 0.1132 0.051 0.724 0.688 170 164 163 0 0
0.0688 0.1843 0.1100 0.043 0.722 0.691 138 116 104 0 0
0.0686 0.1849 0.1070 -0.156 0.834 0.530 131 99 82 0 0
0.0441 0.2553 0.0574 -0.384 0.795 0.469 78 39 17 0 0
0.0322 0.2877 -0.0065 -0.329 0.934 0.140 68 30 11 0 0
0.0320 0.2881 -0.0094 -0.278 0.960 -0.044 65 29 12 0 0
0.0360 0.2727 -0.0800 -0.425 0.866 0.264 59 34 24 0 0
0.0360 0.2724 -0.0859 0.051 0.997 0.060 56 28 14 0 0
0.0299 0.2897 -0.1025 -0.120 0.371 0.921 78 40 22 0 0
0.0172 0.3253 -0.1462 -0.199 0.959 -0.202 63 39 25 0 0
0.0231 0.3056 -0.1862 -0.897 0.440 -0.052 63 43 34 0 0
0.0227 0.3069 -0.1890 -0.489 0.870 0.064 63 42 33 0 0
0.0289 0.2856 -0.2453 -0.926 0.358 -0.118 61 39 28 0 0
0.0323 0.2740 -0.2712 -0.271 0.960 -0.070 64 41 27 0 0
0.0319 0.2750 -0.2771 -0.303 0.941 -0.151 66 40 27 0 0
0.0342 0.2653 -0.3368 -0.374 0.738 -0.562 36 15 8 0 0
0.0364 0.2574 -0.3599 0.005 0.962 0.274 33 18 10 0 0
0.0340 0.2638 -0.3740 -0.122 0.854 0.506 49 25 15 0 0
0.0321 0.2694 -0.3790 -0.166 0.984 -0.068 42 18 8 0 0
0.0281 0.2805 -0.3920 -0.153 0.718 0.679 56 27 16 0 0
0.0418 0.2351 -0.4877 -0.244 0.956 0.163 58 32 17 0 0
0.0416 0.2356 -0.4907 -0.244 0.956 0.163 61 35 22 0 0
0.0319 0.2527 -0.7271 -0.143 0.964 0.225 61 27 8 0 0
0.0223 0.2791 -0.7715 -0.463 0.744 0.483 59 26 9 0 0
0.0083 0.3163 -0.8613 -0.751 0.659 0.031 86 51 27 0 0
0.0083 0.3154 -0.8747 -0.267 0.963 -0.038 76 49 30 0 0
0.0083 0.3153 -0.8780 -0.121 0.989 -0.088 76 49 28 0 0
0.0119 0.3036 -0.8968 -0.505 0.862 0.036 69 43 28 0 0
0.0110 0.3037 -0.9492 -0.501 0.750 0.431 62 29 13 0 0
0.0109 0.3039 -0.9524 -0.424 0.672 0.607 62 28 11 0 0
-0.0138 0.3736 -1.0333 -0.216 0.963 0.161 100 64 31 0 0
-0.0153 0.3774 -1.0439 -0.385 0.915 0.121 112 82 54 0 0
-0.0140 0.3719 -1.0797 -0.203 0.942 0.267 66 39 29 0 0
-0.0158 0.3765 -1.0930 -0.485 0.845 -0.225 56 27 15 0 0
-0.0163 0.3773 -1.1055 -0.187 0.971 0.146 71 31 9 0 0
-0.0168 0.3785 -1.1112 -0.277 0.961 0.023 84 47 20 0 0
-0.0169 0.3785 -1.1144 -0.277 0.961 0.023 86 50 24 0 0
-0.0170 0.3788 -1.1175 -0.241 0.970 0.028 87 52 28 0 0
-0.0169 0.3782 -1.1244 -0.256 0.963 -0.089 91 60 31 0 0
-0.0170 0.3778 -1.1376 -0.290 0.957 -0.015 98 65 39 0 0
0.0734 0.1806 0.1132 0.051 0.724 0.688 180 175 176 0 0
0.0721 0.1842 0.1100 0.027 0.699 0.714 140 124 116 0 0
0.0716 0.1855 0.1069 -0.159 0.797 0.583 131 102 87 0 0
0.0479 0.2532 0.0545 0.327 0.804 0.496 101 67 45 0 0
0.0473 0.2546 0.0516 0.273 0.725 0.633 97 62 41 0 0
0.0460 0.2583 0.0486 0.241 0.655 0.716 100 60 37 0 0
0.0384 0.2744 -0.0859 -0.260 0.965 0.032 58 29 15 0 0
0.0384 0.2743 -0.0918 -0.284 0.946 -0.156 62 34 17 0 0
0.0384 0.2739 -0.0948 -0.076 0.849 -0.523 68 42 24 0 0
0.0332 0.2891 -0.1027 -0.662 0.232 0.713 77 38 22 0 0
0.0190 0.3297 -0.1315 -0.534 0.830 0.161 74 36 10 0 0
0.0263 0.3053 -0.1894 -0.030 0.867 0.498 63 44 34 0 0
0.0340 0.2789 -0.2645 -0.587 0.773 -0.240 65 42 28 0 0
0.0333 0.2783 -0.3192 0.072 0.975 -0.209 71 36 15 0 0
0.0398 0.2571 -0.3571 0.086 0.949 0.303 38 18 9 0 0
0.0371 0.2642 -0.3742 -0.233 0.918 0.320 52 28 18 0 0
0.0367 0.2651 -0.3771 -0.233 0.918 0.320 44 19 11 0 0
0.0210 0.3103 -0.4098 -0.179 0.872 0.456 90 57 38 0 0
0.0449 0.2342 -0.5138 -0.092 0.996 0.007 57 30 15 0 0
0.0443 0.2344 -0.5458 -0.073 0.997 0.010 65 34 13 0 0
0.0443 0.2344 -0.5490 -0.073 0.997 0.010 63 32 11 0 0
0.0441 0.2347 -0.5522 0.018 0.974 0.226 65 34 13 0 0
0.0439 0.2354 -0.5552 0.018 0.974 0.226 69 37 15 0 0
0.0370 0.2475 -0.7230 0.193 0.980 0.056 57 26 8 0 0
0.0294 0.2685 -0.7504 -0.231 0.939 0.256 61 28 11 0 0
0.0179 0.2991 -0.8247 -0.310 0.941 0.136 59 23 9 0 0
0.0161 0.3042 -0.8288 0.164 0.962 0.216 61 26 7 0 0
0.0123 0.3128 -0.8862 -0.215 0.940 0.264 73 46 28 0 0
0.0118 0.3139 -0.8889 -0.230 0.945 0.234 72 44 29 0 0
0.0153 0.3028 -0.9043 -0.175 0.969 -0.177 66 38 24 0 0
0.0135 0.3060 -0.9486 -0.306 0.842 0.443 63 30 13 0 0
0.0131 0.3072 -0.9512 -0.354 0.843 0.405 64 33 15 0 0
0.0125 0.3087 -0.9537 -0.555 0.683 0.475 70 42 28 0 0
0.0011 0.3414 -0.9782 -0.136 0.906 0.400 95 77 67 0 0
-0.0004 0.3451 -0.9957 -0.192 0.913 -0.360 95 75 64 0 0
-0.0095 0.3707 -1.0228 -0.417 0.857 0.302 86 41 10 0 0
-0.0122 0.3764 -1.0678 -0.328 0.934 -0.145 93 64 37 0 0
-0.0126 0.3763 -1.0970 -0.156 0.912 0.379 57 25 11 0 0
-0.0128 0.3767 -1.1000 -0.061 0.981 0.186 62 25 8 0 0
-0.0137 0.3787 -1.1149 -0.170 0.981 0.097 85 49 23 0 0
-0.0139 0.3789 -1.1180 -0.170 0.981 0.097 85 49 28 0 0
-0.0140 0.3792 -1.1211 -0.170 0.981 0.097 86 52 27 0 0
0.0753 0.1841 0.1100 0.043 0.691 0.721 154 143 137 0 0
0.0703 0.1985 0.1004 0.158 0.473 0.867 134 99 77 0 0
0.0562 0.2386 0.0694 -0.483 0.811 0.330 75 38 18 0 0
0.0493 0.2580 0.0485 -0.141 0.589 0.795 101 61 38 0 0
0.0390 0.2864 0.0107 -0.530 0.846 0.061 74 37 10 0 0
0.0412 0.2752 -0.0890 -0.541 0.834 0.110 52 22 10 0 0
0.0413 0.2749 -0.0919 -0.396 0.913 -0.096 53 25 11 0 0
0.0404 0.2774 -0.0947 -0.599 0.541 0.591 63 36 22 0 0
0.0307 0.3056 -0.1046 -0.203 0.484 0.851 82 45 25 0 0
0.0256 0.3198 -0.1209 -0.310 0.861 0.403 129 95 77 0 0
0.0252 0.3208 -0.1237 -0.380 0.851 0.364 99 60 33 0 0
0.0222 0.3295 -0.1288 -0.415 0.873 0.254 83 40 15 0 0
0.0409 0.2681 -0.2542 -0.520 0.822 0.231 62 38 26 0 0
0.0450 0.2517 -0.3491 -0.347 0.854 0.388 51 29 16 0 0
0.0447 0.2524 -0.3521 -0.298 0.920 0.252 52 28 19 0 0
0.0444 0.2532 -0.3550 -0.458 0.886 0.071 47 25 13 0 0
0.0434 0.2559 -0.3576 -0.017 0.896 0.443 45 25 12 0 0
0.0439 0.2543 -0.3610 -0.284 0.944 0.169 39 22 11 0 0
0.0404 0.2639 -0.3714 -0.067 0.878 0.474 45 24 14 0 0
0.0400 0.2650 -0.3743 -0.233 0.918 0.320 48 24 14 0 0
0.0391 0.2676 -0.3768 -0.304 0.854 0.421 46 21 13 0 0
0.0477 0.2322 -0.5856 -0.237 0.955 -0.180 71 37 12 0 0
0.0475 0.2326 -0.5887 0.024 0.985 0.169 71 37 13 0 0
0.0469 0.2319 -0.6410 -0.194 0.978 -0.073 87 48 21 0 0
0.0469 0.2320 -0.6442 -0.196 0.978 -0.067 85 45 19 0 0
0.0458 0.2346 -0.6531 -0.122 0.967 0.223 85 45 20 0 0
0.0411 0.2453 -0.7178 0.086 0.995 -0.042 56 23 6 0 0
0.0411 0.2452 -0.7211 0.086 0.995 -0.042 55 24 6 0 0
0.0405 0.2469 -0.7270 -0.068 0.998 0.012 58 27 9 0 0
0.0283 0.2805 -0.7718 -0.108 0.975 0.194 56 25 7 0 0
0.0190 0.3049 -0.8354 0.094 0.851 0.517 62 27 7 0 0
0.0133 0.3207 -0.8569 -0.069 0.967 0.245 86 54 28 0 0
0.0130 0.3214 -0.8598 -0.069 0.967 0.245 86 54 31 0 0
0.0186 0.3029 -0.9048 -0.039 0.978 -0.203 67 39 25 0 0
0.0188 0.3010 -0.9288 -0.176 0.960 0.216 85 54 33 0 0
0.0186 0.3016 -0.9317 -0.176 0.960 0.216 86 55 34 0 0
0.0060 0.3369 -0.9716 -0.092 0.744 0.662 83 65 51 0 0
0.0040 0.3425 -0.9782 -0.334 0.853 0.401 97 79 69 0 0
0.0031 0.3440 -1.0001 -0.198 0.913 -0.356 93 67 54 0 0
-0.0016 0.3579 -0.9986 -0.056 0.980 0.189 78 40 20 0 0
-0.0092 0.3768 -1.0713 -0.432 0.878 -0.205 87 59 37 0 0
-0.0091 0.3758 -1.0882 -0.203 0.966 0.157 38 16 9 0 0
-0.0095 0.3768 -1.0940 -0.161 0.977 0.141 50 21 10 0 0
-0.0099 0.3776 -1.0968 -0.266 0.938 0.221 56 24 10 0 0
-0.0098 0.3771 -1.1036 -0.190 0.969 0.159 68 31 11 0 0
-0.0106 0.3789 -1.1155 -0.278 0.929 0.246 85 49 24 0 0
-0.0111 0.3798 -1.1246 -0.241 0.970 0.018 96 63 35 0 0
-0.0112 0.3796 -1.1378 -0.047 0.999 0.014 100 70 42 0 0
0.0782 0.1852 0.1099 -0.021 0.587 0.809 172 167 164 0 0
0.0771 0.1884 0.1068 -0.320 0.738 0.594 132 115 104 0 0
0.0770 0.1883 0.1038 -0.479 0.706 0.521 131 101 85 0 0
0.0571 0.2450 0.0663 -0.872 0.445 0.201 68 32 13 0 0
0.0444 0.2750 -0.0861 -0.714 0.640 0.284 55 25 14 0 0
0.0439 0.2764 -0.0890 -0.396 0.913 -0.096 53 23 13 0 0
0.0295 0.3154 -0.1592 0.015 0.994 -0.113 65 47 37 0 0
0.0340 0.3004 -0.1962 -0.312 0.918 -0.244 61 41 32 0 0
0.0451 0.2653 -0.2549 -0.146 0.886 -0.441 62 38 26 0 0
0.0436 0.2692 -0.2604 -0.309 0.795 0.523 63 39 27 0 0
0.0430 0.2710 -0.2631 -0.099 0.799 0.593 63 41 27 0 0
0.0421 0.2707 -0.3211 -0.034 0.967 0.251 73 37 16 0 0
0.0417 0.2720 -0.3239 0.009 0.986 0.168 74 42 21 0 0
0.0409 0.2742 -0.3265 -0.365 0.885 -0.289 77 47 26 0 0
0.0467 0.2560 -0.3485 -0.214 0.953 -0.214 49 26 13 0 0
0.0469 0.2553 -0.3518 -0.214 0.953 -0.214 52 28 19 0 0
0.0469 0.2549 -0.3611 -0.009 0.981 0.192 42 25 14 0 0
0.0464 0.2561 -0.3640 -0.062 0.934 0.352 28 12 6 0 0
0.0431 0.2654 -0.3745 -0.172 0.957 0.233 46 22 12 0 0
0.0420 0.2685 -0.3769 -0.276 0.850 0.449 45 20 12 0 0
0.0514 0.2349 -0.5078 -0.162 0.977 -0.140 54 26 12 0 0
0.0512 0.2346 -0.5272 -0.013 0.992 0.126 64 35 17 0 0
0.0506 0.2335 -0.5855 -0.155 0.983 0.097 71 37 12 0 0
0.0505 0.2338 -0.5887 -0.155 0.983 0.097 73 38 14 0 0
0.0446 0.2450 -0.7150 -0.563 0.665 0.491 56 23 6 0 0
0.0236 0.3010 -0.8345 -0.389 0.874 0.291 61 26 7 0 0
0.0223 0.3006 -0.9229 -0.059 0.993 0.100 84 53 30 0 0
0.0211 0.3035 -0.9345 -0.261 0.952 0.157 79 45 25 0 0
0.0189 0.3093 -0.9512 -0.306 0.842 0.443 66 35 18 0 0
0.0068 0.3436 -0.9781 -0.334 0.853 0.401 98 80 70 0 0
0.0058 0.3456 -0.9997 -0.359 0.915 -0.186 95 69 56 0 0
-0.0053 0.3764 -1.0367 -0.359 0.929 0.092 101 68 35 0 0
-0.0063 0.3780 -1.0615 -0.237 0.936 0.262 98 66 41 0 0
-0.0069 0.3781 -1.0971 -0.112 0.980 0.167 57 25 11 0 0
-0.0076 0.3794 -1.1125 -0.423 0.851 0.312 85 47 23 0 0
0.0813 0.1855 0.1099 -0.038 0.636 0.770 181 180 180 0 0
0.0795 0.1904 0.1037 -0.449 0.756 0.476 130 105 91 0 0
0.0790 0.1918 0.1006 -0.547 0.738 0.394 122 90 71 0 0
0.0591 0.2484 0.0662 -0.853 0.515 0.087 77 43 24 0 0
0.0610 0.2428 0.0634 -0.499 0.713 0.493 69 35 18 0 0
0.0440 0.2895 0.0019 -0.636 0.756 0.156 70 33 13 0 0
0.0475 0.2753 -0.0833 -0.169 0.958 0.234 51 23 12 0 0
0.0292 0.3266 -0.1351 -0.475 0.880 0.018 74 38 18 0 0
0.0305 0.3217 -0.1529 0.291 0.949 -0.125 69 49 40 0 0
0.0322 0.3165 -0.1593 -0.138 0.990 0.005 63 45 35 0 0
0.0453 0.2711 -0.3182 0.042 0.999 -0.019 70 34 13 0 0
0.0448 0.2723 -0.3210 -0.399 0.916 0.036 72 37 16 0 0
0.0489 0.2584 -0.3638 0.034 0.891 0.454 30 15 9 0 0
0.0487 0.2589 -0.3668 -0.118 0.906 0.405 37 20 13 0 0
0.0477 0.2615 -0.3724 -0.150 0.958 0.243 52 31 21 0 0
0.0546 0.2343 -0.5244 -0.243 0.956 0.165 69 40 22 0 0
0.0545 0.2346 -0.5275 -0.154 0.988 -0.011 68 38 20 0 0
0.0535 0.2345 -0.5888 -0.408 0.912 0.034 73 38 15 0 0
0.0534 0.2329 -0.6349 -0.047 0.997 -0.060 78 40 14 0 0
0.0534 0.2326 -0.6382 -0.064 0.997 0.044 81 42 17 0 0
0.0514 0.2365 -0.6826 -0.635 0.772 0.032 61 27 9 0 0
0.0499 0.2406 -0.6876 -0.077 0.985 0.153 60 26 7 0 0
0.0490 0.2426 -0.7000 -0.556 0.823 0.116 61 26 9 0 0
0.0487 0.2435 -0.7029 -0.761 0.624 0.175 58 23 7 0 0
0.0484 0.2441 -0.7060 -0.651 0.748 0.128 56 20 4 0 0
0.0445 0.2535 -0.7481 -0.339 0.918 -0.205 59 27 9 0 0
0.0387 0.2695 -0.7644 -0.254 0.860 0.442 60 28 11 0 0
0.0327 0.2858 -0.7932 -0.331 0.890 0.315 62 30 12 0 0
0.0327 0.2856 -0.7965 -0.488 0.872 0.022 60 28 10 0 0
0.0327 0.2857 -0.7997 -0.488 0.872 0.022 58 27 9 0 0
0.0272 0.3007 -0.8221 -0.274 0.938 0.212 56 23 8 0 0
0.0260 0.2999 -0.9139 0.017 0.996 0.089 68 40 23 0 0
0.0247 0.3031 -0.9287 -0.414 0.879 0.238 90 60 36 0 0
0.0234 0.3063 -0.9402 -0.237 0.906 0.351 64 30 13 0 0
0.0219 0.3100 -0.9514 -0.278 0.850 0.447 68 38 21 0 0
0.0210 0.3127 -0.9532 -0.228 0.899 0.374 71 43 30 0 0
0.0083 0.3479 -0.9957 -0.343 0.911 -0.228 97 76 65 0 0
0.0085 0.3471 -0.9995 -0.343 0.911 -0.228 93 67 55 0 0
-0.0028 0.3773 -1.0593 -0.138 0.990 -0.028 93 61 38 0 0
-0.0047 0.3805 -1.1091 -0.233 0.916 0.327 80 43 17 0 0
-0.0050 0.3814 -1.1118 -0.233 0.916 0.327 87 51 25 0 0
-0.0052 0.3816 -1.1150 -0.316 0.940 0.127 87 52 26 0 0
-0.0053 0.3819 -1.1180 -0.316 0.940 0.127 90 55 33 0 0
0.0846 0.1854 0.1099 0.043 0.715 0.697 182 182 184 0 0
0.0832 0.1893 0.1067 -0.095 0.670 0.736 169 165 161 0 0
0.0474 0.2881 -0.0097 -0.275 0.961 -0.031 61 28 11 0 0
0.0351 0.3171 -0.1593 -0.131 0.989 -0.065 63 45 35 0 0
0.0351 0.3169 -0.1623 -0.140 0.990 -0.018 63 45 35 0 0
0.0359 0.3145 -0.1655 -0.586 0.756 -0.293 63 45 35 0 0
0.0510 0.2658 -0.2704 0.127 0.992 -0.007 67 41 28 0 0
0.0532 0.2579 -0.3023 0.488 0.753 -0.441 56 31 15 0 0
0.0524 0.2576 -0.3642 -0.123 0.811 0.572 28 13 8 0 0
0.0518 0.2593 -0.3669 -0.162 0.855 0.492 42 25 18 0 0
0.0513 0.2605 -0.3698 -0.146 0.907 0.396 55 35 28 0 0
0.0516 0.2594 -0.3731 -0.161 0.984 -0.074 48 27 17 0 0
0.0337 0.3095 -0.4171 -0.407 0.890 0.204 74 33 12 0 0
0.0334 0.3101 -0.4200 -0.333 0.917 0.219 75 34 14 0 0
0.0589 0.2310 -0.5353 -0.014 1.000 -0.003 68 37 19 0 0
0.0569 0.2345 -0.5827 -0.270 0.955 -0.119 80 45 23 0 0
0.0562 0.2339 -0.6414 -0.131 0.964 0.230 83 46 21 0 0
0.0364 0.2849 -0.7875 -0.278 0.922 0.269 62 29 11 0 0
0.0362 0.2852 -0.7906 -0.329 0.904 0.273 64 31 12 0 0
0.0355 0.2870 -0.7996 -0.414 0.863 0.289 57 26 8 0 0
0.0313 0.2985 -0.8139 -0.300 0.838 0.456 56 24 9 0 0
0.0304 0.3009 -0.8193 -0.212 0.883 0.419 56 24 9 0 0
0.0297 0.3029 -0.8216 -0.259 0.955 0.143 58 26 10 0 0
0.0269 0.3106 -0.8277 -0.338 0.933 0.119 66 29 10 0 0
0.0267 0.3112 -0.8307 -0.344 0.918 0.197 63 27 8 0 0
0.0264 0.3118 -0.8336 -0.344 0.918 0.197 66 29 9 0 0
0.0266 0.3110 -0.8372 -0.264 0.956 0.130 69 31 10 0 0
0.0263 0.3119 -0.8401 -0.092 0.968 0.232 71 33 12 0 0
0.0259 0.3130 -0.8427 -0.164 0.985 0.047 74 33 11 0 0
0.0258 0.3132 -0.8459 -0.559 0.829 0.037 76 34 8 0 0
0.0275 0.3043 -0.9319 -0.216 0.976 -0.011 91 61 39 0 0
0.0275 0.3042 -0.9353 -0.422 0.904 0.073 80 46 26 0 0
0.0027 0.3725 -1.0144 -0.074 0.957 0.279 86 42 13 0 0
0.0024 0.3734 -1.0171 -0.201 0.912 0.359 87 43 14 0 0
0.0002 0.3790 -1.0331 -0.409 0.895 0.179 92 55 22 0 0
0.0002 0.3788 -1.0364 -0.387 0.921 -0.038 94 60 29 0 0
0.0002 0.3784 -1.0496 -0.347 0.937 0.036 102 71 43 0 0
0.0001 0.3783 -1.0528 -0.328 0.945 0.004 96 64 38 0 0
0.0001 0.3783 -1.0560 -0.328 0.945 0.004 91 59 35 0 0
0.0001 0.3782 -1.0594 -0.374 0.925 -0.062 95 63 40 0 0
0.0003 0.3770 -1.0698 -0.058 0.988 0.145 94 66 44 0 0
-0.0019 0.3816 -1.1091 -0.354 0.863 0.361 83 46 21 0 0
-0.0023 0.3826 -1.1150 -0.316 0.940 0.127 90 56 31 0 0
0.0710 0.2321 0.0665 0.179 0.837 0.517 82 49 30 0 0
0.0684 0.2395 0.0604 0.584 0.785 0.208 77 44 24 0 0
0.0381 0.3173 -0.1595 -0.138 0.990 0.005 66 48 38 0 0
0.0380 0.3173 -0.1624 -0.224 0.966 0.129 65 47 37 0 0
0.0382 0.3164 -0.1713 -0.009 0.973 -0.230 64 46 36 0 0
0.0400 0.3109 -0.1807 -0.428 0.830 -0.358 64 46 36 0 0
0.0534 0.2679 -0.2764 0.125 0.981 -0.145 66 38 24 0 0
0.0543 0.2652 -0.2799 -0.352 0.934 -0.067 66 38 24 0 0
0.0509 0.2732 -0.3182 0.009 0.926 0.377 72 37 15 0 0
0.0576 0.2521 -0.3562 0.078 0.986 0.146 46 26 14 0 0
0.0546 0.2602 -0.3701 -0.003 0.996 0.087 54 32 25 0 0
0.0362 0.3115 -0.4169 -0.584 0.809 0.069 72 32 11 0 0
0.0642 0.2272 -0.4885 0.118 0.974 -0.193 54 26 12 0 0
0.0626 0.2280 -0.5721 -0.068 0.972 0.225 76 41 19 0 0
0.0605 0.2332 -0.5932 -0.045 0.937 -0.346 81 45 23 0 0
0.0604 0.2318 -0.6327 0.029 0.999 0.033 85 48 21 0 0
0.0575 0.2381 -0.6796 0.129 0.982 0.138 59 26 9 0 0
0.0430 0.2763 -0.7656 -0.084 0.891 0.447 59 28 9 0 0
0.0432 0.2752 -0.7792 -0.112 0.979 -0.172 58 25 8 0 0
0.0394 0.2857 -0.7876 -0.206 0.906 0.369 60 27 9 0 0
0.0388 0.2872 -0.7902 -0.292 0.947 0.136 63 30 13 0 0
0.0387 0.2876 -0.7933 -0.420 0.907 0.005 62 29 12 0 0
0.0383 0.2885 -0.7962 -0.154 0.972 0.178 61 28 11 0 0
0.0381 0.2890 -0.7992 -0.154 0.972 0.178 60 29 11 0 0
0.0290 0.3134 -0.8431 -0.295 0.941 0.166 77 36 13 0 0
0.0267 0.3186 -0.8762 0.062 0.984 0.164 78 49 32 0 0
0.0267 0.3183 -0.8795 -0.093 0.981 -0.170 80 51 35 0 0
0.0308 0.3054 -0.9023 -0.196 0.900 -0.389 70 43 26 0 0
0.0327 0.2993 -0.9186 -0.097 0.994 -0.040 79 49 33 0 0
0.0325 0.2997 -0.9217 -0.106 0.977 0.186 87 56 35 0 0
0.0168 0.3428 -0.9770 -0.110 0.718 0.688 96 78 68 0 0
0.0103 0.3610 -0.9894 0.093 0.977 0.193 92 73 61 0 0
0.0098 0.3623 -0.9919 0.001 0.884 0.467 90 65 52 0 0
0.0040 0.3776 -1.0281 -0.402 0.899 0.173 95 55 22 0 0
0.0027 0.3804 -1.0489 -0.170 0.983 -0.068 109 78 50 0 0
0.0038 0.3761 -1.0710 -0.139 0.990 0.004 93 65 43 0 0
0.0009 0.3828 -1.1090 -0.361 0.900 0.246 83 47 23 0 0
0.0001 0.3849 -1.1174 -0.113 0.992 -0.058 96 62 36 0 0
0.0002 0.3843 -1.1210 -0.106 0.935 0.339 95 61 35 0 0
0.0845 0.2039 0.1030 -0.689 0.657 -0.304 176 177 178 0 0
0.0543 0.2866 0.0046 -0.205 0.666 0.717 71 35 13 0 0
0.0617 0.2639 -0.0280 0.784 0.603 -0.147 54 30 23 0 0
0.0411 0.3179 -0.1537 0.054 0.991 0.121 69 49 40 0 0
0.0407 0.3187 -0.1566 -0.088 0.989 -0.115 69 49 40 0 0
0.0410 0.3177 -0.1596 -0.138 0.990 0.005 68 50 40 0 0
0.0414 0.3165 -0.1655 -0.175 0.979 -0.108 65 47 37 0 0
0.0413 0.3163 -0.1714 -0.043 0.992 -0.116 65 47 37 0 0
0.0434 0.3101 -0.1780 0.472 0.879 0.064 64 46 36 0 0
0.0433 0.3103 -0.1809 -0.113 0.971 -0.212 64 46 36 0 0
0.0566 0.2682 -0.2704 -0.179 0.941 -0.287 67 41 28 0 0
0.0569 0.2670 -0.2767 -0.061 0.998 0.022 66 38 24 0 0
0.0571 0.2662 -0.2799 -0.352 0.934 -0.067 66 38 24 0 0
0.0609 0.2518 -0.3596 0.042 0.978 0.204 44 26 13 0 0
0.0512 0.2782 -0.3943 -0.181 0.691 0.700 46 22 12 0 0
0.0677 0.2269 -0.4824 0.236 0.971 -0.042 78 50 36 0 0
0.0647 0.2316 -0.5779 0.144 0.969 0.200 80 45 23 0 0
0.0648 0.2311 -0.5812 0.221 0.900 0.375 81 46 24 0 0
0.0624 0.2355 -0.6351 -0.294 0.891 0.346 82 45 20 0 0
0.0618 0.2372 -0.6378 -0.164 0.907 0.388 80 42 20 0 0
0.0608 0.2382 -0.6832 0.022 0.991 0.136 59 26 9 0 0
0.0570 0.2477 -0.7124 0.059 0.957 0.283 58 27 9 0 0
0.0458 0.2775 -0.7721 -0.251 0.905 -0.342 58 25 7 0 0
0.0444 0.2809 -0.7837 -0.159 0.516 0.842 57 26 8 0 0
0.0423 0.2867 -0.7877 -0.576 0.769 0.276 59 26 9 0 0
0.0419 0.2880 -0.7903 -0.432 0.902 -0.010 59 26 10 0 0
0.0418 0.2879 -0.7936 -0.432 0.902 -0.010 57 24 9 0 0
0.0414 0.2889 -0.7964 -0.292 0.947 0.136 56 23 6 0 0
0.0412 0.2895 -0.7994 -0.154 0.972 0.178 57 26 8 0 0
0.0358 0.2998 -0.9222 -0.093 0.984 0.154 90 57 35 0 0
0.0305 0.3137 -0.9511 -0.145 0.962 0.233 64 37 22 0 0
0.0292 0.3174 -0.9556 -0.412 0.742 0.529 82 59 50 0 0
0.0281 0.3201 -0.9607 -0.587 0.698 0.409 83 64 56 0 0
0.0172 0.3508 -0.9796 -0.570 0.729 0.378 94 75 65 0 0
0.0135 0.3608 -0.9901 0.093 0.977 0.193 89 69 57 0 0
0.0084 0.3744 -1.0144 -0.030 0.945 0.326 84 40 11 0 0
0.0077 0.3766 -1.0164 -0.509 0.834 0.211 85 41 12 0 0
0.0071 0.3779 -1.0252 -0.330 0.916 0.229 91 50 15 0 0
0.0064 0.3793 -1.0373 -0.450 0.892 0.044 103 71 39 0 0
0.0068 0.3766 -1.0713 -0.139 0.990 0.004 90 62 40 0 0
0.0068 0.3766 -1.0746 -0.139 0.990 0.004 84 57 37 0 0
0.0074 0.3744 -1.0857 -0.218 0.971 -0.094 39 21 14 0 0
0.0056 0.3788 -1.1024 -0.266 0.894 0.360 68 30 13 0 0
0.0048 0.3809 -1.1076 -0.331 0.922 0.200 78 37 17 0 0
0.0658 0.2631 0.0131 0.252 0.966 -0.053 71 31 9 0 0
0.0654 0.2641 0.0102 -0.042 0.951 0.308 70 33 13 0 0
0.0640 0.2665 -0.0221 0.324 0.904 -0.279 62 34 22 0 0
0.0652 0.2629 -0.0251 0.377 0.789 -0.485 59 35 24 0 0
0.0636 0.2675 -0.0280 0.029 0.849 0.528 48 29 19 0 0
0.0628 0.2697 -0.0308 0.337 0.921 0.199 40 21 14 0 0
0.0627 0.2698 -0.0338 0.175 0.984 0.023 38 20 14 0 0
0.0439 0.3177 -0.1714 -0.402 0.907 0.125 65 47 37 0 0
0.0446 0.3157 -0.1746 -0.222 0.958 -0.179 64 46 36 0 0
0.0598 0.2677 -0.2829 0.094 0.994 0.054 69 41 25 0 0
0.0642 0.2517 -0.3599 0.042 0.978 0.204 45 26 17 0 0
0.0528 0.2827 -0.3966 -0.334 0.528 0.781 46 19 10 0 0
0.0517 0.2858 -0.4021 -0.389 0.921 0.026 62 26 11 0 0
0.0640 0.2386 -0.6835 -0.076 0.968 0.238 61 28 10 0 0
0.0638 0.2388 -0.6867 -0.174 0.984 0.031 62 29 10 0 0
0.0604 0.2476 -0.7129 0.059 0.957 0.283 61 29 11 0 0
0.0597 0.2493 -0.7188 0.031 0.996 0.079 62 29 13 0 0
0.0496 0.2758 -0.7798 -0.112 0.979 -0.172 56 25 7 0 0
0.0448 0.2888 -0.7937 -0.042 0.986 0.160 56 24 11 0 0
0.0447 0.2890 -0.7969 -0.186 0.920 0.344 54 22 8 0 0
0.0443 0.2899 -0.7997 -0.186 0.920 0.344 55 22 7 0 0
0.0367 0.3058 -0.9360 -0.086 0.995 -0.054 71 39 18 0 0
0.0341 0.3128 -0.9521 -0.302 0.801 0.516 65 38 25 0 0
0.0228 0.3440 -0.9775 -0.357 0.760 0.543 89 71 59 0 0
0.0220 0.3463 -0.9795 -0.508 0.795 0.332 92 74 63 0 0
0.0203 0.3508 -0.9834 0.105 0.768 0.632 93 72 63 0 0
0.0124 0.3725 -1.0032 -0.255 0.795 0.551 77 36 8 0 0
0.0121 0.3731 -1.0158 -0.099 0.931 0.351 83 39 10 0 0
0.0109 0.3764 -1.0203 -0.242 0.931 0.273 87 43 14 0 0
0.0087 0.3814 -1.0495 -0.140 0.988 -0.069 104 73 45 0 0
0.0092 0.3776 -1.1038 -0.209 0.968 0.135 70 32 14 0 0
0.0100 0.3724 -1.1729 -0.392 0.044 0.919 187 184 182 0 0
0.0675 0.2667 0.0043 0.424 0.890 0.166 67 30 11 0 0
0.0436 0.3292 -0.1297 -0.099 0.799 0.593 80 39 15 0 0
0.0423 0.3327 -0.1323 -0.133 0.883 0.450 76 37 16 0 0
0.0592 0.2817 -0.1994 0.390 0.920 -0.040 62 42 34 0 0
0.0634 0.2667 -0.2772 -0.342 0.901 0.266 66 38 26 0 0
0.0451 0.3124 -0.4297 -0.235 0.969 0.082 85 53 31 0 0
0.0700 0.2323 -0.6501 -0.068 0.971 -0.231 75 39 18 0 0
0.0702 0.2314 -0.6570 -0.049 0.998 -0.048 72 37 17 0 0
0.0702 0.2313 -0.6603 -0.049 0.998 -0.048 71 36 16 0 0
0.0704 0.2307 -0.6638 -0.103 0.994 -0.040 71 36 16 0 0
0.0695 0.2330 -0.6663 -0.371 0.928 0.030 70 36 16 0 0
0.0694 0.2333 -0.6694 -0.431 0.899 0.072 69 37 16 0 0
0.0692 0.2337 -0.6726 -0.423 0.874 0.239 67 34 15 0 0
0.0667 0.2402 -0.6866 0.061 0.993 0.103 66 33 14 0 0
0.0668 0.2399 -0.6900 -0.099 0.985 0.139 66 33 16 0 0
0.0666 0.2403 -0.6931 -0.099 0.985 0.139 64 31 14 0 0
0.0667 0.2397 -0.6966 -0.556 0.829 -0.056 63 30 13 0 0
0.0393 0.3118 -0.8388 -0.156 0.952 0.264 70 32 10 0 0
0.0402 0.3076 -0.8832 0.072 0.986 -0.148 80 51 33 0 0
0.0402 0.3075 -0.8865 0.106 0.993 -0.048 79 50 32 0 0
0.0403 0.3071 -0.8899 -0.037 0.997 -0.073 77 48 30 0 0
0.0406 0.3059 -0.8938 -0.323 0.915 -0.243 76 47 29 0 0
0.0400 0.3076 -0.8963 -0.452 0.892 -0.018 75 46 28 0 0
0.0400 0.3062 -0.9331 -0.188 0.982 0.016 85 53 31 0 0
0.0253 0.3460 -0.9769 0.068 0.924 0.376 90 72 62 0 0
0.0249 0.3472 -0.9795 -0.205 0.951 0.231 89 71 61 0 0
0.0233 0.3515 -0.9836 0.076 0.814 0.575 89 69 60 0 0
0.0220 0.3552 -0.9880 0.154 0.979 0.135 100 81 72 0 0
0.0212 0.3570 -0.9934 0.171 0.946 0.274 90 69 58 0 0
0.0151 0.3736 -1.0161 0.078 0.988 0.130 82 38 9 0 0
0.0119 0.3814 -1.0501 -0.100 0.992 0.079 109 78 50 0 0
0.0124 0.3776 -1.1012 -0.043 0.916 0.398 67 30 11 0 0
0.0122 0.3782 -1.1040 -0.209 0.968 0.135 71 33 15 0 0
0.0109 0.3806 -1.1319 -0.354 0.885 0.304 98 64 37 0 0
0.0109 0.3799 -1.1520 0.170 0.980 -0.107 75 57 40 0 0
0.0925 0.2068 0.0579 -0.597 0.783 -0.175 92 62 43 0 0
0.0920 0.2080 0.0549 -0.526 0.839 0.141 94 64 46 0 0
0.0703 0.2676 0.0042 -0.308 0.934 -0.182 63 28 8 0 0
0.0553 0.3056 -0.1084 -0.192 0.570 0.799 91 56 37 0 0
0.0704 0.2521 -0.3697 -0.430 0.897 -0.104 52 33 24 0 0
0.0548 0.2951 -0.3974 -0.469 0.348 0.812 57 25 11 0 0
0.0482 0.3127 -0.4299 -0.053 0.984 0.170 83 53 29 0 0
0.0632 0.2581 -0.7259 -0.073 0.992 -0.099 61 29 14 0 0
0.0617 0.2608 -0.7609 0.612 0.734 0.294 59 27 12 0 0
0.0532 0.2835 -0.8003 0.263 0.860 0.437 58 26 12 0 0
0.0526 0.2850 -0.8029 0.263 0.860 0.437 59 26 11 0 0
0.0431 0.3086 -0.8865 0.239 0.944 0.227 80 51 33 0 0
0.0428 0.3091 -0.8927 -0.189 0.975 -0.115 78 49 31 0 0
0.0433 0.3065 -0.9236 0.008 0.991 0.131 100 70 42 0 0
0.0431 0.3067 -0.9268 -0.117 0.987 0.108 97 67 40 0 0
0.0435 0.3056 -0.9307 -0.040 0.973 0.229 94 64 39 0 0
0.0389 0.3178 -0.9505 -0.362 0.791 0.493 71 44 31 0 0
0.0371 0.3227 -0.9577 -0.221 0.826 0.518 79 61 51 0 0
0.0296 0.3433 -0.9758 0.200 0.979 0.046 94 76 67 0 0
0.0251 0.3554 -0.9884 -0.605 0.733 0.311 97 79 69 0 0
0.0176 0.3754 -1.0188 -0.210 0.961 0.178 85 41 12 0 0
0.0159 0.3797 -1.0324 -0.197 0.970 0.145 100 64 30 0 0
0.0150 0.3794 -1.1039 -0.192 0.967 0.167 72 33 16 0 0
0.0139 0.3821 -1.1152 -0.144 0.970 0.194 84 48 26 0 0
0.0138 0.3817 -1.1318 -0.354 0.885 0.304 98 64 37 0 0
0.0951 0.2088 0.0578 -0.597 0.783 -0.175 98 70 54 0 0
0.0941 0.2073 -0.0481 -0.658 0.753 0.005 21 12 10 0 0
0.0942 0.2069 -0.0512 -0.558 0.744 0.366 37 30 28 0 0
0.0495 0.3299 -0.1270 0.055 0.717 0.694 89 45 17 0 0
0.0501 0.3283 -0.1300 -0.584 0.812 -0.009 78 37 12 0 0
0.0622 0.2921 -0.1776 0.029 0.963 -0.268 61 43 34 0 0
0.0626 0.2908 -0.1807 0.024 0.934 -0.357 62 44 35 0 0
0.0517 0.3121 -0.4181 -0.135 0.987 0.091 70 30 9 0 0
0.0518 0.3113 -0.4305 0.080 0.993 0.085 88 59 36 0 0
0.0820 0.2204 -0.5697 0.170 0.968 0.185 86 55 33 0 0
0.0670 0.2567 -0.7237 0.174 0.981 0.081 61 29 14 0 0
0.0660 0.2594 -0.7258 0.037 0.981 -0.188 60 28 13 0 0
0.0656 0.2586 -0.7788 0.830 0.555 0.055 61 30 12 0 0
0.0559 0.2850 -0.8033 0.372 0.899 0.231 59 27 11 0 0
0.0504 0.2997 -0.8227 -0.184 0.786 0.591 59 28 14 0 0
0.0494 0.3024 -0.8247 -0.304 0.926 0.222 57 26 12 0 0
0.0433 0.3177 -0.8759 -0.056 0.955 -0.292 82 54 33 0 0
0.0466 0.3079 -0.8873 0.239 0.944 0.227 82 53 34 0 0
0.0477 0.3033 -0.9192 -0.089 0.973 -0.213 92 65 38 0 0
0.0417 0.3191 -0.9504 -0.188 0.899 0.397 69 43 30 0 0
0.0412 0.3204 -0.9529 -0.298 0.819 0.491 74 51 39 0 0
0.0400 0.3235 -0.9578 -0.110 0.802 0.587 75 56 46 0 0
0.0285 0.3547 -0.9894 0.099 0.960 0.262 94 75 66 0 0
0.0232 0.3695 -0.9938 -0.162 0.913 0.373 81 44 25 0 0
0.0190 0.3799 -1.0296 -0.197 0.970 0.145 91 52 17 0 0
0.0189 0.3804 -1.0326 -0.197 0.970 0.145 96 59 25 0 0
0.0171 0.3824 -1.1092 -0.143 0.971 0.191 79 41 20 0 0
0.0171 0.3812 -1.1328 -0.331 0.930 0.163 99 66 39 0 0
0.0174 0.3799 -1.1435 -0.199 0.936 -0.289 93 63 39 0 0
0.0170 0.3808 -1.1560 0.179 0.954 0.240 117 107 94 0 0
0.0734 0.2762 -0.0075 -0.706 0.527 -0.473 66 37 23 0 0
0.0981 0.2051 -0.0514 -0.432 0.789 0.437 103 98 95 0 0
0.0787 0.2583 -0.0821 0.002 0.998 -0.056 69 47 32 0 0
0.0624 0.3029 -0.1118 -0.319 0.928 -0.192 95 63 47 0 0
0.0537 0.3269 -0.1274 -0.517 0.853 -0.070 90 47 19 0 0
0.0537 0.3267 -0.1303 -0.444 0.896 -0.028 80 38 14 0 0
0.0653 0.2923 -0.1807 -0.533 0.690 -0.490 63 44 37 0 0
0.0752 0.2616 -0.2510 -0.051 0.996 0.076 64 40 30 0 0
0.0739 0.2645 -0.2659 -0.336 0.920 -0.202 69 43 28 0 0
0.0549 0.3115 -0.4308 0.193 0.981 -0.027 87 58 35 0 0
0.0515 0.3025 -0.9103 0.304 0.945 -0.121 75 47 26 0 0
0.0497 0.3066 -0.9312 -0.392 0.916 0.085 81 53 31 0 0
0.0496 0.3069 -0.9344 -0.352 0.934 -0.059 66 37 19 0 0
0.0458 0.3170 -0.9487 0.044 0.944 0.328 62 35 19 0 0
0.0455 0.3177 -0.9516 0.131 0.886 0.445 72 48 35 0 0
0.0324 0.3531 -0.9877 0.189 0.953 0.237 94 76 66 0 0
0.0201 0.3829 -1.1095 -0.143 0.971 0.191 85 47 25 0 0
0.0203 0.3809 -1.1435 -0.303 0.908 -0.289 96 67 44 0 0
0.0203 0.3805 -1.1569 -0.135 0.979 0.151 124 114 102 0 0
0.0956 0.2216 -0.0417 -0.367 0.447 -0.816 36 20 15 0 0
0.0562 0.3285 -0.1274 -0.536 0.834 -0.130 90 46 18 0 0
0.0666 0.2974 -0.1773 -0.820 0.322 -0.473 63 44 37 0 0
0.0747 0.2730 -0.2253 0.501 0.388 0.773 64 44 35 0 0
0.0759 0.2689 -0.2410 0.115 0.835 -0.538 64 42 31 0 0
0.0766 0.2662 -0.2628 -0.336 0.920 -0.202 71 45 30 0 0
0.0768 0.2656 -0.2659 -0.336 0.920 -0.202 72 46 31 0 0
0.0798 0.2532 -0.3702 0.377 0.914 0.152 65 46 38 0 0
0.0613 0.3036 -0.4023 -0.200 0.809 0.553 89 65 54 0 0
0.0607 0.3052 -0.4050 -0.200 0.809 0.553 89 67 55 0 0
0.0833 0.2309 -0.6950 -0.011 0.874 0.486 68 38 23 0 0
0.0519 0.3128 -0.8468 0.013 1.000 0.002 79 39 10 0 0
0.0504 0.3165 -0.8645 -0.170 0.951 0.257 91 61 38 0 0
0.0532 0.3059 -0.9321 -0.072 0.915 0.396 75 47 26 0 0
0.0524 0.3082 -0.9375 -0.072 0.915 0.396 56 28 13 0 0
0.0315 0.3644 -0.9915 0.043 0.915 0.400 81 57 45 0 0
0.0245 0.3817 -1.0523 -0.204 0.887 0.414 108 77 49 0 0
0.0281 0.3702 -1.0888 -0.578 0.811 -0.094 43 24 17 0 0
0.0231 0.3832 -1.1164 -0.361 0.917 -0.172 94 58 34 0 0
0.0231 0.3829 -1.1265 -0.261 0.964 -0.050 98 66 40 0 0
0.0231 0.3827 -1.1298 -0.206 0.979 -0.000 102 71 44 0 0
0.1014 0.2181 0.0545 -0.553 0.545 0.630 156 144 140 0 0
0.0900 0.2447 -0.0771 0.106 0.988 0.114 82 58 45 0 0
0.0672 0.3068 -0.1117 0.101 0.809 0.580 92 61 49 0 0
0.0817 0.2616 -0.2484 -0.096 0.993 0.071 68 44 34 0 0
0.0817 0.2605 -0.2761 0.121 0.984 -0.127 72 46 31 0 0
0.0894 0.2363 -0.3519 0.375 0.923 0.088 67 45 31 0 0
0.0828 0.2534 -0.3829 -0.733 0.679 -0.044 63 39 27 0 0
0.0623 0.3089 -0.4258 0.055 0.988 -0.147 81 44 21 0 0
0.1024 0.1926 -0.5497 0.800 0.600 0.010 99 85 79 0 0
0.1022 0.1930 -0.5529 0.802 0.596 0.034 99 84 78 0 0
0.1020 0.1935 -0.5560 0.802 0.596 0.034 100 85 78 0 0
0.1020 0.1934 -0.5594 0.793 0.609 0.021 101 85 77 0 0
0.1018 0.1937 -0.5626 0.793 0.609 0.021 102 84 75 0 0
0.0932 0.2134 -0.6787 0.724 0.679 0.123 71 47 32 0 0
0.0645 0.2889 -0.7932 0.441 0.847 0.298 61 32 14 0 0
0.0515 0.3192 -0.9487 0.020 0.996 0.083 75 47 34 0 0
0.0512 0.3199 -0.9581 0.087 0.990 0.107 86 67 54 0 0
0.0481 0.3284 -0.9568 -0.745 0.533 0.401 87 69 59 0 0
0.0446 0.3374 -0.9748 0.438 0.843 0.313 90 71 63 0 0
0.0296 0.3775 -1.0231 -0.131 0.936 0.326 85 44 12 0 0
0.0292 0.3784 -1.0258 -0.131 0.936 0.326 87 46 14 0 0
0.0285 0.3802 -1.0312 -0.065 0.962 0.264 99 60 27 0 0
0.0275 0.3821 -1.0560 -0.068 0.945 0.321 104 73 45 0 0
0.0298 0.3747 -1.0866 -0.691 0.625 0.363 39 20 13 0 0
0.0279 0.3796 -1.0900 -0.419 0.877 0.235 37 18 11 0 0
0.0276 0.3781 -1.1565 -0.127 0.949 -0.290 98 86 72 0 0
0.0246 0.3864 -1.1608 0.095 0.788 0.609 177 172 171 0 0
0.1027 0.2231 0.0514 -0.553 0.545 0.630 134 120 112 0 0
0.1030 0.2189 -0.0420 -0.882 0.339 0.328 38 22 17 0 0
0.1045 0.2146 -0.0452 -0.859 0.512 -0.024 95 86 82 0 0
0.1028 0.2191 -0.0511 -0.664 0.731 -0.157 179 180 182 0 0
0.0626 0.3277 -0.1306 -0.275 0.953 -0.130 83 42 16 0 0
0.0694 0.3074 -0.1706 -0.123 0.891 -0.436 66 48 38 0 0
0.0761 0.2883 -0.1876 -0.024 0.998 -0.049 64 46 36 0 0
0.0848 0.2619 -0.2485 -0.087 0.982 0.171 71 47 37 0 0
0.0876 0.2523 -0.2931 0.529 0.821 0.215 78 52 37 0 0
0.0945 0.2310 -0.3564 0.322 0.942 0.098 69 47 36 0 0
0.0947 0.2303 -0.3597 0.453 0.868 -0.203 68 44 35 0 0
0.0651 0.3100 -0.4259 -0.072 0.983 -0.169 83 47 23 0 0
0.1080 0.1858 -0.5686 0.794 0.608 0.013 146 139 135 0 0
0.1028 0.1972 -0.6516 0.761 0.642 0.090 90 71 64 0 0
0.1016 0.2002 -0.6605 0.759 0.640 0.123 83 63 51 0 0
0.0895 0.2323 -0.7020 -0.460 0.576 0.675 71 42 28 0 0
0.0891 0.2332 -0.7049 -0.657 0.426 0.621 70 41 27 0 0
0.0859 0.2419 -0.7115 0.169 0.814 0.556 68 40 26 0 0
0.0862 0.2405 -0.7220 -0.731 0.478 0.487 66 38 24 0 0
0.0789 0.2571 -0.8211 -0.893 0.447 -0.047 63 34 18 0 0
0.0609 0.3035 -0.9213 -0.284 0.958 -0.039 96 67 40 0 0
0.0607 0.3037 -0.9277 -0.165 0.921 0.354 93 65 43 0 0
0.0595 0.3068 -0.9360 -0.064 0.911 0.407 58 31 13 0 0
0.0552 0.3177 -0.9599 0.322 0.946 -0.021 85 67 56 0 0
0.0473 0.3393 -0.9743 -0.182 0.784 0.593 90 72 63 0 0
0.0310 0.3818 -1.0438 0.005 1.000 0.015 107 77 48 0 0
0.0327 0.3755 -1.0835 -0.163 0.939 0.303 56 30 24 0 0
0.0323 0.3766 -1.0860 -0.246 0.886 0.394 38 19 13 0 0
0.0316 0.3784 -1.0882 -0.165 0.958 0.236 34 16 10 0 0
0.0296 0.3836 -1.0979 0.314 0.939 0.140 69 32 14 0 0
0.0291 0.3848 -1.1036 0.003 0.997 0.074 73 34 16 0 0
0.0290 0.3851 -1.1067 0.003 0.997 0.074 80 42 21 0 0
0.0309 0.3778 -1.1607 0.038 0.990 -0.133 143 137 127 0 0
0.1061 0.2227 0.0544 -0.605 0.533 0.592 182 181 182 0 0
0.1052 0.2251 0.0513 -0.605 0.533 0.592 161 155 152 0 0
0.1044 0.2272 0.0483 -0.798 0.428 0.424 123 105 96 0 0
0.0853 0.2776 -0.0137 -0.242 0.911 0.333 64 35 21 0 0
0.0846 0.2796 -0.0166 -0.237 0.836 0.496 67 39 26 0 0
0.1039 0.2252 -0.0479 -0.784 0.617 0.059 179 179 182 0 0
0.0680 0.3207 -0.1488 -0.104 0.904 0.414 70 47 34 0 0
0.0719 0.3090 -0.1706 -0.173 0.895 -0.410 66 48 38 0 0
0.0840 0.2733 -0.2349 0.701 0.614 -0.362 68 46 35 0 0
0.0879 0.2622 -0.2486 -0.134 0.975 0.175 72 48 37 0 0
0.0883 0.2608 -0.2580 0.399 0.917 -0.021 77 51 38 0 0
0.0889 0.2427 -0.7116 0.112 0.829 0.548 71 43 29 0 0
0.0884 0.2439 -0.7210 -0.704 0.477 0.525 67 39 25 0 0
0.0794 0.2655 -0.8112 -0.793 0.570 0.215 65 36 21 0 0
0.0795 0.2651 -0.8146 -0.955 0.296 -0.037 65 36 20 0 0
0.0757 0.2756 -0.8132 -0.774 0.629 0.071 67 38 22 0 0
0.0776 0.2700 -0.8224 0.230 0.956 -0.180 60 31 17 0 0
0.0609 0.3150 -0.8537 -0.447 0.885 0.129 89 49 17 0 0
0.0602 0.3166 -0.8627 -0.124 0.896 0.426 97 66 40 0 0
0.0412 0.3644 -0.9899 0.346 0.652 0.675 84 64 49 0 0
0.0400 0.3674 -0.9979 0.051 0.997 0.059 76 38 18 0 0
0.0336 0.3814 -1.0999 0.172 0.967 0.186 69 33 13 0 0
0.0325 0.3843 -1.1046 -0.065 0.950 0.304 75 36 16 0 0
0.0336 0.3793 -1.1571 -0.125 0.949 -0.290 113 104 92 0 0
0.0343 0.3773 -1.1617 -0.203 0.967 -0.154 150 143 135 0 0
0.0320 0.3837 -1.1607 -0.178 0.971 0.160 168 164 161 0 0
0.0913 0.2696 -0.0198 -0.069 0.780 -0.621 71 44 32 0 0
0.0709 0.3211 -0.1490 -0.104 0.904 0.414 70 47 35 0 0
0.0747 0.3099 -0.1706 -0.188 0.925 -0.329 68 50 40 0 0
0.0749 0.3094 -0.1737 -0.091 0.977 -0.195 66 48 38 0 0
0.0822 0.2890 -0.1818 -0.618 0.540 -0.571 67 49 39 0 0
0.0839 0.2837 -0.2004 -0.462 0.333 0.822 67 48 41 0 0
0.0899 0.2658 -0.2391 0.370 0.918 -0.145 71 49 38 0 0
0.0911 0.2621 -0.2488 0.487 0.851 -0.196 74 50 40 0 0
0.0916 0.2607 -0.2521 0.627 0.755 -0.192 75 51 38 0 0
0.0921 0.2593 -0.2554 0.653 0.740 -0.163 77 53 39 0 0
0.0919 0.2597 -0.2584 0.656 0.703 -0.273 80 53 42 0 0
0.0961 0.2470 -0.2944 0.540 0.813 -0.218 82 56 41 0 0
0.1105 0.1939 -0.6770 0.793 0.572 0.211 95 83 78 0 0
0.1096 0.1964 -0.6829 0.773 0.608 0.182 88 75 67 0 0
0.1088 0.1985 -0.6855 0.772 0.611 0.178 86 70 61 0 0
0.1081 0.2001 -0.6882 0.772 0.611 0.178 84 67 57 0 0
0.0908 0.2467 -0.7204 -0.704 0.477 0.525 71 45 30 0 0
0.0775 0.2801 -0.8051 -0.899 0.431 0.075 67 38 24 0 0
0.0779 0.2788 -0.8090 -0.870 0.416 0.264 66 37 23 0 0
0.0771 0.2808 -0.8147 -0.410 0.903 -0.128 64 35 20 0 0
0.0636 0.3162 -0.8602 -0.194 0.904 0.382 97 65 37 0 0
0.0634 0.3167 -0.8632 -0.297 0.911 0.286 100 68 43 0 0
0.0432 0.3675 -0.9984 0.008 0.991 0.133 81 43 21 0 0
0.0380 0.3807 -1.0295 -0.295 0.955 -0.025 93 57 23 0 0
0.0955 0.2671 -0.0170 -0.131 0.805 0.579 69 42 29 0 0
0.1098 0.2267 -0.0511 -0.151 0.694 -0.704 178 179 181 0 0
0.0740 0.3211 -0.1491 -0.047 0.997 -0.057 71 48 35 0 0
0.0835 0.2942 -0.1754 -0.198 0.885 -0.421 69 51 41 0 0
0.0874 0.2829 -0.1977 -0.176 0.744 0.645 69 51 41 0 0
0.0933 0.2655 -0.2333 0.278 0.924 -0.262 73 51 40 0 0
0.0937 0.2644 -0.2365 0.278 0.924 -0.262 74 52 41 0 0
0.0940 0.2634 -0.2397 0.278 0.924 -0.262 75 53 42 0 0
0.0941 0.2632 -0.2428 0.385 0.841 -0.381 75 53 42 0 0
0.0947 0.2613 -0.2461 0.656 0.724 -0.215 75 51 41 0 0
0.0959 0.2579 -0.2496 0.525 0.823 -0.217 75 51 41 0 0
0.0958 0.2581 -0.2558 0.665 0.696 -0.272 77 54 41 0 0
0.0987 0.2489 -0.2850 0.608 0.758 -0.234 79 54 39 0 0
0.1173 0.1848 -0.6774 0.792 0.574 0.207 160 155 154 0 0
0.1166 0.1866 -0.6801 0.793 0.572 0.209 141 136 133 0 0
0.1151 0.1907 -0.6854 0.795 0.578 0.185 107 100 95 0 0
0.1145 0.1920 -0.6883 0.772 0.611 0.178 101 91 85 0 0
0.1139 0.1936 -0.6910 0.772 0.611 0.178 95 84 78 0 0
0.1133 0.1952 -0.6938 0.772 0.611 0.178 93 80 73 0 0
0.0793 0.2839 -0.8137 -0.272 0.957 -0.106 71 42 28 0 0
0.0794 0.2836 -0.8172 -0.272 0.957 -0.106 70 40 29 0 0
0.0799 0.2822 -0.8211 -0.362 0.929 0.071 66 36 25 0 0
0.0467 0.3668 -0.9962 0.044 0.936 0.350 79 45 25 0 0
0.0463 0.3677 -0.9989 -0.046 0.985 0.169 78 40 18 0 0
0.0422 0.3763 -1.0750 -0.034 0.991 -0.131 76 50 35 0 0
0.0381 0.3856 -1.1345 -0.233 0.957 0.172 97 66 43 0 0
0.0982 0.2688 0.0007 0.614 0.757 -0.225 81 49 29 0 0
0.0984 0.2678 -0.0170 -0.171 0.846 0.504 76 50 36 0 0
0.0819 0.3078 -0.1593 0.004 0.926 -0.378 71 52 44 0 0
0.0819 0.3077 -0.1653 0.417 0.908 -0.043 70 52 45 0 0
