ply
format ascii 1.0
element vertex 668
property float x
property float y
property float z
property uchar diffuse_red
property uchar diffuse_green
property uchar diffuse_blue
end_header
0.006047211542865277 0.021189636598914693 -0.1464633480439924 81 51 27
0.0010387235690711843 0.018331499428364446 -0.1487802086484008 78 53 35
-0.0069774119707546114 0.013810092499994962 -0.15065128117754084 82 65 53
-0.00012773205091985013 0.01751202003208789 -0.154644820553983 83 69 60
0.0037223143769219355 0.019554214984876816 -0.15822473105404877 82 68 61
0.0009864426322109855 0.017953854219847964 -0.1608442025417413 82 69 63
-0.0017393689574447847 0.016359295644459045 -0.1634568992474752 82 69 63
0.0403347758099826 0.03953559697757477 -0.1728524344801551 82 69 63
0.03283192719494024 0.03529818532483152 -0.17479471609810968 84 71 65
0.024547444726000435 0.03062939716815493 -0.17659076697618337 85 72 66
0.017276865032610424 0.026521860055299076 -0.17851808890182372 84 73 67
0.008951501537488787 0.021832029541715738 -0.1802538924889669 85 74 68
-0.00038065549352237285 0.016586589192216283 -0.18180029571088127 85 74 68
-0.010956857105943942 0.010654585270315108 -0.18311350393073716 87 76 71
0.03748277017110052 0.03733345712243108 -0.19406270761173583 88 77 72
0.03308970549034141 0.03481677248910146 -0.19643218355009961 88 77 73
0.033043869587721264 0.0347021623265765 -0.1995152922975015 90 79 74
0.032647862579413794 0.03439408061012138 -0.2025403445702078 90 81 76
0.03952537968279736 0.03810358500680995 -0.20680861952841745 94 85 80
0.043384699860455574 0.04014538037370075 -0.21058126504241206 97 88 83
0.04763691433149216 0.04240372142079642 -0.21443742035723926 100 91 87
0.05104914860589573 0.04419774894496402 -0.21816191398427542 102 94 90
0.05547243943747368 0.046549647564411385 -0.2220797715892341 102 94 90
0.055851551891420985 0.04666825458547119 -0.22528765500732678 108 99 96
0.07135185271471914 0.05513445693907787 -0.23124307486587192 116 110 109
0.07807340465984579 0.058753164159329456 -0.23564560886251296 121 118 116
0.08514058104744883 0.06256191183549556 -0.24013725901424537 136 134 132
0.09135233650975205 0.06589779178127629 -0.24449548766811355 159 157 155
0.09751924649729105 0.06920824836580107 -0.24886864235277867 173 171 170
0.10284513816785057 0.07205396315607294 -0.2531049336649225 179 178 178
0.10894741127124802 0.07532745654210454 -0.25751067468965455 180 180 181
0.11032689589250799 0.07599475273593898 -0.2610236473467412 179 180 179
0.1144975080878805 0.07820157061632514 -0.26508911177180716 178 180 180
0.12311555318012657 0.08286108406615549 -0.2700489801369696 176 180 182
0.127573782161626 0.08522536891739169 -0.2742120793927438 177 180 182
0.12943592044494584 0.08615744114474198 -0.27787059789447877 178 179 181
0.13010933799723434 0.08643377611971309 -0.281296108383296 178 179 181
0.13693197283442032 0.09010059151596082 -0.2859833535198361 178 179 181
0.14230864284259576 0.09296945439924012 -0.290397932268479 178 179 181
0.14688894151153464 0.09539869705005785 -0.294667339429724 178 179 181
0.1554533704328533 0.1000236056527646 -0.29979076166559054 178 179 181
0.13396188449412813 0.08808136563121335 -0.29858390638976523 178 179 181
0.1344029706070381 0.08822896633471163 -0.30198369900132926 178 179 181
0.16014073622125974 0.10231690576213993 -0.3108314213840346 178 179 181
0.10068091520749056 0.06945608379178383 -0.30128236300761024 179 180 182
0.09850739213633802 0.06816462313184528 -0.304057404570742 178 181 183
0.0990760171315983 0.06838405720706248 -0.3074310083889147 177 181 182
0.0977193784827004 0.06754281932144439 -0.31037992868040254 179 181 181
0.10161275595610418 0.06959349213473516 -0.31450228307663364 179 181 181
0.09668028509992217 0.06678272717318662 -0.31664577896186247 178 181 182
0.09966735122844486 0.06833384901485615 -0.32057663486806176 178 181 182
0.10158593225416145 0.06929624412089719 -0.3242743523921341 178 181 182
0.10367604936050968 0.0703528497432138 -0.32802003851746125 179 181 182
0.105771861760485 0.07141233359321926 -0.3317759617223732 179 180 181
0.10787336499617015 0.07247469216398289 -0.335542157403601 180 181 183
0.11152488540437583 0.07439001101829634 -0.33968417898110653 179 181 185
0.11425386486391788 0.0757971381440034 -0.34362071980718956 180 181 183
0.18014447692940902 0.11127440251262768 -0.3866575369762997 180 181 183
0.15801108341715578 0.09900351987006555 -0.3844437214893842 180 181 183
0.18706623855901694 0.11488282441858 -0.39527841806556346 180 182 184
0.17726468738026285 0.10939427804426458 -0.39618494029124 179 182 184
0.18329019503636187 0.1126081587787902 -0.40117332479194295 175 173 173
0.19034309216490414 0.11638615664113672 -0.40645394430422555 107 101 100
0.1764679255897814 0.10865965846456518 -0.406243930717939 90 80 78
0.16222428761837707 0.10073204066401854 -0.40588756925559283 82 71 67
0.14805511981701924 0.09284679130906397 -0.40550121062282973 78 65 59
0.13397306949486026 0.08501084968223692 -0.40508862808099033 78 63 55
0.10453868386803913 0.0687406797891151 -0.4004682624093074 83 66 58
0.09803606038292673 0.06507266914253418 -0.4019958361105933 83 66 57
0.0789126248420629 0.05447185006365477 -0.40003720517415053 84 66 56
0.07796640627554721 0.05385798346638855 -0.40303299187744995 91 70 60
0.07445672055081906 0.05183616043875375 -0.40531389710512317 92 70 59
0.06153671526860315 0.04464642852777911 -0.40494951816614094 91 67 55
0.052588431477481594 0.039639105385046156 -0.40565868334487504 91 67 55
0.044913787588398146 0.035332039284892494 -0.4066979635518498 93 67 53
0.02804813958115527 0.02597939458286201 -0.4050882619904132 93 67 51
0.015360871979655716 0.01892240624412499 -0.4046186519501223 91 64 47
0.016020599178719404 0.019193505946119172 -0.4079612814947632 90 61 43
0.01732118410037215 0.01981625991747213 -0.41149404725133415 101 71 51
0.015311651153512768 0.018622103667524002 -0.41406438770170156 102 71 51
0.011495652410581043 0.016436747531301543 -0.41609696830785875 101 69 48
0.016039306069277552 0.01883900734034083 -0.4205934823150675 96 64 41
0.027989516525462783 0.0253046168212379 -0.4273154453564768 91 59 36
0.02453903385084375 0.02331960899399091 -0.4294640614685073 92 60 37
0.024661318883237318 0.023294872074452036 -0.4326793951288276 91 59 37
0.02579758821159922 0.02382627986451053 -0.43620433328626573 93 63 41
0.01982000668156532 0.020455759912460382 -0.437562728944905 94 68 49
0.015139045276460539 0.01779692375526916 -0.43929901031873086 99 80 68
0.01986030506015634 0.02029443096094368 -0.44392469950636765 107 96 89
0.02138681341341539 0.021039664462199223 -0.44757607822743983 156 152 149
0.03549432331569325 0.02868240746274952 -0.45516757152746173 183 184 183
0.050839974529603406 0.03700238510807641 -0.4632013079756769 184 185 185
0.06475486257984536 0.044536417554848 -0.4708399932824968 184 185 187
0.08349798888761947 0.05471532521194658 -0.4800668353237635 184 185 187
-0.02395739928983929 -0.007890748408167975 -0.5742808539129102 195 196 198
-0.016558510082077788 -0.003943248383360173 -0.5803686351340676 195 196 198
0.11473084676099482 0.06742680657007163 -0.6425696449428142 197 198 200
0.04078264999606476 0.026882826972637816 -0.6194806774145936 199 199 201
0.14176283646016116 0.08187698288142527 -0.6638454808827937 199 199 201
0.21785775390985213 0.12328551762035787 -0.6984201102000946 200 200 202
0.2143589134623129 0.12074920834835821 -0.7187196857174314 205 205 207
0.21457087979244555 0.12075996908705275 -0.7224363041698232 206 206 208
0.2112607845061226 0.11885093070390695 -0.7246634219967262 207 207 209
0.2106702085578697 0.11842435338563106 -0.7280368234853656 207 207 209
0.15450842824545902 0.08536290728711649 -0.7890561538854244 208 209 211
0.14456497570769136 0.07985443969046047 -0.7879148032282182 207 208 210
0.14553822461472282 0.08028119823493847 -0.7919173981090968 208 209 211
0.14475411929391466 0.07975262443038421 -0.795088070237427 209 209 211
0.14671386853028331 0.08071531466323076 -0.7995697611238419 209 209 211
0.14743891976481532 0.08100678034528691 -0.803467589530953 209 209 212
0.14493372825935943 0.0795429092754758 -0.805812463384434 209 210 213
0.1429910503423253 0.0783848880882042 -0.8084216752122423 209 209 211
0.1419870638355833 0.0777369859198308 -0.8114812165888501 200 201 203
0.15333157783672574 0.08379689371059271 -0.8205622559310788 177 175 176
0.14532148107800485 0.07934308396763971 -0.820209881101615 146 140 139
0.1427201815776996 0.07782759035665128 -0.8224876694192987 122 113 111
0.14076708942045804 0.07666433803671596 -0.8250770575537809 108 98 94
0.15622737711667176 0.08495642623035031 -0.8362877049914783 102 90 84
0.15453285612985157 0.08393293762017065 -0.8390272153493201 99 84 78
0.11300375911260356 0.061284475713433845 -0.8218746911289239 97 79 71
0.10625698705778476 0.05752101199617678 -0.8219965171109915 92 72 63
0.09989981955066336 0.0539697096879113 -0.8222901552165525 87 67 57
0.09342196262685316 0.050353564424930344 -0.822500137204201 88 65 54
0.08622047404440938 0.04634540870142706 -0.8223201332956465 88 62 52
0.07532635260950425 0.04033439183616795 -0.8202353570607193 87 61 49
0.07439184930633311 0.039728042126513735 -0.8231969422523285 85 60 46
0.056782145345611296 0.030075680967462035 -0.8176083947510233 83 57 41
0.059106402100047306 0.031238023206247675 -0.8222107680880533 84 56 41
0.058128556606608275 0.03060908339586149 -0.8251182035484179 84 57 40
0.04598441080027557 0.023924494904745783 -0.8222351451322715 84 57 40
0.044847726983617456 0.023210168407481246 -0.8250341230120978 85 58 41
0.03740685666231272 0.019077733206132555 -0.8245381844941969 85 58 41
0.04001985478042684 0.020396824976780303 -0.8292847221172643 85 58 41
0.039460805870961596 0.01999602016134601 -0.8323741813722383 86 57 41
0.048445451786663776 0.024768327612836816 -0.840501790602742 88 58 42
0.046180812655234604 0.023442619502338197 -0.8427045917227801 88 59 43
0.06275557781620657 0.03232679636175638 -0.8549192547587533 90 61 45
0.051995394685424925 0.026396919439898192 -0.8526095868884364 91 62 44
0.0545683174129457 0.027692349846429126 -0.8574020785275883 92 64 43
0.059306766335286046 0.030160656227432206 -0.8633701844759275 94 63 42
0.060846514140726865 0.030895623013605142 -0.8676323623186225 94 63 40
0.061503447047978055 0.03115219308101834 -0.8714240439420456 95 63 39
0.06497327452446842 0.03293210379246697 -0.8767482543828977 99 65 42
0.0676392287348204 0.03427625103641728 -0.8816490653654472 101 67 40
0.050868785154420185 0.02509550207058739 -0.8759256426441113 102 72 45
0.050841506113056115 0.024981847863389667 -0.8793336465552569 107 78 55
0.05045919061411039 0.02467594374491519 -0.8825474465214416 110 83 64
0.051556553226683344 0.0251710158288639 -0.8865796188750061 108 86 72
0.029964049017579902 0.013384721198809374 -0.8780257829262919 106 88 77
0.02482281295919031 0.010504347859061208 -0.878551483646332 107 92 84
0.02560714662978432 0.010831137625695347 -0.8823701708476548 107 94 86
0.03405091364657396 0.015302283221505952 -0.8904885233136168 107 92 85
0.037468443391040385 0.017053044223742708 -0.8958128870657139 107 91 84
0.03638147833697786 0.016366518311144967 -0.8986086611695064 104 89 81
0.03493606262570492 0.015486173248904875 -0.9011986876212423 97 82 74
0.028589470898851804 0.011955036585677925 -0.900998292817371 93 77 70
0.03374388745115722 0.014644494696988683 -0.9073355808960112 99 83 75
0.03829047589232777 0.01700464092644688 -0.9133465139885077 110 91 84
0.040619253186639004 0.0181650533270461 -0.9181028978031344 115 95 88
0.03929654181849765 0.017350990664286192 -0.9207656231753568 116 97 90
0.04033715373440021 0.01781462372842399 -0.9247912919889895 116 99 90
0.04382231249456782 0.019599458475622958 -0.9302408128867563 114 97 87
0.0450657393023432 0.020172247062239065 -0.93440052393997 109 91 79
0.04437179354759581 0.019697850115543952 -0.9374351083115371 100 80 68
0.043806691067048154 0.01929310844124768 -0.940544064404583 90 67 55
0.03755781522074006 0.015817383748124456 -0.940310598555072 84 61 47
0.042537022915076425 0.01840833414231724 -0.9466778171386168 80 57 43
0.05027609938131307 0.022489552842511806 -0.9546994581823086 79 56 42
0.06635247156070787 0.03107317134515429 -0.9677035835229911 80 57 43
0.07282924140764221 0.03447033095356124 -0.9750530355206305 81 57 45
0.0011706070966345933 -0.004328630395954061 -0.9357272355119515 81 57 44
0.0076902413314064305 -0.0009054697429918823 -0.9430035466013417 82 58 46
0.017545694270753157 0.0043179706677721474 -0.9523137662155867 82 58 46
0.017115858908918563 0.003987646448038659 -0.9554561708755286 82 58 46
0.01590944225094021 0.0032381252179972952 -0.958128210121438 82 58 46
0.03428843591511627 0.013059843103425436 -0.9726949271994041 82 58 45
0.024346604273988992 0.007594985318536612 -0.9700752490007104 82 59 45
0.023857294387884836 0.007232098840911957 -0.973197485865878 83 60 46
0.025273058614817143 0.007897155241647108 -0.9774878729626014 83 60 46
0.019940972703216514 0.004921408378993936 -0.9776332753785063 84 61 47
0.007717208747558893 -0.0017715845068164426 -0.9735052035414568 84 61 46
-0.010985690622019192 -0.011958122758459033 -0.9653185331543702 85 62 47
0.010128848398946191 -0.0006670674937344218 -0.9817949864465175 86 62 50
-0.005152602296781883 -0.00900654781675271 -0.97567486776224 87 65 53
-0.012629014387420104 -0.013135580200301145 -0.9743754893968174 87 67 54
-0.021326808698805114 -0.01792235191106739 -0.9722823232981718 89 70 59
-0.01930756318542605 -0.016930383637300483 -0.9768982880391456 94 74 65
-0.017669801837892532 -0.016144334320486287 -0.9812830049542755 93 73 64
-0.022885253844616177 -0.01905245707482424 -0.9813375548940566 94 76 66
-0.026941222524498598 -0.02133512524686615 -0.9821093490755648 96 78 68
-0.03294546027621385 -0.024667288144480826 -0.9816257434119093 93 75 65
-0.038530065751824896 -0.02777269768562477 -0.9813881099374413 91 73 63
-0.03938515248440688 -0.028329340765364128 -0.9841611020833624 91 73 63
-0.04547142860355584 -0.03170409704062782 -0.9835692792551457 91 73 63
-0.03691392515257921 -0.027190084872001176 -0.9923978897780232 94 76 66
-0.036876691362733124 -0.027266193784563332 -0.9957507643692565 94 76 66
-0.03321690323542592 -0.025391414867391077 -1.0014556112731952 91 74 66
-0.04031439643119328 -0.029309846571225727 -1.0001759307825397 90 72 63
-0.037988315086107394 -0.028153496964074883 -1.0050209437712505 84 65 55
-0.03855342510497056 -0.028554020809025624 -1.0079837501033992 78 56 44
-0.04173248622567734 -0.030361677143459047 -1.0092292510984 72 45 34
-0.04095161363526381 -0.030037513023101016 -1.013072058809756 67 38 23
-0.04668830507723061 -0.03322129812923351 -1.0126135327656034 65 36 15
-0.04598026342678008 -0.03293622240626794 -1.0164044184587588 64 33 15
-0.04233201229278197 -0.03106915997890409 -1.022153815367729 65 34 16
-0.045770840596333684 -0.03301567603531019 -1.023194829039311 67 36 18
-0.0019009390168332196 -0.009510675170515293 -1.0558546389772265 70 39 21
-0.015442855509669576 -0.016893888627421694 -1.0501903218597233 74 43 24
-0.020337581775635757 -0.019624567054150097 -1.050289686371009 80 49 29
-0.025247787877862082 -0.02236305366992483 -1.0503607124692382 82 56 33
-0.03689067091466963 -0.028721522713752848 -1.0458587313265097 85 59 40
-0.04274046373371386 -0.03196379306416835 -1.0452428540897902 86 63 45
-0.051529457477933166 -0.03678565459594113 -1.0426049986672847 87 66 48
-0.05134545931381368 -0.036782865056194394 -1.0460580049860175 88 68 50
-0.05614241667103413 -0.03945750720935168 -1.0461037105537558 87 68 51
-0.06147014101169607 -0.04241690891107085 -1.0457674495457367 87 68 52
-0.04827945905086002 -0.03542385008458386 -1.0581615746134734 88 69 54
-0.07595705638992427 -0.05039283310547513 -1.0423901173787469 89 70 55
-0.05521822930463456 -0.039345005134085724 -1.0600381418168698 88 69 54
-0.056472240567545184 -0.04011487860143342 -1.0624965307469376 87 68 54
-0.046595590192295644 -0.034905542745078164 -1.0727039201658932 86 68 54
-0.03898657783401133 -0.03091537882859627 -1.0813684032445177 81 65 51
-0.03676722027887154 -0.029820702153608006 -1.0862894421385176 71 58 48
-0.03337459354104197 -0.02809628002201607 -1.0920451398854085 59 47 38
-0.029147972387151957 -0.02592448756760453 -1.0984035313005265 55 41 33
-0.025839508207072773 -0.024246174720923913 -1.1041317400392494 54 37 30
-0.02243229800544297 -0.02251528069030162 -1.1099447409850611 59 44 36
-0.02773304816494511 -0.025458997067749276 -1.10958588474052 64 47 39
-0.027747057278591156 -0.025564688155577595 -1.1129742319269846 64 46 39
-0.024203675792182466 -0.023761335578645543 -1.118905933551862 65 47 39
-0.01912981496552832 -0.021137190576687087 -1.1259500725918288 60 42 34
-0.020923635120154563 -0.022198451143430983 -1.128081483755602 62 42 31
-0.025042042755871616 -0.024506643667321373 -1.1285322982372694 68 45 33
-0.03356212459070035 -0.02917555759978667 -1.125787678245166 75 52 35
-0.03517462186833553 -0.030138549797233696 -1.128015391714141 87 61 40
-0.0353706250941061 -0.030341726476124445 -1.1312673909348279 95 69 48
-0.039975973149401656 -0.03290942560225951 -1.131307555746946 94 71 53
-0.03761368618245911 -0.03174066365442757 -1.136421357818592 92 71 54
-0.030468775259021988 -0.02800810919469844 -1.145050114012398 92 69 53
-0.03350687831348827 -0.029735269034465966 -1.1462284175225859 90 67 51
-0.031589111870403 -0.02880570270065841 -1.1510468211040157 87 64 48
-0.01932007311398204 -0.02232857688918971 -1.1635207563893495 86 63 46
-0.020074398523448556 -0.02283212147536967 -1.1663995114021983 85 65 48
-0.022058562931785652 -0.023994620638566597 -1.16836340327277 85 67 51
-0.026299989459230136 -0.026366332973818365 -1.1686398210521078 85 68 53
-0.02812506148096444 -0.027443099938020937 -1.170705111479558 90 77 63
-0.02942512172346408 -0.02823846965213045 -1.1731577322376014 107 97 86
-0.03880681787533727 -0.03336230548819634 -1.1695389994405416 135 129 120
-0.04110421833168722 -0.034691113739530044 -1.1712171055276652 159 156 151
-0.04365547303007693 -0.03615563516969936 -1.1726958720693645 175 173 169
-0.04564901403283844 -0.03732128690291142 -1.1745880063090754 184 183 179
-0.054134505700993416 -0.041962358490060594 -1.1715468862435168 189 188 186
-0.05271063967685906 -0.04129787111180462 -1.1760132650464166 193 192 190
-0.04356346619546382 -0.036499660153743216 -1.1863795713965064 195 194 192
-0.0412353520833673 -0.03535210089773125 -1.1915680858646962 197 196 194
-0.08867624527556574 -0.06083811378768481 -1.1585937959031234 199 198 196
-0.019787230443905846 -0.024272947970505776 -1.2218150000900787 202 201 199
0.013297541132510665 -0.006675891190707481 -1.2509246570002945 203 203 201
0.035758940282936 0.0052353853142023815 -1.2719142592725 204 204 202
-0.031106694212706357 -0.03072630102966714 -1.226836710325683 205 205 203
0.024508314544514912 0.040652657271054576 0.05265282652275855 181 181 181
0.04937666206039449 0.054456930699087164 0.04904546093145304 181 181 181
0.04040734407102841 0.04936148255606307 0.04627450635329343 180 181 183
0.038236429800791644 0.04806323318122027 0.043335923711711535 179 180 182
0.036069758041328774 0.046767527806039405 0.04040332452097489 179 180 182
0.04419278323986988 0.05121695955190686 0.037143764376410274 180 181 182
0.03613410586732092 0.04663175383756969 0.03440659317857713 179 180 181
0.037608382624379856 0.04736882363964701 0.03135454156727059 181 180 180
0.03237037197533573 0.044359079900201666 0.02854779220420435 183 180 180
0.030333345391487236 0.043136365155333756 0.025632185484381835 179 175 171
0.026832555727601674 0.041096919861275144 0.022782124803343715 167 158 153
0.038326056141259945 0.047425021432392425 0.0193038379943617 149 137 129
0.03879330146140861 0.047599536336209114 0.016273654660848576 129 116 107
0.04012087727655775 0.0482539731913936 0.013200983170048152 114 98 88
0.04154356835562529 0.04896130602080436 0.010117937678471692 106 89 78
0.03928389685160777 0.04761432080748117 0.0072108311599398105 103 86 74
0.0002848695077411808 0.02577491533841413 0.006189929043495102 101 86 71
0.0018205652610286394 0.026546908994025224 0.0031579646665068455 99 84 70
0.004018962685751418 0.027688294613525163 8.329292161920934e-05 102 87 73
0.007610408990369633 0.02960624247406478 -0.0030786223608555447 107 92 79
0.009665450404271227 0.03066712157991155 -0.006164983706110763 110 97 88
0.014042212782692921 0.033022209640054354 -0.009398365808542046 115 103 95
0.019589977026840448 0.03602965106983021 -0.012720014953715716 126 116 110
0.026129673012772664 0.03958945198115524 -0.016124663146130855 148 140 137
0.03229076170008052 0.042937540346919725 -0.019528501965242036 170 164 162
0.04027116403723269 0.047298963298750135 -0.023075996362661604 184 180 180
0.042660041728814095 0.048543451962039214 -0.02627017099040323 182 180 181
0.052767167555039865 0.05408860413804384 -0.030014528439558257 180 181 181
0.06083435968773448 0.05849608509199848 -0.03364857646373874 179 181 180
0.07192034216778355 0.06458463336906098 -0.037533580186648444 180 182 181
0.07842265453968914 0.06811851202358084 -0.041113336643052965 180 181 182
0.08596283291295626 0.0722298489465878 -0.044796687486382554 179 180 182
0.08464107144910718 0.07140433931547939 -0.0478102660056604 180 181 183
0.10036722956828438 0.07989349536584316 -0.05848261668967204 180 181 183
0.0835287965494099 0.07042772775335436 -0.060189596871547735 180 181 183
0.09247310686119178 0.07531809404842793 -0.06409045496721082 179 180 182
0.09277059589835407 0.07539385870955556 -0.06725380557772685 179 180 182
0.09633542414493428 0.07728831807563413 -0.07071605853232253 180 181 182
0.10118170220692549 0.07989564034576091 -0.07431051221695384 178 179 179
0.1060436949598742 0.0825111892714305 -0.07792457912457096 163 162 162
0.12684703664324795 0.0939975905899949 -0.08308635447251685 136 133 132
0.13408419472634556 0.0979329692469624 -0.08699644977359192 119 112 110
0.14335567971249272 0.10299949246922861 -0.09113524793696279 111 103 100
0.13767998776844484 0.09974916491111127 -0.09379574602966281 106 97 92
0.14790637933411432 0.10534572551629094 -0.09807395679101727 116 106 98
0.10092622364187671 0.0791199446008668 -0.09640436407865126 100 88 83
0.08975388858971096 0.07281520511304787 -0.09838126351968714 96 82 80
0.07130983734637977 0.06246735112155716 -0.09953473096360735 93 78 74
0.05422425606972192 0.052876743687701164 -0.1007746551054307 99 83 76
0.0471693015406114 0.04886536389615127 -0.10307558425810012 98 81 73
0.03386356193227362 0.04137918940408457 -0.10464507222673787 95 77 68
0.023606711537420694 0.03558934459471007 -0.10652034378739991 93 73 64
0.009200885161889855 0.027494052495607817 -0.10787669470222683 96 75 64
0.0009170848285847688 0.02280311301402007 -0.10990980303344516 97 76 63
-0.006358683472030342 0.01867323132438104 -0.11203658552117686 94 72 58
0.0029323165821200023 0.023751091086312837 -0.11616062376296499 92 66 52
-4.4520261903782665e-05 0.022010695745627484 -0.11880016052636852 95 67 50
-0.005077904180785232 0.019127831244556588 -0.12117251948888354 103 73 53
-0.007960264128161216 0.01744055103272737 -0.12380231454906528 118 91 73
-0.013453350372896316 0.014303121543218885 -0.12608658549595753 116 88 70
-0.017073544883428982 0.01220660405440626 -0.1285978177792865 107 76 56
-0.0035843292759753093 0.019613907210164806 -0.13336440742811426 101 70 46
-0.001420424844945145 0.020729696927308618 -0.13665923340261343 94 62 37
0.0003811705938692074 0.02164402277762596 -0.13991366286683526 86 52 27
-0.012670122303646239 0.014310262233358264 -0.14113000594664257 86 54 30
0.004993318668152731 0.024032247957798236 -0.14658608232736778 81 52 28
-0.0096867073822119 0.01579521151357599 -0.14753738497056873 78 53 35
-0.009571204876872273 0.01577340079012382 -0.15055408593108202 78 59 47
-0.0017080037998014434 0.020052314504020466 -0.15469386985165848 80 66 56
-0.0027830249985318287 0.019369213018573837 -0.1575531692340309 81 67 59
-0.006792240874410018 0.01705769562708965 -0.15997502750365125 81 68 60
0.0052781527359162805 0.023669964837680642 -0.16479605602366731 80 67 61
0.03491023884867247 0.04002600627336704 -0.1723258566886085 81 68 62
0.014219947960194806 0.028457557053799515 -0.17223599356862562 83 70 64
0.01465021442027721 0.028608872583869686 -0.1753541231260535 83 70 64
0.08990271914808583 0.07026784132733103 -0.19022421569540005 82 70 64
0.09082559291968034 0.07068847465375121 -0.19355784150896113 84 72 66
0.10006008116061715 0.07571901667893802 -0.19823049292840164 84 73 67
0.09506628012334602 0.07285757695682593 -0.20062770689037873 84 73 67
-0.04637898681129712 -0.005841685040799366 -0.18652785849146103 85 74 68
0.055055035082273114 0.050218711534292464 -0.20979662628556356 89 78 74
0.05277465685400909 0.04886486240055179 -0.21253907122499696 89 78 74
0.05149360391064528 0.04806507741219271 -0.21544936048683605 93 83 78
0.05169547265317461 0.04808721217794014 -0.2186180998888722 96 87 82
0.049258185958416224 0.04664681174545919 -0.2213186629934944 96 86 82
0.04642397607834801 0.04498668602197646 -0.22394054618054507 96 87 82
0.04509802998910071 0.044162452951341864 -0.22682784983226495 99 90 86
0.06681223353648486 0.056102404953193054 -0.23393946033428167 105 97 93
0.07149750537188855 0.05860706434319591 -0.23797453162860757 109 103 98
0.07550193302739173 0.0607340947451232 -0.2419002405861552 114 108 104
0.0797477488598336 0.0629943697252515 -0.24588710035171632 125 119 116
0.0847941889571083 0.06569755179602807 -0.25004298175998985 136 131 129
0.08982401175721975 0.06839097963285737 -0.2542149592073595 156 152 150
0.0939003541063533 0.07055592479121628 -0.25822108963971335 167 166 165
0.09834185987682141 0.0729225836106702 -0.2623146288775604 176 177 177
0.10386193226460846 0.0758858308660616 -0.26663855411695686 179 180 181
0.10822740399444278 0.07820936267487938 -0.270753217833549 179 180 183
0.11077416038726744 0.0795257772665291 -0.27451883901802 180 180 182
0.11343344140864428 0.0809041667501739 -0.27831778103020377 179 179 181
0.11904488636017363 0.0839159230082544 -0.28273216696751313 179 179 181
0.12280178132012756 0.08590088366889642 -0.28678486782797963 179 179 181
0.12694154444960307 0.08809725399490678 -0.2909321472035708 178 179 181
0.1210838009047027 0.08476223593072825 -0.29299487091137216 178 179 181
0.11875356299485099 0.08337911796687288 -0.29578566582298815 179 179 181
0.10836897978625082 0.07754111032546858 -0.29684844764529317 179 179 181
0.10454020022290234 0.07532998831551924 -0.2992882316071155 180 180 182
0.09914766201288946 0.07225441734660665 -0.30137604027774845 180 180 182
0.11279763478772238 0.07970938950603362 -0.30761716971096 178 180 182
0.11167871468242385 0.07899685134515756 -0.31064706474496917 180 180 182
0.10951687648291744 0.07770778568784818 -0.3134422256348906 181 180 180
0.10680161054105228 0.07611295354400552 -0.31610690179559076 179 177 176
0.08837932083400767 0.06583598282677836 -0.3152104963204562 176 174 173
0.09024094275487393 0.06677216279762999 -0.3188739574938419 174 173 172
0.09230420267627296 0.06781955006646945 -0.3225918324719964 177 175 174
0.0943731645729948 0.06886983598259142 -0.3263198384774578 180 178 177
0.09644761857273074 0.06992290353422857 -0.33005796297293144 181 180 179
0.0985277657220138 0.07097886279013393 -0.3338062885740891 179 180 181
0.10144495978490671 0.0724970044667152 -0.33776183093146883 177 181 183
0.10422890990339126 0.07394119994185956 -0.34169746107726184 179 180 182
0.21972243199062147 0.1376412938365748 -0.3727541108060746 179 180 182
0.24797116040673522 0.15314344679603967 -0.38308560848028694 180 181 183
0.19010013701293843 0.12058991087330394 -0.38969218514949133 180 181 183
0.1622628696485548 0.10512656190766367 -0.38603979108696806 180 181 183
0.1727972116861899 0.11084318402041127 -0.3921390634071263 180 181 183
0.18046078811013266 0.11497445956195187 -0.39753566842856725 180 181 182
0.1877377445044643 0.11889156630259984 -0.40286076957744765 151 148 147
0.19072830036409333 0.12044289422000878 -0.4070900767732952 93 85 83
0.16780471315757872 0.10769730987158083 -0.4044922672586392 88 76 74
0.1474142034645804 0.09635139419497256 -0.402486316695016 83 69 66
0.13039502393698005 0.08686712398743492 -0.40131016318507023 79 65 59
0.1089934718677766 0.07496754451965254 -0.3988936114265599 79 64 56
0.1013856312981857 0.07067712932328998 -0.4001413611616084 83 66 58
0.08357776618074028 0.0607628544097194 -0.39857882621099 81 63 55
0.07383499580681435 0.055297306291858805 -0.39916935681088245 82 64 54
0.07356414454236451 0.055054851791436765 -0.40234581578116446 88 67 57
0.07017579338155852 0.053093784279160644 -0.40465483587150863 88 66 55
0.047709955976140264 0.04061707439679518 -0.4016073990637019 89 65 53
0.039693345729873764 0.03610665539427841 -0.402554887041934 90 66 54
0.023563973977487773 0.02712592897374693 -0.4011720556653037 92 66 53
0.0249016026031564 0.027772332462206787 -0.40472148254706747 92 65 51
0.012406230349947124 0.020796360642711644 -0.40430071439687376 91 63 48
0.009621769583466062 0.019172005025302367 -0.40664510743462556 91 63 47
0.010845223411220524 0.019755904906762167 -0.4101474527260264 96 67 49
0.011558351176118108 0.02005851976671021 -0.4135061545613809 105 75 56
0.01330223723829927 0.0209287695710909 -0.4171726361962557 104 73 52
0.01492777300037261 0.02173361572229279 -0.4208117588269539 99 67 44
0.023712496106676417 0.02648083805611017 -0.4265942713445321 92 60 37
0.02083978347198269 0.024807927755922454 -0.428910730897541 87 55 32
0.01742530087782787 0.022836979167995434 -0.4310545095837677 85 53 30
0.02058868950506585 0.024487770344611023 -0.43518582484810764 88 56 33
0.019285271461833293 0.023679239760090558 -0.43796476792779476 90 61 42
0.0062255862100442025 0.016399662249626495 -0.4371255370645292 92 70 57
0.011142399158996598 0.019015489121010674 -0.4418002781280561 102 85 75
0.006702774392908686 0.016481564099686492 -0.4435832890643138 130 123 117
0.025264276827012162 0.02660524100830014 -0.45254985825476046 178 178 176
0.04423718575985312 0.03695330433868617 -0.4617151620351422 184 185 185
0.05611278076974262 0.043394537316748305 -0.46870414616730083 184 185 187
0.0743549123888547 0.05333689537207237 -0.47776536773648187 184 185 187
0.04798512595166529 0.0387373718675294 -0.47260687057628736 184 185 187
-0.01267111134459234 0.0017555604531894198 -0.5794373650093568 195 196 198
-0.0074299464046053 0.004535994361579261 -0.58469817786938 195 196 198
0.11242665072717895 0.07001028415880156 -0.6390018510100128 197 198 200
0.11243031691093837 0.06991424821875558 -0.6424263703541907 197 198 200
0.03405894681217436 0.026798761888398435 -0.617511548928456 199 199 201
0.15109041033045528 0.09078958140326665 -0.6684466887881726 200 200 202
0.22970404324111626 0.1337328147273277 -0.7041056819236126 200 200 202
0.22566650170767588 0.13100001594841887 -0.7206828181955747 204 204 206
0.22667455550923893 0.131447070738649 -0.7247571438491682 205 205 207
0.21490269266984924 0.12479726938911062 -0.7270753766453969 207 207 209
0.21203624162494153 0.12312505305004656 -0.7294898668141837 207 207 209
0.12667203732167492 0.07422884075007079 -0.769862688139549 207 208 210
0.12590136348416275 0.0737077856795762 -0.7730068637577184 207 208 210
0.12638038022497505 0.07386879049943688 -0.7767385693130217 207 208 210
0.12050059419908885 0.07055971269372632 -0.7774652467458705 208 209 211
0.13762063065933494 0.07980093270989819 -0.789096353211109 208 209 211
0.13940603672236185 0.08067383742076216 -0.7934808316744573 209 209 211
0.1373405384428617 0.0794457002953128 -0.7960298348057939 209 209 211
0.13670793286978944 0.07899935696031254 -0.7992613913456688 210 210 213
0.14040060318684144 0.08091215345932072 -0.8045795823111568 205 206 208
0.14424506838393059 0.08290728617013157 -0.8099869738409324 189 188 188
0.14134354938598653 0.08122325610503718 -0.8121292100968269 159 156 155
0.14058156674905553 0.08070610472461301 -0.8153067927119217 132 126 122
0.13800344190885971 0.07919881617052606 -0.8175927437157668 113 104 99
0.1356771714320667 0.07782906234237806 -0.8199944170411986 105 93 86
0.13367225794005516 0.07663468788015053 -0.8225475858431752 99 86 78
0.13108493220069972 0.07512304657955193 -0.8248058559203627 94 80 70
0.08297605130044407 0.04880289849271373 -0.8043922923526534 91 73 62
0.0802756632981881 0.04723261033522473 -0.8064905513084532 87 67 55
0.0738283228048578 0.043620935477586886 -0.806700260564341 86 63 51
0.09030361643554369 0.052498740131640714 -0.8184306474080828 87 62 49
0.09302697104726325 0.05388305193028825 -0.8232738746091869 88 61 48
0.0811674112542549 0.04732348583238588 -0.8207293875107087 87 61 46
0.07020780765429596 0.04125534562770779 -0.8185994492074218 84 58 43
0.06412869776848092 0.03784630653543608 -0.818924261106405 82 56 39
0.06651097136186095 0.039045541395603456 -0.8235694508186411 82 55 37
0.053470843196650616 0.031847039162467075 -0.8202814676508503 83 56 38
0.0496742051507572 0.02968245761547554 -0.8217239394859388 83 56 39
0.0436970192441649 0.026331189846796194 -0.8220218525032129 84 57 40
0.03683615316937522 0.022499520811498794 -0.8218381035973339 86 59 42
0.03121934560741435 0.019345673421017298 -0.8222798884682279 86 59 42
0.03104232998300313 0.01915284804213707 -0.8255557932240045 86 59 42
0.030041476931556982 0.0185116942530473 -0.8283987098984151 88 59 43
0.031187599616493603 0.019038799196530856 -0.8323740465223873 89 59 44
0.037390340820720736 0.022316815217740246 -0.839037621393061 90 61 45
0.05439738815255127 0.03147165019802657 -0.8514785773980336 91 62 46
0.048654373796546524 0.02824977726996533 -0.8518311419986624 92 63 45
0.05036376793987789 0.029081784487666906 -0.8561593369385752 93 65 44
0.04999308953780586 0.028782342585470327 -0.8593762668172488 94 63 43
0.048015158047621576 0.027608905644508297 -0.8617252670560165 95 64 43
0.04995912446709032 0.02856807420171606 -0.8661939168480766 97 65 42
0.05760395661128237 0.032626367747909446 -0.873772580863639 98 65 42
0.067973272178672 0.03816483779790346 -0.8828695546124486 100 66 40
0.053984597689854655 0.030462124373537652 -0.8786646656358772 101 68 40
0.05555113581035162 0.03121522064216338 -0.882958606066771 104 72 46
0.04957318300001304 0.02786806233749893 -0.8830980699481151 104 75 50
0.046905171883119656 0.026320118441072418 -0.8850483828083076 104 78 60
0.048750547975288425 0.027224715247905207 -0.8894973140650603 103 81 68
0.015912823351727223 0.009286378989186925 -0.8746198214705425 103 85 75
0.019455935209649056 0.011114655275817342 -0.8799687293265066 101 86 77
0.02972590581982816 0.016596324885296457 -0.8891090612345243 104 86 79
0.03542689251246382 0.019595326587025022 -0.8957170765424213 103 85 76
0.03169218105473992 0.017469506600207893 -0.8970153848171569 99 81 72
0.030486899483362126 0.016717547113361236 -0.8997353808822591 94 75 67
0.02064892354900734 0.011278571966049603 -0.8975392475074206 91 73 65
0.02536150711444639 0.01374003646956981 -0.9036156653248987 89 71 62
0.029199260631870186 0.015726042114448016 -0.9092106660419419 95 75 67
0.031099816704591 0.01666010167018482 -0.91370835715324 103 83 76
0.028988338919778867 0.015416472102297046 -0.9159004918634625 107 87 80
0.030563506690737624 0.016173664088407827 -0.9202199331897352 107 89 79
0.03291548447057632 0.01735214372458664 -0.9249982238463456 109 91 79
0.036914058031527794 0.019423690202164 -0.9307467596799874 108 90 76
0.03637626680793514 0.019033757098057436 -0.9338601203247827 103 83 69
0.027291927239212116 0.01400779400178137 -0.9319592939112074 93 70 57
0.03422228118805018 0.01766902059324904 -0.939450527435345 84 61 46
0.03282484668794661 0.01681297884811879 -0.94205254912848 80 57 42
0.030230333283058367 0.01530789791759632 -0.9439414337385024 79 56 42
0.040352256927919744 0.02069820542760918 -0.9533808680192334 79 56 42
0.04639044419559159 0.023873268327330943 -0.9604259238642275 79 56 42
0.05851188644045838 0.03034540879440284 -0.9711360534310423 80 57 43
0.06423826496978063 0.03334967023455816 -0.978056215685461 82 58 45
0.06303544086523355 0.03259762421705949 -0.980827215485798 83 59 47
0.010525635240176967 0.004040218742528731 -0.9525946306465917 84 60 48
0.02173681782796942 0.010018213862279787 -0.9627839789279015 83 59 47
0.021450228485636436 0.009765061745584919 -0.9660266375510452 83 59 47
0.014797876349639194 0.006063089469990804 -0.9653860278725797 83 60 47
0.016713961680826103 0.007003498585402418 -0.9699652472916175 84 60 48
0.015813050701134132 0.006417787571975586 -0.9728238652443149 84 60 47
0.015741238769455823 0.006281177890134784 -0.9761912204838893 84 61 47
0.006441204355685598 0.0011469914564177092 -0.9738573367739451 85 62 48
-0.013757288620680347 -0.009887635423398475 -0.9647324270521339 86 63 50
-0.02117650599623974 -0.014000859935195328 -0.9634767722806785 87 63 52
-0.00874339375884127 -0.007365625292199279 -0.9745781734656739 87 65 54
-0.017385147858660438 -0.01214017360754975 -0.972541208403717 88 68 57
-0.02106850488794694 -0.014229970506533879 -0.9735845382668428 91 71 61
-0.02077879724874772 -0.014169127646776969 -0.9771169251587314 95 75 66
-0.019475001354984853 -0.013559582568898151 -0.9812926099154967 93 74 65
-0.022821217133415728 -0.015466343876508956 -0.9825283225740276 93 75 65
-0.02809409659720992 -0.018415177678923547 -0.9825276797045384 94 76 66
-0.03923828780258683 -0.024539755125410748 -0.9787640348441865 91 73 63
-0.04755023011400754 -0.029131070658100618 -0.9767694583641625 90 72 62
-0.046361036021413504 -0.02858258578959063 -0.980839330340604 89 71 61
-0.03698424901004674 -0.023606298121175977 -0.9901846024190484 89 71 61
-0.024840189586613423 -0.01713468737904905 -1.0013548325804063 92 74 64
-0.04370515471307383 -0.02743116004920222 -0.992495956213607 94 76 66
-0.03837972435122894 -0.024647097241505954 -0.9992753756921056 93 76 67
-0.03693518842522572 -0.023961652315888995 -1.0035491273355668 87 69 61
-0.041418912972524355 -0.026480833546878947 -1.0039563238261913 81 61 52
-0.040467511878676324 -0.026061995589385004 -1.0079096351509051 75 53 41
-0.04348780299817678 -0.027789688078471257 -1.0092572171351375 71 45 33
-0.04591667637009174 -0.02919750165047697 -1.0109843360980502 69 40 25
-0.0490523766441566 -0.030986985652352937 -1.0122358737737356 65 36 15
-0.049850890884552274 -0.0315134954655221 -1.0150269018231597 65 34 16
-0.023697540485208182 -0.01748078246168773 -1.035748682858675 65 34 16
-0.045064087797235475 -0.02911824415176084 -1.024864198674736 65 34 16
-0.0433336062155501 -0.028279121604954452 -1.0293557112138896 66 35 17
-0.020144023810578643 -0.015851875109494595 -1.0482613843459283 69 38 20
-0.02648147556360124 -0.019370851645086257 -1.0473802902455298 76 44 24
-0.03145846936462178 -0.022154629653687294 -1.047394239321793 80 52 30
-0.041894108541360456 -0.027884734263754915 -1.043692884405916 84 58 35
-0.050181663591981174 -0.032454171945319875 -1.0414106463253783 84 61 40
-0.052052309515124295 -0.033559271927554715 -1.0434685523439509 86 64 44
-0.05205103259777054 -0.03365396544871994 -1.0467995523208338 87 68 48
-0.056824173053727875 -0.03632508194065272 -1.0468603987206548 86 68 49
-0.061739877089650966 -0.039072619119298116 -1.0468057572362113 85 66 49
-0.05363512718453746 -0.03479500899994638 -1.0557073558751182 86 67 50
-0.05352040727870591 -0.03482859213101948 -1.059119790544836 88 69 52
-0.057122089133162746 -0.03686683285606429 -1.059957850188566 87 68 51
-0.06295177867098281 -0.04010634892634793 -1.0592340411366887 87 68 53
-0.05232391247287706 -0.03447004001820142 -1.0699633991574855 86 68 53
-0.0475170759543552 -0.03197381437516393 -1.0766665019312034 84 66 52
-0.04393998953830146 -0.03014122085508064 -1.0825280425413975 76 61 51
-0.039512967583956046 -0.027850876867988386 -1.089003187899641 65 51 43
-0.03655382136235437 -0.02635234236685438 -1.0944624088870936 52 38 31
-0.02955465567435077 -0.02267665713188169 -1.1027924093461756 52 38 30
-0.029132326410595946 -0.022546300970279237 -1.106487324862757 56 41 34
-0.03317585609278843 -0.02482258439433209 -1.1070090616375685 63 47 40
-0.032573970566816116 -0.02459541053253833 -1.1108296284749808 63 46 39
-0.030075064221669404 -0.023346309563835432 -1.1160111093270624 63 46 38
-0.02737251412068102 -0.02198783777236954 -1.1213502843611862 61 43 35
-0.027320671337791813 -0.022057515873098427 -1.1247952235574339 60 42 32
-0.029366985419381958 -0.02325728858255209 -1.1267285062756949 65 44 34
-0.03446754423713912 -0.026101675978514774 -1.1264458938185407 73 50 36
-0.03554285399259152 -0.026778031491488274 -1.1290640345745377 79 53 32
-0.03628486433160198 -0.027274854581677763 -1.131921852682306 89 63 41
-0.03824968557213214 -0.02842994707996338 -1.1338863679482711 93 70 50
-0.03868110578690691 -0.028759428015767904 -1.136966061823392 93 71 55
-0.034376002954568205 -0.026539507299226064 -1.1435194176759513 93 71 54
-0.03294792304336404 -0.02586849867752207 -1.1479758811747436 92 69 53
-0.03167547567263937 -0.025281450663431446 -1.1523249259159203 89 66 50
-0.019136124313374775 -0.018632225850645445 -1.1650122291208107 87 64 46
-0.02147344192963216 -0.019988308581616848 -1.1667209004872003 85 65 47
-0.024315070103576808 -0.021615461889141735 -1.168046762185276 85 65 49
-0.02971293749950936 -0.024617320256894337 -1.1674569634701546 85 67 51
-0.031621741656528465 -0.025742051031224664 -1.1694551970086726 84 68 54
-0.033185344085269075 -0.026680963861133347 -1.1717060549400753 98 86 75
-0.04099289074251608 -0.03097724140881694 -1.1692591671905053 122 113 104
-0.0436230668459226 -0.032488977468927815 -1.1706840814599337 149 145 138
-0.046191380126320694 -0.03396719579376099 -1.17214666662079 169 166 161
-0.04873068845549257 -0.035429569630167634 -1.1736223966434247 180 179 175
-0.05233369961625503 -0.03746342197705148 -1.1742812882726255 188 188 184
-0.05834099574935912 -0.040789036905649445 -1.173095664984222 192 191 189
-0.05530038114170624 -0.03925190070435167 -1.1787978621982258 195 194 192
-0.0418165480551682 -0.03210387433091022 -1.1925115772559478 196 195 193
-0.08233513151916733 -0.053970582989549834 -1.1648160081312735 199 198 196
-0.0921938587360692 -0.0593622121911606 -1.160561695252863 200 199 197
-0.09851914194987532 -0.06285478473134928 -1.1589963430777301 202 201 199
-0.029813998142590448 -0.02604924219367946 -1.2154769175574054 202 201 199
0.021998075307257725 0.0015744631178818552 -1.2626847040419928 204 203 201
0.0644435628124238 0.024261837088278698 -1.2993513876994596 204 204 202
0.06068706246820186 0.06444505193263779 0.05474851924556237 181 181 181
0.06765580914867936 0.06826504539899896 0.05154695285306721 181 181 181
0.039565069688522934 0.052434209261238464 0.04921787865572932 181 181 181
0.037460449172382476 0.051169480570114556 0.04627370004140542 180 181 182
0.035293844760211586 0.04987018444874006 0.04333720999127732 179 180 182
0.03313168895715824 0.04857355441104147 0.04040668899384838 179 180 182
0.03178976658739457 0.047736662510552016 0.03745567066250196 181 181 182
0.030407766453315752 0.04687741121703995 0.03450931854792924 178 173 170
0.027693631779813162 0.04527201072131683 0.031614139553800887 163 150 143
0.026594625625298123 0.04457153565021038 0.028666315963959844 142 121 112
0.025401755700867574 0.04381855855488888 0.02572465227437759 122 96 81
0.041993490488006255 0.05302580773135918 0.022057316473223888 118 87 70
0.041804825733333266 0.0528344753362879 0.019047981764237592 112 81 62
0.04149234578764092 0.05257379471827462 0.016043494357623228 99 72 52
0.04141801148547706 0.05244644486122678 0.013027805440048067 94 66 48
0.04340244718974674 0.05347166537593527 0.00991265329783607 92 65 45
0.03932323110443191 0.05110222285783466 0.007089677712614092 91 61 41
0.003845150503700989 0.031157579915016442 0.0058880803010427476 90 61 40
0.0034404500187055643 0.03084702360000422 0.002949766397779765 92 63 43
0.008156780064067448 0.03340247619501671 -0.00026836756462530293 92 64 44
0.00968667140218012 0.034174284912267885 -0.0033243079191928376 94 66 47
0.011396100957824425 0.035046370024390955 -0.006397207989804537 92 65 44
0.008523252942865123 0.03335443207327695 -0.009203167081325472 90 65 47
0.011845044184641683 0.03512838485810238 -0.01238171206763749 89 67 50
0.01475489205013858 0.03667153170213935 -0.015546900158205259 88 69 55
0.016630010412950313 0.037635570247055425 -0.018656149612708436 88 74 64
0.021234961532329795 0.040126218616985815 -0.021955199318042358 109 101 95
0.02903316041296396 0.04440224749713232 -0.025489856646201608 142 139 136
0.039864240175921245 0.050373508582271326 -0.029265382981042528 172 173 172
0.04881897688057387 0.05529448621693104 -0.032944694194373854 180 182 181
0.05996493425099414 0.06143969853313072 -0.0368174203135699 179 181 180
0.06771438622396816 0.0656849049904482 -0.040474114972234465 179 181 181
0.0782063404663018 0.07146242517521532 -0.04437013504955718 179 180 182
0.08619000669595477 0.07583682181151584 -0.04810614907867346 179 180 182
0.08028347392412709 0.07244687591881228 -0.050753103206848615 179 180 182
0.09457203568603652 0.08034393985931057 -0.055041305194119705 179 180 182
0.0865539838800413 0.07577412100180426 -0.057507780880789186 180 181 183
0.09355523331471027 0.07959744036451841 -0.06123459539528931 179 180 182
0.0988768996966322 0.08248160952293868 -0.06484018089682175 180 181 183
0.10262284761695727 0.08448490217541865 -0.06832509258209457 179 180 182
0.10649044713206733 0.08655574574448377 -0.0718353856617527 173 173 174
0.11104425135028453 0.08900946842472086 -0.07542397532174415 132 131 131
0.11799070992448946 0.09279906830886447 -0.07925540035583255 101 94 92
0.13217859924905478 0.1006321297521146 -0.08380788380712854 103 92 87
0.14279700389732 0.1064704497324899 -0.08806187796516543 98 83 77
0.144280836448909 0.10720712065728605 -0.09144495481363023 100 84 77
0.07170231125171195 0.06659230745988275 -0.08733474183347499 94 78 71
0.06864194498177863 0.06479531576455641 -0.09013426747424753 98 82 74
0.06559065603987815 0.06300365503448 -0.09292545697761266 82 65 59
0.07034294091882459 0.06556807843275705 -0.09653827134475325 86 70 66
0.06790103022537117 0.06411667299634388 -0.0993904424404301 89 73 68
0.04616824081910908 0.05189953783561421 -0.10011437553557181 95 78 70
0.04250236182985832 0.04976647487995343 -0.10278196993108991 96 78 68
0.029110691965878226 0.04220688866029514 -0.10433489645282591 92 73 64
0.01964736184394062 0.03684035064373939 -0.10629495450089707 94 73 62
0.005803719458232697 0.029030995250675838 -0.10771121810763276 94 72 59
-0.002223598281085714 0.024467533105471846 -0.10977070396020643 96 75 62
-0.013492302124992422 0.01809682490476703 -0.11141321762616849 91 70 56
-0.004644141642888233 0.022947131409852377 -0.1154749752349344 93 69 55
-0.011582231513271025 0.01899271851147368 -0.11761307485735753 98 71 55
-0.012531603793263582 0.01837849702514226 -0.12048067149211965 106 77 57
-0.014873017185112887 0.016988146142651005 -0.12316891587456633 113 87 69
-0.018008673130030267 0.0151551693925459 -0.1257477053527361 117 90 72
-0.020682906028821745 0.013579705899079864 -0.1283772159129262 112 81 61
-0.007514396640085075 0.020835850939416707 -0.1330999340226247 101 70 47
-0.013549319382921969 0.017386842097563502 -0.13528941555187632 91 59 34
-0.006042695514845212 0.021485651115148666 -0.1393025279371852 85 51 26
-0.018853947635365076 0.014260708298374086 -0.14054170043825534 86 53 30
-0.009977629645384654 0.019122210708350434 -0.14476567435702198 81 52 29
-0.011050334760955575 0.018439282420754113 -0.14761536822270008 73 49 31
-0.014720218266824816 0.016309427814743357 -0.15009083192873843 76 56 45
-0.014952251774200034 0.01609509991830022 -0.15305285981987837 77 63 53
-0.010019013804493295 0.018758031142982863 -0.1567728797104386 79 65 57
-0.013101386779034552 0.016955801528444264 -0.15932193254571508 79 66 58
-0.011613695704434584 0.017699103918698646 -0.1625477314194199 79 66 59
0.024426738716672974 0.03768437755041539 -0.17102945230927843 79 65 60
0.009035105131934992 0.029026460396532637 -0.1717350247331536 81 68 63
-0.0029120528664965777 0.022287900865243026 -0.17292319627494576 82 69 63
-0.013335166066213069 0.016398998211755826 -0.17431022363845242 81 68 62
