ply
format ascii 1.0
element vertex 873
property float x
property float y
property float z
property float nx
property float ny
property float nz
property uchar diffuse_red
property uchar diffuse_green
property uchar diffuse_blue
property uchar class
property uchar detection
end_header
-0.0433 0.2878 -0.8406 -0.590 0.654 0.473 70 30 8 0 0
-0.0446 0.2894 -0.8429 -0.716 0.655 0.243 72 31 7 0 0
-0.0451 0.2900 -0.8459 -0.716 0.655 0.243 79 36 10 0 0
-0.0445 0.2883 -0.8729 -0.562 0.824 -0.075 83 52 33 0 0
-0.0427 0.2855 -0.8877 -0.623 0.778 -0.076 67 41 26 0 0
-0.0372 0.2780 -0.8988 -0.530 0.841 -0.111 66 40 25 0 0
-0.0385 0.2793 -0.9113 -0.344 0.880 -0.327 58 32 17 0 0
-0.0375 0.2778 -0.9155 -0.513 0.858 -0.022 65 38 22 0 0
-0.0375 0.2777 -0.9188 -0.513 0.858 -0.022 70 41 25 0 0
-0.0376 0.2774 -0.9323 -0.667 0.743 0.054 72 39 17 0 0
-0.0377 0.2774 -0.9356 -0.654 0.741 0.150 73 38 16 0 0
-0.0388 0.2787 -0.9414 -0.734 0.559 0.387 76 42 19 0 0
-0.0401 0.2802 -0.9438 -0.732 0.570 0.373 76 42 17 0 0
-0.0409 0.2810 -0.9499 -0.501 0.741 0.447 75 39 15 0 0
-0.0692 0.3166 -0.9690 -0.545 0.837 -0.050 95 73 62 0 0
-0.0871 0.3378 -1.0259 -0.665 0.732 0.147 98 56 21 0 0
-0.0874 0.3381 -1.0289 -0.665 0.732 0.147 96 56 22 0 0
-0.0894 0.3406 -1.0303 -0.672 0.542 0.504 95 54 22 0 0
-0.0898 0.3410 -1.0333 -0.474 0.843 0.253 90 49 17 0 0
-0.0907 0.3417 -1.0458 -0.667 0.714 0.214 90 55 27 0 0
-0.0947 0.3447 -1.1090 -0.613 0.788 0.054 90 50 18 0 0
-0.0951 0.3452 -1.1119 -0.571 0.783 0.247 95 58 30 0 0
-0.0951 0.3450 -1.1154 -0.592 0.784 0.189 95 61 34 0 0
-0.0955 0.3454 -1.1183 -0.592 0.784 0.189 94 60 35 0 0
-0.1051 0.3573 -1.1318 -0.494 0.699 0.518 81 54 32 0 0
0.0392 0.2187 0.1002 0.128 0.772 0.623 132 101 79 0 0
0.0114 0.2524 0.0418 -0.619 0.681 0.390 96 52 16 0 0
0.0089 0.2554 0.0360 -0.746 0.653 0.135 89 47 19 0 0
0.0055 0.2584 -0.0040 -0.816 0.559 0.145 88 47 19 0 0
0.0064 0.2571 -0.0098 -0.677 0.736 -0.020 88 47 17 0 0
0.0074 0.2555 -0.0185 -0.679 0.733 -0.044 86 45 15 0 0
0.0174 0.2414 -0.0569 -0.432 0.871 -0.232 9 7 3 0 0
-0.0033 0.2669 -0.0844 -0.339 0.869 0.360 70 34 14 0 0
-0.0392 0.3106 -0.1547 -0.660 0.723 -0.204 71 52 38 0 0
-0.0388 0.3099 -0.1577 -0.782 0.587 -0.210 72 53 39 0 0
-0.0334 0.3029 -0.1643 -0.280 0.831 -0.480 70 48 36 0 0
-0.0115 0.2718 -0.2510 -0.400 0.910 0.114 65 41 31 0 0
-0.0136 0.2723 -0.3166 -0.573 0.808 0.138 67 34 12 0 0
0.0027 0.2505 -0.3460 -0.376 0.880 -0.292 66 43 29 0 0
-0.0009 0.2540 -0.3789 -0.694 0.631 0.346 45 22 12 0 0
-0.0081 0.2629 -0.3887 -0.852 0.355 0.385 66 36 21 0 0
-0.0097 0.2648 -0.3912 -0.760 0.357 0.544 70 35 21 0 0
-0.0115 0.2670 -0.3937 -0.639 0.272 0.720 75 39 22 0 0
-0.0258 0.2851 -0.4038 -0.306 0.838 0.451 82 44 26 0 0
-0.0279 0.2876 -0.4091 -0.585 0.684 0.435 101 78 62 0 0
-0.0283 0.2879 -0.4120 -0.605 0.796 -0.019 92 60 40 0 0
0.0132 0.2324 -0.4819 -0.527 0.825 0.205 58 28 12 0 0
0.0117 0.2343 -0.4845 -0.582 0.740 0.337 65 36 20 0 0
0.0165 0.2277 -0.4962 -0.568 0.822 0.030 67 36 18 0 0
0.0169 0.2272 -0.4995 -0.452 0.845 0.285 67 36 18 0 0
0.0165 0.2276 -0.5026 -0.634 0.767 0.094 66 35 17 0 0
0.0107 0.2338 -0.5354 -0.551 0.769 0.324 66 33 14 0 0
0.0155 0.2253 -0.6095 -0.373 0.921 -0.110 86 49 20 0 0
0.0075 0.2339 -0.6578 -0.416 0.901 0.126 81 42 13 0 0
0.0074 0.2337 -0.6677 -0.540 0.826 0.159 83 43 18 0 0
0.0067 0.2344 -0.6739 -0.540 0.826 0.159 77 37 14 0 0
0.0056 0.2355 -0.6832 -0.540 0.826 0.159 73 37 12 0 0
-0.0000 0.2416 -0.7130 -0.727 0.677 -0.116 60 28 8 0 0
0.0045 0.2356 -0.7191 -0.552 0.833 -0.047 61 29 9 0 0
-0.0094 0.2524 -0.7502 -0.445 0.845 0.296 63 30 10 0 0
-0.0095 0.2525 -0.7534 -0.477 0.870 0.126 60 27 9 0 0
-0.0108 0.2541 -0.7559 -0.424 0.837 0.346 59 26 9 0 0
-0.0187 0.2628 -0.7938 -0.724 0.688 -0.057 57 25 9 0 0
-0.0182 0.2622 -0.7974 -0.572 0.802 0.169 59 28 10 0 0
-0.0187 0.2623 -0.8104 -0.567 0.676 0.470 58 26 8 0 0
-0.0385 0.2869 -0.8358 -0.380 0.737 0.559 59 23 7 0 0
-0.0407 0.2895 -0.8408 -0.380 0.737 0.559 71 31 9 0 0
-0.0414 0.2903 -0.8436 -0.525 0.721 0.453 72 31 7 0 0
-0.0423 0.2914 -0.8462 -0.706 0.490 0.511 74 31 5 0 0
-0.0408 0.2885 -0.8740 -0.523 0.834 -0.178 82 51 31 0 0
-0.0340 0.2784 -0.9164 -0.352 0.935 -0.040 67 39 24 0 0
-0.0356 0.2801 -0.9252 -0.448 0.881 -0.154 68 39 19 0 0
-0.0675 0.3193 -0.9751 -0.783 0.612 -0.110 107 85 72 0 0
-0.0808 0.3352 -1.0096 -0.501 0.816 0.286 87 41 7 0 0
-0.0852 0.3401 -1.0288 -0.695 0.704 0.146 94 54 20 0 0
-0.0853 0.3401 -1.0321 -0.485 0.851 0.201 93 52 20 0 0
-0.0890 0.3444 -1.0452 -0.687 0.683 0.249 89 54 26 0 0
-0.0894 0.3448 -1.0515 -0.414 0.877 0.243 91 57 30 0 0
-0.0929 0.3473 -1.1085 -0.629 0.777 0.024 88 48 17 0 0
-0.0927 0.3469 -1.1121 -0.748 0.585 0.313 91 53 26 0 0
0.0408 0.2214 0.0972 0.093 0.733 0.674 122 91 70 0 0
0.0107 0.2578 0.0360 -0.783 0.516 0.348 88 45 15 0 0
0.0094 0.2592 0.0303 -0.733 0.653 0.190 83 42 12 0 0
0.0075 0.2605 -0.0041 -0.790 0.604 0.107 85 44 14 0 0
0.0087 0.2587 -0.0128 -0.439 0.897 -0.054 86 45 14 0 0
0.0171 0.2466 -0.0568 -0.666 0.735 0.125 9 7 3 0 0
-0.0136 0.2842 -0.1034 -0.303 0.398 0.866 99 65 46 0 0
-0.0360 0.3114 -0.1464 -0.704 0.704 0.089 70 42 26 0 0
-0.0370 0.3123 -0.1576 -0.782 0.587 -0.210 69 50 36 0 0
-0.0099 0.2748 -0.2419 -0.316 0.936 0.157 63 39 30 0 0
-0.0093 0.2739 -0.2510 -0.482 0.873 -0.079 66 42 32 0 0
-0.0064 0.2698 -0.2637 -0.708 0.678 -0.196 64 40 30 0 0
-0.0062 0.2688 -0.2848 -0.360 0.914 -0.188 73 46 31 0 0
-0.0047 0.2635 -0.3861 -0.789 0.594 0.159 59 32 17 0 0
-0.0050 0.2638 -0.3891 -0.800 0.557 0.223 64 34 19 0 0
-0.0071 0.2664 -0.3914 -0.611 0.435 0.661 69 35 20 0 0
-0.0097 0.2696 -0.3935 -0.721 0.430 0.543 74 38 21 0 0
-0.0248 0.2886 -0.4033 -0.557 0.745 0.368 84 48 29 0 0
-0.0271 0.2913 -0.4086 -0.751 0.660 -0.030 106 83 69 0 0
-0.0260 0.2899 -0.4120 -0.643 0.764 -0.057 85 53 34 0 0
-0.0316 0.2962 -0.4343 -0.587 0.785 0.196 83 54 32 0 0
0.0191 0.2295 -0.4963 -0.568 0.822 0.030 67 36 18 0 0
0.0186 0.2299 -0.5025 -0.481 0.837 0.259 60 29 11 0 0
-0.0067 0.2541 -0.7504 -0.566 0.824 -0.043 65 33 12 0 0
-0.0414 0.2950 -0.8485 -0.680 0.504 0.533 80 39 9 0 0
-0.0407 0.2940 -0.8523 -0.543 0.825 0.159 85 48 21 0 0
-0.0409 0.2942 -0.8554 -0.565 0.825 -0.027 89 53 27 0 0
-0.0409 0.2941 -0.8587 -0.473 0.881 -0.026 86 52 26 0 0
-0.0381 0.2895 -0.8910 -0.582 0.705 0.405 64 38 23 0 0
-0.0389 0.2903 -0.8937 -0.640 0.748 0.174 63 37 22 0 0
-0.0363 0.2865 -0.9092 -0.624 0.779 -0.062 63 37 22 0 0
-0.0656 0.3218 -0.9747 -0.783 0.612 -0.110 101 79 66 0 0
-0.0783 0.3368 -1.0099 -0.501 0.816 0.286 88 42 8 0 0
-0.0781 0.3365 -1.0133 -0.514 0.798 0.313 89 43 10 0 0
-0.0863 0.3460 -1.0422 -0.687 0.683 0.249 88 52 24 0 0
-0.0868 0.3466 -1.0451 -0.687 0.683 0.249 88 53 25 0 0
-0.0867 0.3463 -1.0485 -0.667 0.714 0.214 89 54 26 0 0
-0.0877 0.3475 -1.0509 -0.768 0.580 0.271 91 57 30 0 0
-0.0907 0.3495 -1.1083 -0.730 0.662 0.170 88 48 17 0 0
0.0465 0.2189 0.0973 0.029 0.910 0.413 120 88 67 0 0
0.0295 0.2400 0.0792 -0.563 0.727 0.393 105 75 57 0 0
0.0291 0.2404 0.0763 -0.601 0.799 0.022 105 73 53 0 0
0.0277 0.2420 0.0734 -0.802 0.505 0.319 85 50 30 0 0
0.0135 0.2590 0.0388 -0.727 0.513 0.457 101 57 26 0 0
0.0105 0.2612 -0.0099 -0.711 0.700 0.067 85 44 14 0 0
-0.0161 0.2921 -0.1029 -0.641 0.485 0.595 98 65 45 0 0
-0.0180 0.2945 -0.1055 -0.389 0.443 0.807 102 67 46 0 0
-0.0217 0.2990 -0.1080 -0.639 0.767 0.057 115 81 61 0 0
-0.0348 0.3149 -0.1348 -0.444 0.874 0.199 71 34 11 0 0
-0.0356 0.3157 -0.1404 -0.469 0.809 0.353 68 33 12 0 0
-0.0365 0.3167 -0.1432 -0.436 0.864 0.252 67 35 16 0 0
-0.0370 0.3173 -0.1459 -0.312 0.937 0.158 68 43 26 0 0
-0.0346 0.3141 -0.1491 -0.777 0.620 -0.111 71 49 36 0 0
-0.0050 0.2746 -0.2068 -0.085 0.966 0.246 63 43 32 0 0
-0.0051 0.2746 -0.2098 -0.505 0.853 0.128 62 41 30 0 0
-0.0039 0.2711 -0.2698 -0.516 0.815 0.263 68 41 29 0 0
-0.0039 0.2710 -0.2728 -0.554 0.831 -0.041 67 41 28 0 0
-0.0038 0.2708 -0.2759 -0.497 0.846 -0.193 68 40 27 0 0
-0.0088 0.2758 -0.3168 -0.274 0.932 0.238 71 37 14 0 0
-0.0136 0.2817 -0.3244 -0.086 0.872 0.482 77 48 25 0 0
0.0038 0.2593 -0.3327 -0.273 0.797 -0.538 72 45 25 0 0
0.0208 0.2319 -0.5089 -0.702 0.708 0.071 67 36 18 0 0
0.0201 0.2300 -0.5931 -0.357 0.933 -0.052 80 45 19 0 0
0.0198 0.2299 -0.6126 -0.686 0.548 0.479 83 48 18 0 0
0.0188 0.2310 -0.6153 -0.686 0.548 0.479 84 48 19 0 0
0.0165 0.2339 -0.6174 -0.394 0.860 0.325 86 50 21 0 0
0.0046 0.2458 -0.7162 -0.472 0.871 0.134 70 35 13 0 0
-0.0117 0.2637 -0.8021 -0.040 0.976 -0.216 60 26 8 0 0
-0.0106 0.2622 -0.8062 0.038 0.998 0.048 61 27 7 0 0
-0.0113 0.2629 -0.8123 -0.138 0.984 0.113 60 25 8 0 0
-0.0319 0.2884 -0.8373 -0.743 0.631 0.225 60 26 9 0 0
-0.0367 0.2938 -0.8536 -0.429 0.898 -0.096 85 47 20 0 0
-0.0382 0.2956 -0.8591 -0.473 0.881 -0.026 85 49 23 0 0
-0.0383 0.2957 -0.8623 -0.504 0.863 0.044 84 49 26 0 0
-0.0353 0.2909 -0.8913 -0.478 0.838 0.264 65 39 24 0 0
-0.0359 0.2915 -0.8942 -0.403 0.890 0.211 64 38 23 0 0
-0.0757 0.3385 -1.0101 -0.363 0.888 0.280 90 44 10 0 0
-0.0857 0.3499 -1.0473 -0.613 0.689 0.387 89 54 27 0 0
0.0499 0.2193 0.0973 -0.171 0.597 0.784 119 85 63 0 0
0.0482 0.2215 0.0943 -0.499 0.783 0.371 110 79 58 0 0
0.0455 0.2248 0.0884 -0.075 0.915 -0.397 110 81 65 0 0
0.0419 0.2292 0.0853 -0.027 0.785 0.619 107 78 62 0 0
0.0384 0.2335 0.0823 -0.203 0.328 0.923 103 74 58 0 0
0.0338 0.2392 0.0763 -0.144 0.578 0.803 101 69 49 0 0
0.0305 0.2432 0.0734 -0.419 0.573 0.704 92 57 37 0 0
0.0112 0.2659 0.0159 -0.811 0.517 0.274 92 49 19 0 0
0.0110 0.2661 0.0130 -0.807 0.557 0.198 91 51 19 0 0
0.0106 0.2665 0.0101 -0.807 0.557 0.198 91 50 18 0 0
0.0100 0.2672 0.0073 -0.675 0.733 0.088 93 52 20 0 0
0.0118 0.2645 -0.0042 -0.730 0.670 0.133 91 50 20 0 0
0.0115 0.2647 -0.0071 -0.730 0.670 0.133 88 47 17 0 0
0.0106 0.2659 -0.0099 -0.851 0.521 0.073 89 48 18 0 0
0.0130 0.2627 -0.0129 -0.578 0.803 -0.145 88 47 17 0 0
0.0062 0.2694 -0.0732 -0.481 0.643 0.596 89 55 35 0 0
-0.0083 0.2869 -0.1007 -0.606 0.182 0.774 98 62 44 0 0
-0.0150 0.2953 -0.1057 -0.218 0.619 0.755 104 68 47 0 0
-0.0197 0.3011 -0.1080 -0.225 0.973 0.049 112 78 58 0 0
-0.0321 0.3160 -0.1378 -0.755 0.648 -0.096 69 33 11 0 0
-0.0329 0.3169 -0.1406 -0.665 0.675 0.319 68 33 12 0 0
-0.0051 0.2793 -0.2123 -0.895 0.435 0.096 63 42 31 0 0
-0.0009 0.2707 -0.3124 -0.814 0.522 -0.255 60 27 9 0 0
-0.0095 0.2813 -0.3250 -0.237 0.795 0.558 79 51 27 0 0
-0.0286 0.3021 -0.4307 -0.428 0.893 -0.142 79 45 23 0 0
0.0227 0.2352 -0.4894 -0.652 0.745 0.137 61 32 14 0 0
0.0235 0.2336 -0.5027 -0.707 0.677 0.207 71 42 24 0 0
0.0231 0.2341 -0.5089 -0.702 0.708 0.071 68 37 19 0 0
0.0234 0.2317 -0.5674 -0.066 0.977 -0.201 76 44 22 0 0
0.0231 0.2311 -0.5967 -0.424 0.902 -0.085 80 45 20 0 0
0.0206 0.2336 -0.6184 -0.724 0.614 0.314 88 53 23 0 0
0.0207 0.2335 -0.6217 -0.691 0.723 0.000 90 53 24 0 0
0.0217 0.2321 -0.6255 -0.733 0.680 0.016 87 50 21 0 0
0.0216 0.2320 -0.6288 -0.733 0.680 0.016 85 48 19 0 0
0.0230 0.2300 -0.6362 -0.365 0.930 0.042 85 47 18 0 0
0.0229 0.2301 -0.6394 -0.365 0.930 0.042 84 46 17 0 0
0.0002 0.2556 -0.7418 -0.349 0.936 0.041 62 29 11 0 0
-0.0043 0.2606 -0.7654 -0.303 0.952 0.035 59 28 8 0 0
-0.0045 0.2606 -0.7687 -0.303 0.952 0.035 58 26 8 0 0
-0.0068 0.2634 -0.7771 -0.532 0.786 0.315 59 26 9 0 0
-0.0068 0.2623 -0.8105 -0.814 0.528 0.241 61 26 7 0 0
-0.0358 0.2979 -0.8491 -0.357 0.887 0.294 84 41 12 0 0
-0.0361 0.2982 -0.8522 -0.500 0.840 0.211 85 46 19 0 0
-0.0364 0.2984 -0.8553 -0.586 0.809 -0.033 85 48 22 0 0
-0.0368 0.2958 -0.9520 -0.715 0.700 0.008 72 38 17 0 0
-0.0621 0.3270 -0.9803 -0.417 0.865 0.278 98 76 63 0 0
-0.0627 0.3277 -0.9831 -0.566 0.801 0.193 97 75 63 0 0
-0.0637 0.3286 -0.9923 -0.381 0.673 0.634 102 78 63 0 0
-0.0667 0.3325 -0.9928 -0.474 0.809 0.347 98 71 50 0 0
-0.0819 0.3502 -1.0420 -0.615 0.664 0.425 91 55 26 0 0
-0.0836 0.3522 -1.0470 -0.684 0.638 0.353 92 57 29 0 0
-0.0855 0.3543 -1.0552 -0.536 0.779 0.326 90 59 31 0 0
-0.0837 0.3503 -1.1074 -0.631 0.650 0.425 94 50 16 0 0
-0.0856 0.3527 -1.1088 -0.603 0.789 0.117 94 55 23 0 0
-0.0905 0.3584 -1.1273 -0.796 0.605 0.014 89 60 35 0 0
0.0556 0.2169 0.0945 -0.752 0.640 0.162 109 77 56 0 0
0.0141 0.2658 -0.0187 -0.811 0.578 0.087 84 43 14 0 0
-0.0118 0.2959 -0.1030 -0.814 0.190 0.550 102 65 43 0 0
-0.0126 0.2969 -0.1058 -0.284 0.622 0.729 103 66 45 0 0
-0.0298 0.3177 -0.1379 -0.513 0.857 0.050 72 36 13 0 0
-0.0268 0.3133 -0.1526 -0.642 0.683 0.348 72 51 40 0 0
-0.0029 0.2813 -0.2124 -0.658 0.719 0.224 64 44 33 0 0
0.0018 0.2734 -0.2732 -0.447 0.879 -0.169 70 44 31 0 0
-0.0030 0.2781 -0.3172 -0.757 0.607 0.241 70 36 14 0 0
0.0179 0.2505 -0.3512 -0.155 0.959 0.238 59 36 19 0 0
0.0051 0.2655 -0.3903 -0.059 0.934 0.352 58 28 14 0 0
-0.0074 0.2811 -0.3982 -0.598 0.143 0.789 72 35 17 0 0
-0.0216 0.2982 -0.4235 -0.712 0.700 0.060 77 36 14 0 0
0.0215 0.2406 -0.5200 -0.783 0.612 0.111 65 34 16 0 0
0.0217 0.2403 -0.5234 -0.792 0.593 0.147 69 38 19 0 0
0.0238 0.2369 -0.5469 -0.416 0.905 -0.088 75 43 22 0 0
0.0237 0.2363 -0.5729 -0.454 0.837 0.305 73 41 20 0 0
0.0202 0.2403 -0.5842 -0.686 0.718 0.119 76 43 18 0 0
0.0259 0.2329 -0.5904 -0.410 0.908 0.090 76 42 17 0 0
0.0255 0.2332 -0.5967 -0.518 0.836 0.179 77 43 18 0 0
0.0240 0.2342 -0.6255 -0.751 0.659 -0.032 91 54 25 0 0
0.0228 0.2352 -0.6413 -0.783 0.610 0.120 89 52 22 0 0
0.0222 0.2352 -0.6642 -0.644 0.703 0.303 79 39 14 0 0
0.0078 0.2516 -0.7219 -0.607 0.794 -0.005 67 32 11 0 0
0.0060 0.2539 -0.7241 -0.752 0.573 0.326 65 30 10 0 0
0.0086 0.2504 -0.7291 -0.533 0.818 -0.215 62 28 9 0 0
0.0093 0.2488 -0.7495 -0.463 0.817 0.343 64 32 11 0 0
-0.0022 0.2623 -0.7853 -0.278 0.955 -0.104 63 28 9 0 0
-0.0071 0.2676 -0.8120 -0.738 0.642 0.208 61 26 8 0 0
-0.0082 0.2689 -0.8145 -0.735 0.671 -0.093 60 24 8 0 0
-0.0233 0.2850 -0.9106 -0.706 0.707 0.042 61 35 22 0 0
-0.0328 0.2959 -0.9466 -0.534 0.845 -0.012 70 34 10 0 0
-0.0353 0.2991 -0.9479 -0.584 0.801 -0.133 71 33 11 0 0
-0.0351 0.2986 -0.9515 -0.584 0.801 -0.133 75 39 20 0 0
-0.0597 0.3286 -0.9904 -0.630 0.753 0.191 100 78 64 0 0
-0.0634 0.3332 -0.9938 -0.410 0.901 0.143 95 69 48 0 0
-0.0637 0.3335 -0.9968 -0.407 0.909 0.091 94 62 38 0 0
-0.0731 0.3448 -1.0148 -0.533 0.839 0.114 95 49 15 0 0
-0.0729 0.3444 -1.0184 -0.558 0.600 0.572 97 54 19 0 0
-0.0751 0.3468 -1.0296 -0.631 0.686 0.362 97 59 24 0 0
-0.0781 0.3505 -1.0301 -0.635 0.763 0.118 93 57 23 0 0
-0.0794 0.3519 -1.0422 -0.499 0.772 0.394 94 57 28 0 0
-0.0805 0.3527 -1.0579 -0.551 0.826 0.123 88 57 29 0 0
-0.0764 0.3465 -1.0921 -0.350 0.937 -0.016 35 16 5 0 0
-0.0831 0.3545 -1.1089 -0.667 0.710 0.227 92 54 19 0 0
0.0148 0.2702 -0.0014 -0.764 0.645 -0.030 93 52 21 0 0
0.0307 0.2484 -0.0574 -0.551 0.806 0.216 13 7 7 0 0
0.0078 0.2766 -0.0789 -0.737 0.675 -0.031 85 58 43 0 0
-0.0087 0.2966 -0.1060 -0.703 0.577 0.416 102 64 44 0 0
-0.0272 0.3189 -0.1380 -0.407 0.913 -0.018 76 40 17 0 0
-0.0269 0.3185 -0.1409 -0.472 0.878 0.072 75 40 20 0 0
0.0047 0.2745 -0.2734 -0.137 0.980 -0.144 71 45 32 0 0
0.0014 0.2772 -0.3179 -0.453 0.885 0.104 72 38 17 0 0
0.0088 0.2657 -0.3908 -0.687 0.713 -0.138 59 30 15 0 0
-0.0058 0.2838 -0.3980 -0.443 0.212 0.871 72 35 17 0 0
-0.0194 0.3004 -0.4174 -0.461 0.879 0.124 67 28 8 0 0
0.0230 0.2439 -0.5165 -0.654 0.702 0.281 66 34 19 0 0
0.0291 0.2352 -0.5484 -0.578 0.740 0.344 73 41 20 0 0
0.0325 0.2306 -0.5597 -0.456 0.830 0.321 71 36 16 0 0
0.0318 0.2314 -0.5627 -0.456 0.830 0.321 72 38 18 0 0
0.0265 0.2350 -0.6586 -0.608 0.788 0.091 87 48 19 0 0
0.0227 0.2394 -0.6730 -0.734 0.649 0.200 80 43 17 0 0
0.0225 0.2396 -0.6762 -0.655 0.594 0.466 83 46 21 0 0
0.0188 0.2431 -0.7140 -0.537 0.688 0.488 69 34 12 0 0
0.0170 0.2450 -0.7229 -0.753 0.645 -0.132 67 33 9 0 0
0.0008 0.2636 -0.7824 -0.278 0.955 -0.104 63 29 9 0 0
-0.0241 0.2934 -0.8345 -0.732 0.555 0.394 61 25 9 0 0
-0.0235 0.2893 -0.9423 -0.565 0.823 0.063 77 42 19 0 0
-0.0701 0.3461 -1.0088 -0.603 0.695 0.392 89 42 10 0 0
-0.0707 0.3465 -1.0183 -0.496 0.682 0.537 99 57 22 0 0
-0.0727 0.3487 -1.0297 -0.490 0.859 0.149 98 61 25 0 0
-0.0748 0.3506 -1.0511 -0.642 0.758 0.115 92 57 30 0 0
-0.0750 0.3508 -1.0542 -0.642 0.758 0.115 91 58 31 0 0
-0.0753 0.3511 -1.0573 -0.642 0.758 0.115 89 57 29 0 0
-0.0754 0.3504 -1.0807 -0.696 0.716 0.053 53 33 22 0 0
-0.0754 0.3501 -1.0909 -0.679 0.709 -0.191 37 17 6 0 0
-0.0747 0.3490 -1.0983 -0.533 0.844 -0.055 64 28 13 0 0
-0.0751 0.3494 -1.1013 -0.490 0.830 0.265 70 30 10 0 0
-0.0802 0.3558 -1.1028 -0.620 0.704 0.346 85 41 12 0 0
-0.0803 0.3559 -1.1060 -0.603 0.744 0.288 90 46 13 0 0
-0.0810 0.3566 -1.1088 -0.577 0.785 0.225 91 53 17 0 0
0.0158 0.2744 0.0271 -0.600 0.726 0.335 89 45 14 0 0
0.0170 0.2727 0.0214 -0.824 0.537 0.181 87 46 16 0 0
-0.0067 0.2987 -0.1061 -0.732 0.628 0.263 93 55 32 0 0
-0.0072 0.2992 -0.1089 -0.618 0.490 0.614 104 65 45 0 0
-0.0080 0.3002 -0.1117 -0.717 0.694 0.064 100 63 44 0 0
-0.0098 0.3023 -0.1143 -0.636 0.671 0.381 124 92 74 0 0
-0.0004 0.2875 -0.2121 -0.709 0.702 -0.066 66 46 35 0 0
0.0102 0.2729 -0.2532 -0.444 0.895 -0.038 65 41 29 0 0
0.0169 0.2635 -0.2882 -0.564 0.824 0.042 66 40 25 0 0
0.0144 0.2643 -0.3641 -0.613 0.782 0.115 41 25 18 0 0
0.0143 0.2644 -0.3672 -0.665 0.739 -0.113 52 33 25 0 0
0.0178 0.2597 -0.3714 -0.438 0.741 0.510 55 35 25 0 0
0.0188 0.2584 -0.3749 -0.254 0.967 -0.004 47 26 13 0 0
-0.0163 0.3015 -0.4116 -0.668 0.623 0.407 77 42 16 0 0
0.0318 0.2368 -0.5486 -0.645 0.729 0.229 71 39 18 0 0
-0.0100 0.2809 -0.8265 -0.448 0.703 0.552 62 27 8 0 0
-0.0225 0.2963 -0.8373 -0.220 0.776 0.591 66 30 11 0 0
-0.0241 0.2981 -0.8428 -0.198 0.725 0.659 75 33 9 0 0
-0.0292 0.3043 -0.8521 -0.445 0.892 0.077 85 46 16 0 0
-0.0216 0.2939 -0.8779 -0.747 0.620 -0.241 76 48 31 0 0
-0.0249 0.2980 -0.8787 -0.611 0.791 -0.028 70 42 28 0 0
-0.0253 0.2984 -0.8817 -0.387 0.868 0.311 71 43 31 0 0
-0.0326 0.3056 -0.9496 -0.568 0.736 -0.368 78 47 27 0 0
-0.0485 0.3246 -0.9762 -0.204 0.969 -0.137 102 80 69 0 0
-0.0676 0.3478 -1.0090 -0.455 0.855 0.249 89 42 12 0 0
-0.0678 0.3479 -1.0121 -0.509 0.861 -0.006 90 43 12 0 0
-0.0734 0.3534 -1.0635 -0.465 0.884 -0.050 84 55 30 0 0
-0.0726 0.3523 -1.0677 -0.689 0.724 -0.016 83 55 31 0 0
-0.0732 0.3528 -1.0738 -0.759 0.634 0.151 79 53 32 0 0
-0.0769 0.3565 -1.1071 -0.666 0.674 0.319 88 44 11 0 0
-0.0856 0.3670 -1.1184 -0.708 0.704 -0.048 95 61 38 0 0
-0.0855 0.3661 -1.1455 -0.432 0.889 -0.152 95 88 72 0 0
0.0563 0.2299 0.0766 0.205 0.697 0.687 97 65 44 0 0
0.0181 0.2763 0.0270 -0.600 0.726 0.335 88 44 13 0 0
0.0172 0.2773 0.0242 -0.715 0.681 0.157 88 46 16 0 0
0.0168 0.2776 0.0213 -0.624 0.732 0.273 81 39 10 0 0
0.0179 0.2761 0.0156 -0.740 0.666 0.094 78 37 10 0 0
0.0395 0.2470 -0.0519 0.089 0.954 -0.287 14 8 8 0 0
-0.0044 0.3004 -0.1061 -0.441 0.758 0.481 99 59 38 0 0
-0.0057 0.3020 -0.1088 -0.438 0.646 0.625 103 63 43 0 0
-0.0074 0.3040 -0.1144 -0.515 0.843 0.158 126 93 74 0 0
-0.0082 0.3049 -0.1172 -0.434 0.755 0.491 135 106 92 0 0
-0.0217 0.3213 -0.1354 -0.574 0.735 0.360 75 39 17 0 0
0.0104 0.2775 -0.2497 -0.732 0.608 -0.307 67 43 31 0 0
0.0112 0.2764 -0.2529 -0.449 0.879 -0.159 65 41 29 0 0
0.0108 0.2769 -0.2558 -0.232 0.942 -0.243 68 42 29 0 0
0.0053 0.2817 -0.3239 -0.527 0.743 0.412 81 49 26 0 0
0.0170 0.2659 -0.3642 -0.563 0.763 0.318 34 16 10 0 0
0.0171 0.2657 -0.3674 -0.565 0.824 -0.040 41 22 14 0 0
-0.0129 0.3017 -0.4182 -0.476 0.877 0.065 70 30 9 0 0
0.0351 0.2377 -0.5458 -0.487 0.827 0.281 70 38 21 0 0
0.0374 0.2325 -0.6256 -0.461 0.887 -0.031 99 66 35 0 0
0.0374 0.2323 -0.6322 -0.412 0.826 0.384 100 67 36 0 0
0.0357 0.2342 -0.6379 -0.384 0.888 0.252 100 67 34 0 0
0.0232 0.2479 -0.7038 -0.871 0.490 0.030 66 31 9 0 0
0.0223 0.2487 -0.7132 -0.908 0.417 0.038 69 34 12 0 0
0.0085 0.2645 -0.7643 -0.383 0.922 0.062 62 29 9 0 0
0.0074 0.2657 -0.7703 -0.561 0.825 0.073 60 28 9 0 0
-0.0249 0.3038 -0.8503 -0.312 0.918 0.244 84 42 15 0 0
-0.0240 0.3024 -0.8577 -0.715 0.680 0.164 86 46 20 0 0
-0.0243 0.3028 -0.8607 -0.715 0.680 0.164 85 48 23 0 0
-0.0652 0.3495 -1.0124 -0.509 0.861 -0.006 91 45 12 0 0
-0.0655 0.3498 -1.0154 -0.543 0.838 0.062 92 46 13 0 0
-0.0708 0.3549 -1.0638 -0.470 0.882 -0.043 84 55 30 0 0
-0.0704 0.3544 -1.0675 -0.689 0.724 -0.016 83 55 31 0 0
0.0705 0.2171 0.0828 0.389 0.912 0.132 97 66 48 0 0
0.0195 0.2790 0.0241 -0.515 0.855 0.063 83 38 9 0 0
0.0182 0.2805 0.0213 -0.583 0.802 0.133 76 34 6 0 0
0.0180 0.2808 0.0184 -0.583 0.802 0.133 70 30 4 0 0
0.0201 0.2772 -0.0102 -0.823 0.563 -0.082 80 38 14 0 0
0.0204 0.2768 -0.0159 -0.818 0.553 -0.159 75 36 14 0 0
-0.0059 0.3066 -0.1172 -0.644 0.593 0.484 136 104 91 0 0
-0.0069 0.3078 -0.1200 -0.644 0.593 0.484 119 88 71 0 0
-0.0102 0.3119 -0.1224 -0.472 0.416 0.777 112 75 49 0 0
-0.0192 0.3228 -0.1298 -0.640 0.761 0.109 77 35 11 0 0
-0.0198 0.3235 -0.1326 -0.522 0.671 0.526 74 37 13 0 0
-0.0191 0.3226 -0.1355 -0.453 0.797 0.399 73 38 16 0 0
0.0207 0.2684 -0.2820 -0.512 0.628 0.586 66 40 25 0 0
0.0079 0.2835 -0.3149 -0.341 0.772 0.537 69 35 12 0 0
0.0204 0.2662 -0.3708 -0.206 0.905 -0.371 66 44 34 0 0
0.0243 0.2612 -0.3752 -0.765 0.604 0.222 51 28 15 0 0
-0.0100 0.3029 -0.4184 -0.415 0.899 0.140 68 29 7 0 0
0.0339 0.2408 -0.6621 -0.128 0.836 0.534 83 47 21 0 0
0.0117 0.2651 -0.7750 -0.602 0.765 -0.227 59 28 10 0 0
0.0123 0.2644 -0.7786 -0.886 0.394 -0.243 59 28 9 0 0
0.0130 0.2633 -0.7858 -0.857 0.389 -0.338 57 26 9 0 0
-0.0166 0.2968 -0.9016 -0.011 0.997 0.077 63 35 21 0 0
-0.0112 0.2890 -0.9364 -0.730 0.681 -0.059 75 43 23 0 0
-0.0113 0.2891 -0.9397 -0.759 0.651 0.015 77 45 22 0 0
-0.0388 0.3225 -0.9705 0.091 0.903 0.421 93 71 59 0 0
-0.0400 0.3240 -0.9728 0.125 0.976 0.177 93 71 59 0 0
-0.0673 0.3541 -1.1054 -0.598 0.780 0.184 80 37 12 0 0
0.0196 0.2834 0.0184 -0.617 0.677 0.402 75 35 8 0 0
0.0199 0.2828 0.0155 -0.622 0.779 0.075 73 33 8 0 0
0.0217 0.2798 -0.0131 -0.940 0.260 -0.221 67 27 6 0 0
0.0335 0.2634 -0.0718 -0.514 0.679 0.524 38 16 10 0 0
0.0089 0.2932 -0.1015 -0.375 0.334 0.865 79 42 24 0 0
-0.0050 0.3100 -0.1200 -0.643 0.561 0.522 119 87 71 0 0
-0.0166 0.3240 -0.1356 -0.433 0.809 0.397 73 36 14 0 0
0.0220 0.2716 -0.2848 -0.075 0.892 0.446 66 39 24 0 0
0.0201 0.2739 -0.2873 -0.154 0.987 -0.045 63 36 22 0 0
0.0099 0.2858 -0.3148 -0.075 0.818 0.571 72 38 14 0 0
0.0240 0.2665 -0.3713 -0.685 0.724 -0.080 58 36 25 0 0
0.0228 0.2680 -0.3740 -0.873 0.442 0.207 59 34 23 0 0
0.0279 0.2612 -0.3882 -0.711 0.454 0.536 62 35 23 0 0
-0.0075 0.3044 -0.4216 -0.367 0.875 0.317 67 26 8 0 0
-0.0082 0.3051 -0.4244 -0.367 0.875 0.317 63 23 3 0 0
-0.0092 0.3063 -0.4301 -0.641 0.662 0.388 75 38 16 0 0
0.0173 0.2638 -0.7570 -0.366 0.874 0.318 69 36 16 0 0
-0.0089 0.2945 -0.8189 -0.591 0.794 -0.142 63 28 10 0 0
-0.0156 0.3010 -0.8838 -0.223 0.911 0.348 71 43 31 0 0
-0.0126 0.2966 -0.9097 -0.206 0.977 -0.059 65 36 22 0 0
-0.0130 0.2962 -0.9364 -0.464 0.886 0.019 75 41 18 0 0
-0.0165 0.3004 -0.9436 -0.782 0.574 -0.245 69 33 9 0 0
-0.0118 0.2944 -0.9509 -0.856 0.450 0.253 71 33 9 0 0
-0.0664 0.3597 -1.0435 -0.545 0.826 0.143 96 62 35 0 0
-0.0649 0.3560 -1.1055 -0.598 0.780 0.184 79 37 11 0 0
-0.0648 0.3558 -1.1090 -0.546 0.782 0.300 82 41 11 0 0
0.0233 0.2832 0.0126 -0.700 0.707 -0.097 77 37 10 0 0
0.0243 0.2817 0.0040 -0.606 0.724 0.328 81 41 16 0 0
0.0212 0.2852 -0.0102 -0.993 0.121 -0.010 79 43 16 0 0
0.0212 0.2851 -0.0130 -0.993 0.121 -0.010 70 34 13 0 0
0.0242 0.2809 -0.0304 -0.787 0.431 0.441 58 30 17 0 0
0.0243 0.2806 -0.0333 -0.704 0.684 0.192 51 25 14 0 0
0.0516 0.2458 -0.0643 -0.142 0.453 0.880 17 11 10 0 0
0.0358 0.2652 -0.0719 -0.514 0.679 0.524 39 17 11 0 0
0.0323 0.2691 -0.0921 -0.324 0.922 0.211 65 35 19 0 0
0.0111 0.2951 -0.1015 -0.046 0.629 0.776 74 38 19 0 0
-0.0132 0.3246 -0.1273 -0.739 0.443 0.507 86 44 16 0 0
-0.0146 0.3259 -0.1414 -0.644 0.554 0.527 71 40 24 0 0
0.0146 0.2847 -0.3156 -0.281 0.948 0.148 78 43 20 0 0
0.0152 0.2836 -0.3249 -0.491 0.800 0.345 81 50 28 0 0
0.0265 0.2682 -0.3745 -0.225 0.947 0.228 52 28 16 0 0
0.0499 0.2334 -0.5757 0.044 0.991 0.126 76 44 21 0 0
0.0458 0.2365 -0.6429 -0.273 0.955 0.119 93 56 29 0 0
0.0455 0.2368 -0.6460 -0.273 0.955 0.119 93 56 29 0 0
0.0442 0.2372 -0.6887 -0.183 0.981 -0.069 74 38 16 0 0
0.0449 0.2363 -0.6924 -0.362 0.846 0.392 73 37 15 0 0
0.0452 0.2358 -0.6959 -0.480 0.862 -0.164 72 36 14 0 0
0.0460 0.2346 -0.6998 -0.442 0.771 -0.459 71 35 13 0 0
0.0481 0.2319 -0.7044 -0.350 0.776 -0.525 71 35 13 0 0
0.0477 0.2324 -0.7075 -0.349 0.886 -0.305 71 35 13 0 0
0.0458 0.2347 -0.7097 0.016 0.982 0.188 70 35 13 0 0
0.0196 0.2658 -0.7570 -0.472 0.845 0.251 69 36 17 0 0
-0.0064 0.2964 -0.8190 -0.591 0.794 -0.142 65 29 12 0 0
-0.0171 0.3086 -0.8575 -0.410 0.881 -0.238 84 48 22 0 0
-0.0151 0.3057 -0.8724 -0.331 0.940 -0.080 78 49 34 0 0
-0.0264 0.3171 -0.9637 -0.540 0.541 0.645 90 70 59 0 0
-0.0295 0.3207 -0.9711 -0.829 0.217 0.516 89 67 56 0 0
-0.0320 0.3237 -0.9757 -0.840 0.536 0.086 90 68 56 0 0
-0.0322 0.3239 -0.9788 -0.742 0.659 -0.120 94 72 59 0 0
-0.0336 0.3255 -0.9810 -0.413 0.878 -0.243 94 72 59 0 0
-0.0482 0.3429 -1.0049 -0.719 0.580 0.382 82 37 6 0 0
-0.0641 0.3614 -1.0502 -0.522 0.849 -0.085 92 60 36 0 0
-0.0639 0.3611 -1.0537 -0.522 0.849 -0.085 93 61 38 0 0
-0.0688 0.3647 -1.1431 -0.276 0.950 0.145 79 53 33 0 0
0.0743 0.2263 0.0708 0.148 0.896 0.418 96 65 47 0 0
0.0226 0.2882 -0.0045 -0.742 0.659 0.123 84 45 20 0 0
0.0224 0.2884 -0.0073 -0.765 0.627 0.149 88 53 26 0 0
0.0221 0.2887 -0.0102 -0.765 0.627 0.149 86 52 24 0 0
0.0214 0.2895 -0.0130 -0.872 0.456 0.180 72 39 17 0 0
0.0207 0.2902 -0.0159 -0.904 0.384 0.187 65 30 12 0 0
0.0393 0.2656 -0.0720 -0.368 0.572 0.733 44 25 18 0 0
0.0145 0.2955 -0.1017 -0.042 0.597 0.801 76 40 22 0 0
0.0111 0.2997 -0.1042 -0.210 0.451 0.867 83 45 24 0 0
-0.0022 0.3073 -0.4189 -0.567 0.749 0.344 65 27 8 0 0
0.0545 0.2326 -0.5800 -0.271 0.960 0.073 80 49 26 0 0
0.0495 0.2355 -0.6970 -0.012 0.943 0.332 73 38 16 0 0
0.0499 0.2346 -0.7107 0.028 0.995 -0.092 70 35 13 0 0
0.0151 0.2754 -0.7892 -0.757 0.610 -0.234 57 26 8 0 0
0.0116 0.2794 -0.8067 -0.022 0.762 0.647 61 26 8 0 0
-0.0123 0.3071 -0.8727 -0.630 0.764 -0.141 81 52 35 0 0
-0.0085 0.3002 -0.9497 -0.907 0.306 0.291 69 33 11 0 0
-0.0240 0.3190 -0.9637 -0.457 0.483 0.747 87 67 56 0 0
-0.0255 0.3208 -0.9658 -0.457 0.483 0.747 94 74 63 0 0
-0.0270 0.3226 -0.9678 -0.457 0.483 0.747 98 78 67 0 0
-0.0287 0.3247 -0.9697 -0.850 0.212 0.481 95 75 64 0 0
-0.0299 0.3260 -0.9754 -0.814 0.576 0.076 88 67 56 0 0
-0.0302 0.3262 -0.9786 -0.742 0.659 -0.120 90 68 55 0 0
-0.0302 0.3261 -0.9853 -0.398 0.902 0.167 93 71 58 0 0
-0.0574 0.3585 -1.0310 -0.463 0.854 0.237 94 51 18 0 0
-0.0578 0.3589 -1.0340 -0.443 0.836 0.324 96 56 24 0 0
-0.0612 0.3627 -1.0507 -0.394 0.919 0.027 95 63 38 0 0
-0.0655 0.3655 -1.1407 -0.512 0.856 0.071 86 59 37 0 0
0.0732 0.2322 0.0648 0.422 0.907 -0.001 92 61 43 0 0
0.0703 0.2325 -0.0565 -0.105 0.990 -0.090 27 19 17 0 0
0.0415 0.2598 -0.3562 -0.171 0.976 0.135 62 39 25 0 0
0.0362 0.2656 -0.3825 -0.521 0.617 -0.590 58 32 19 0 0
0.0351 0.2668 -0.3884 -0.396 0.503 0.768 68 42 29 0 0
0.0595 0.2315 -0.5748 0.194 0.941 0.278 87 57 36 0 0
0.0589 0.2322 -0.5777 0.108 0.968 0.227 88 58 36 0 0
0.0587 0.2323 -0.5810 -0.030 0.944 0.329 89 59 36 0 0
0.0557 0.2334 -0.6758 -0.612 0.786 0.085 77 42 20 0 0
0.0533 0.2355 -0.7080 -0.485 0.826 -0.286 71 36 14 0 0
0.0183 0.2760 -0.8064 -0.268 0.782 0.563 60 26 8 0 0
0.0162 0.2785 -0.8083 -0.264 0.839 0.475 61 25 9 0 0
-0.0102 0.3100 -0.8493 -0.678 0.703 0.215 88 48 22 0 0
-0.0106 0.3104 -0.8523 -0.794 0.607 0.014 89 52 25 0 0
-0.0103 0.3097 -0.8658 -0.582 0.741 -0.335 86 57 33 0 0
-0.0116 0.3111 -0.8748 -0.318 0.904 -0.286 74 46 29 0 0
-0.0274 0.3277 -0.9756 -0.780 0.623 0.056 91 72 59 0 0
-0.0280 0.3284 -0.9784 -0.755 0.655 0.008 94 72 59 0 0
-0.0423 0.3457 -0.9926 -0.266 0.914 0.306 90 60 46 0 0
-0.0425 0.3459 -0.9957 -0.249 0.968 -0.020 84 49 30 0 0
-0.0554 0.3610 -1.0241 -0.695 0.650 0.306 91 45 11 0 0
-0.0561 0.3614 -1.0401 -0.514 0.826 0.231 102 69 39 0 0
-0.0640 0.3686 -1.1364 -0.638 0.766 -0.082 85 58 34 0 0
-0.0633 0.3675 -1.1406 -0.490 0.861 0.134 84 58 36 0 0
-0.0630 0.3672 -1.1442 -0.371 0.892 0.257 74 50 33 0 0
-0.0663 0.3710 -1.1510 -0.149 0.974 0.170 135 126 119 0 0
-0.0638 0.3676 -1.1605 -0.184 0.074 0.980 175 173 171 0 0
0.0401 0.2766 0.0238 0.267 0.732 0.627 114 81 60 0 0
0.0360 0.2816 0.0209 0.325 0.946 0.008 100 63 39 0 0
0.0359 0.2817 0.0181 0.325 0.946 0.008 90 50 23 0 0
0.0238 0.2962 0.0040 0.126 0.981 -0.149 80 41 15 0 0
0.0436 0.2695 -0.0809 -0.055 0.947 0.317 71 47 34 0 0
0.0448 0.2605 -0.3565 -0.171 0.976 0.135 66 43 29 0 0
0.0443 0.2611 -0.3595 -0.390 0.753 0.530 66 42 34 0 0
0.0443 0.2610 -0.3626 -0.289 0.918 0.271 46 26 21 0 0
0.0422 0.2635 -0.3650 -0.775 0.484 0.406 49 30 25 0 0
0.0411 0.2647 -0.3678 -0.686 0.413 0.599 60 41 32 0 0
0.0392 0.2670 -0.3734 -0.684 0.450 0.574 62 40 28 0 0
0.0388 0.2674 -0.3764 -0.800 0.563 0.208 59 34 23 0 0
0.0365 0.2698 -0.3881 -0.527 0.106 0.844 65 38 28 0 0
0.0654 0.2277 -0.6329 -0.035 0.944 -0.328 98 66 41 0 0
0.0581 0.2355 -0.6758 -0.633 0.773 -0.043 77 42 20 0 0
0.0548 0.2388 -0.7041 -0.143 0.986 0.087 71 39 16 0 0
0.0547 0.2389 -0.7073 -0.214 0.977 0.013 70 38 16 0 0
0.0532 0.2405 -0.7132 -0.884 0.416 0.211 71 39 18 0 0
0.0513 0.2428 -0.7154 -0.369 0.585 0.722 69 37 16 0 0
0.0497 0.2447 -0.7178 -0.369 0.585 0.722 69 35 15 0 0
0.0470 0.2479 -0.7229 -0.390 0.875 0.288 71 38 18 0 0
0.0486 0.2458 -0.7273 -0.312 0.880 -0.359 72 39 20 0 0
-0.0098 0.3145 -0.8478 -0.302 0.948 0.102 86 48 21 0 0
-0.0087 0.3129 -0.8552 -0.548 0.836 0.033 89 55 28 0 0
-0.0078 0.3114 -0.8692 -0.614 0.788 -0.045 86 56 33 0 0
-0.0075 0.3110 -0.8728 -0.630 0.764 -0.141 83 52 33 0 0
-0.0022 0.3024 -0.9476 -0.258 0.958 0.125 66 29 11 0 0
-0.0034 0.3039 -0.9499 -0.199 0.874 0.444 68 33 11 0 0
-0.0238 0.3282 -0.9766 -0.322 0.943 -0.086 93 71 60 0 0
-0.0255 0.3301 -0.9819 -0.517 0.855 -0.044 95 72 61 0 0
-0.0505 0.3600 -1.0165 -0.587 0.805 -0.080 88 42 9 0 0
-0.0527 0.3610 -1.0780 -0.297 0.954 0.031 69 43 30 0 0
-0.0524 0.3600 -1.1019 -0.628 0.680 0.379 66 30 12 0 0
-0.0620 0.3709 -1.1361 -0.619 0.761 -0.197 86 58 35 0 0
-0.0606 0.3691 -1.1409 -0.490 0.861 0.134 84 57 38 0 0
-0.0572 0.3642 -1.1683 -0.117 0.095 0.989 186 185 181 0 0
0.0385 0.2822 -0.0136 -0.401 0.710 0.579 67 34 18 0 0
0.0480 0.2685 -0.0871 -0.140 0.947 -0.288 70 44 29 0 0
0.0477 0.2689 -0.0900 -0.320 0.908 -0.270 67 40 26 0 0
0.0481 0.2683 -0.0930 -0.228 0.723 0.652 76 52 37 0 0
0.0192 0.3016 -0.1715 -0.498 0.847 0.187 66 46 37 0 0
0.0158 0.3057 -0.1739 -0.110 0.890 0.443 66 46 37 0 0
0.0162 0.3052 -0.1769 0.313 0.944 0.108 66 46 37 0 0
0.0452 0.2670 -0.2758 -0.557 0.744 -0.370 73 47 32 0 0
0.0457 0.2663 -0.2790 -0.549 0.705 -0.450 72 46 31 0 0
0.0492 0.2601 -0.3541 -0.208 0.940 0.270 66 43 29 0 0
0.0501 0.2588 -0.3575 -0.685 0.456 0.568 68 45 31 0 0
0.0451 0.2647 -0.3653 -0.629 0.503 0.593 49 30 26 0 0
0.0451 0.2647 -0.3684 -0.438 0.864 0.250 65 47 38 0 0
0.0445 0.2653 -0.3713 -0.438 0.864 0.250 64 45 34 0 0
0.0409 0.2695 -0.3826 -0.787 0.604 0.125 61 36 24 0 0
0.0393 0.2713 -0.3852 -0.877 0.436 0.201 68 43 32 0 0
0.0718 0.2265 -0.5718 0.409 0.912 0.042 93 66 49 0 0
0.0618 0.2361 -0.6731 -0.224 0.875 0.429 78 46 23 0 0
0.0605 0.2376 -0.6758 -0.557 0.827 -0.075 75 43 22 0 0
0.0606 0.2371 -0.6926 -0.282 0.959 0.001 74 42 21 0 0
0.0605 0.2371 -0.6959 -0.155 0.866 0.476 74 42 20 0 0
0.0171 0.2868 -0.8291 -0.367 0.894 0.258 61 29 11 0 0
-0.0054 0.3133 -0.8693 -0.614 0.788 -0.045 86 56 33 0 0
-0.0051 0.3129 -0.8728 -0.630 0.764 -0.141 82 51 32 0 0
-0.0489 0.3609 -1.0895 -0.403 0.885 -0.232 37 17 10 0 0
-0.0573 0.3708 -1.1014 -0.777 0.571 0.265 77 37 12 0 0
-0.0599 0.3732 -1.1358 -0.471 0.865 -0.173 87 60 38 0 0
-0.0580 0.3706 -1.1412 -0.435 0.870 0.232 84 58 39 0 0
-0.0588 0.3715 -1.1472 -0.392 0.890 0.234 80 62 49 0 0
0.0417 0.2827 -0.0166 -0.591 0.729 0.345 65 35 22 0 0
0.0410 0.2835 -0.0194 -0.591 0.729 0.345 66 38 25 0 0
0.0499 0.2708 -0.0930 -0.252 0.951 0.179 66 43 29 0 0
0.0500 0.2706 -0.0959 -0.031 0.892 0.452 59 34 21 0 0
0.0199 0.3055 -0.1713 -0.269 0.933 -0.238 67 47 38 0 0
0.0187 0.3069 -0.1740 -0.010 0.993 0.120 67 47 38 0 0
0.0275 0.2955 -0.1992 -0.331 0.942 -0.059 66 48 38 0 0
0.0496 0.2669 -0.2549 -0.004 1.000 -0.017 68 44 32 0 0
0.0488 0.2678 -0.2578 -0.477 0.661 0.579 71 45 32 0 0
0.0474 0.2695 -0.2605 -0.409 0.842 0.351 71 45 32 0 0
0.0473 0.2695 -0.2636 -0.642 0.617 0.455 73 47 34 0 0
0.0491 0.2672 -0.2670 -0.900 0.353 -0.254 74 48 34 0 0
0.0559 0.2582 -0.2933 -0.615 0.750 -0.244 70 42 28 0 0
0.0516 0.2617 -0.3635 -0.231 0.624 0.746 40 23 18 0 0
0.0461 0.2679 -0.3836 0.026 0.879 0.476 61 38 27 0 0
0.0208 0.2983 -0.4027 -0.066 0.750 0.658 88 56 42 0 0
0.0763 0.2241 -0.6462 0.473 0.877 0.082 90 60 40 0 0
0.0641 0.2379 -0.6865 -0.122 0.992 -0.009 75 45 25 0 0
0.0641 0.2379 -0.6899 -0.122 0.992 -0.009 76 46 25 0 0
0.0628 0.2394 -0.6925 -0.007 0.980 0.197 74 44 23 0 0
0.0582 0.2444 -0.7133 -0.568 0.638 0.520 72 44 23 0 0
0.0557 0.2474 -0.7152 -0.509 0.468 0.723 72 44 23 0 0
0.0084 0.3005 -0.9015 -0.271 0.923 0.274 67 38 24 0 0
-0.0305 0.3458 -0.9869 -0.796 0.603 0.051 91 67 55 0 0
-0.0474 0.3651 -1.0384 -0.547 0.789 0.280 101 67 39 0 0
-0.0464 0.3628 -1.0796 -0.649 0.739 0.182 66 41 28 0 0
-0.0568 0.3741 -1.1367 -0.392 0.915 -0.090 88 61 39 0 0
-0.0565 0.3735 -1.1438 -0.392 0.915 -0.090 69 49 34 0 0
-0.0563 0.3732 -1.1473 -0.336 0.928 -0.161 84 68 56 0 0
0.0792 0.2433 0.0469 -0.314 0.188 0.931 127 100 92 0 0
0.0543 0.2699 -0.0992 0.373 0.922 -0.102 67 38 27 0 0
0.0227 0.3069 -0.1627 -0.695 0.645 0.318 69 49 38 0 0
0.0229 0.3065 -0.1656 -0.744 0.615 0.261 67 47 37 0 0
0.0223 0.3072 -0.1685 -0.603 0.798 0.025 68 48 38 0 0
0.0229 0.3064 -0.1715 -0.199 0.899 -0.390 68 48 40 0 0
0.0218 0.3076 -0.1743 -0.182 0.975 0.125 68 48 40 0 0
0.0217 0.3076 -0.1772 -0.548 0.534 0.644 68 49 41 0 0
0.0220 0.3072 -0.1801 -0.264 0.949 0.173 69 51 40 0 0
0.0283 0.2991 -0.1960 0.002 0.634 0.773 67 49 39 0 0
0.0512 0.2698 -0.2518 0.025 0.985 0.171 67 43 32 0 0
0.0502 0.2710 -0.2546 -0.141 0.915 0.378 68 44 32 0 0
0.0509 0.2700 -0.2578 -0.368 0.668 0.647 70 45 33 0 0
0.0497 0.2712 -0.2697 -0.044 0.978 -0.205 77 50 35 0 0
0.0528 0.2669 -0.2889 0.181 0.925 0.334 75 49 34 0 0
0.0584 0.2599 -0.2934 -0.419 0.887 -0.194 75 51 35 0 0
0.0552 0.2637 -0.2988 0.020 0.849 0.528 79 56 35 0 0
0.0502 0.2676 -0.3842 0.004 0.889 0.458 63 41 30 0 0
0.0491 0.2689 -0.3870 0.187 0.864 0.467 59 36 27 0 0
0.0962 0.2080 -0.5243 0.557 0.830 -0.025 150 147 142 0 0
0.0583 0.2491 -0.7221 -0.521 0.472 0.711 69 42 22 0 0
0.0549 0.2532 -0.7234 -0.700 0.652 0.291 68 41 22 0 0
0.0547 0.2534 -0.7266 -0.806 0.275 -0.525 70 43 24 0 0
0.0565 0.2511 -0.7311 -0.746 0.218 -0.630 71 44 27 0 0
-0.0164 0.3338 -0.9769 -0.612 0.782 0.123 90 67 56 0 0
-0.0170 0.3344 -0.9797 -0.580 0.814 0.022 93 70 58 0 0
-0.0258 0.3450 -0.9822 -0.406 0.879 0.251 94 70 58 0 0
-0.0301 0.3498 -0.9985 -0.542 0.780 0.313 80 43 20 0 0
-0.0300 0.3497 -1.0019 -0.572 0.767 0.291 80 37 8 0 0
-0.0535 0.3747 -1.1444 -0.392 0.915 -0.090 70 51 36 0 0
0.0819 0.2447 0.0468 -0.126 0.349 0.928 129 105 94 0 0
0.0685 0.2606 0.0321 -0.270 0.963 -0.003 104 70 48 0 0
0.0665 0.2630 0.0292 -0.403 0.687 -0.605 109 77 54 0 0
0.0576 0.2707 -0.0934 0.040 0.999 0.037 71 44 32 0 0
0.0590 0.2690 -0.0965 0.066 0.947 0.314 61 33 21 0 0
0.0583 0.2697 -0.0994 0.262 0.919 0.294 68 39 26 0 0
0.0493 0.2806 -0.1014 0.134 0.425 0.896 80 48 31 0 0
0.0242 0.3094 -0.1714 -0.366 0.921 -0.129 70 51 44 0 0
0.0297 0.3024 -0.1841 -0.047 0.959 0.279 71 53 43 0 0
0.0320 0.2995 -0.1874 -0.843 0.518 0.148 71 53 43 0 0
0.0311 0.3006 -0.1902 -0.964 0.259 0.056 71 53 43 0 0
0.0304 0.3013 -0.1931 -0.897 0.319 0.307 70 52 42 0 0
0.0325 0.2986 -0.1964 -0.383 0.314 0.869 69 51 41 0 0
0.0568 0.2678 -0.2495 -0.890 0.433 -0.142 70 47 34 0 0
0.0520 0.2736 -0.2515 -0.870 0.494 0.002 68 44 32 0 0
0.0605 0.2625 -0.2811 -0.590 0.459 0.665 76 49 32 0 0
0.0577 0.2656 -0.2896 -0.329 0.741 0.585 82 58 42 0 0
0.0631 0.2591 -0.2941 -0.038 0.994 -0.104 81 58 43 0 0
0.0591 0.2638 -0.2961 -0.377 0.571 0.730 82 59 43 0 0
0.0549 0.2687 -0.3073 0.093 0.987 0.134 79 57 43 0 0
0.0558 0.2674 -0.3107 0.183 0.975 0.127 78 55 40 0 0
0.0534 0.2685 -0.3846 0.135 0.984 0.114 64 42 31 0 0
0.1049 0.2016 -0.5539 0.624 0.781 0.041 183 184 182 0 0
0.1050 0.2012 -0.5673 0.664 0.747 0.026 181 182 180 0 0
0.0699 0.2402 -0.7141 -0.299 0.696 0.653 75 48 29 0 0
0.0643 0.2469 -0.7208 -0.252 0.644 0.723 76 49 30 0 0
0.0628 0.2486 -0.7233 -0.673 0.347 0.653 72 45 26 0 0
0.0609 0.2508 -0.7255 -0.663 0.502 0.556 72 45 26 0 0
0.0601 0.2508 -0.7689 -0.539 0.828 0.153 70 41 23 0 0
0.0549 0.2569 -0.7724 -0.511 0.272 0.815 70 42 24 0 0
0.0463 0.2674 -0.7736 -0.639 0.721 -0.269 74 45 27 0 0
0.0477 0.2656 -0.7778 -0.326 0.843 -0.427 72 42 24 0 0
0.0103 0.3084 -0.8825 0.249 0.968 -0.039 81 52 33 0 0
0.0142 0.3032 -0.9023 -0.460 0.842 -0.281 73 44 28 0 0
-0.0193 0.3419 -0.9825 -0.832 0.526 0.177 92 68 56 0 0
-0.0224 0.3457 -0.9831 -0.843 0.520 -0.136 94 70 58 0 0
-0.0334 0.3585 -1.0068 -0.271 0.741 0.615 81 36 5 0 0
-0.0347 0.3599 -1.0090 -0.275 0.852 0.446 82 37 6 0 0
-0.0472 0.3724 -1.1180 -0.781 0.624 0.010 105 71 43 0 0
-0.0479 0.3729 -1.1309 -0.507 0.861 0.036 101 70 42 0 0
-0.0500 0.3753 -1.1389 -0.516 0.842 0.158 90 61 40 0 0
-0.0502 0.3755 -1.1420 -0.518 0.838 0.169 77 53 37 0 0
0.0735 0.2594 0.0408 0.227 0.665 0.711 110 79 57 0 0
0.0686 0.2650 0.0292 0.397 0.905 -0.153 105 73 51 0 0
0.0685 0.2651 0.0263 0.438 0.896 0.067 102 71 51 0 0
0.0105 0.3312 -0.1457 -0.262 0.964 -0.052 70 45 31 0 0
0.0353 0.3002 -0.1818 -0.773 0.372 0.514 71 52 45 0 0
0.0338 0.3019 -0.1874 -0.711 0.591 0.382 72 53 45 0 0
0.0320 0.3041 -0.1901 -0.964 0.259 0.056 71 53 44 0 0
0.0330 0.3027 -0.1932 -0.826 0.508 -0.243 70 52 42 0 0
0.0346 0.3007 -0.1964 -0.497 0.321 0.806 70 52 42 0 0
0.0590 0.2701 -0.2404 -0.536 0.832 0.145 70 48 35 0 0
0.0628 0.2653 -0.2473 -0.946 0.248 -0.209 71 49 36 0 0
0.0598 0.2689 -0.2497 -0.841 0.513 -0.174 72 49 37 0 0
0.0571 0.2720 -0.2522 -0.409 0.823 -0.394 72 48 36 0 0
0.0546 0.2750 -0.2577 -0.162 0.979 -0.124 75 51 39 0 0
0.0562 0.2727 -0.2703 -0.020 0.946 -0.323 78 53 38 0 0
0.0625 0.2648 -0.2810 -0.445 0.678 0.585 80 55 40 0 0
0.0672 0.2588 -0.2946 -0.007 0.953 -0.304 81 56 41 0 0
0.0593 0.2680 -0.3080 0.150 0.988 0.044 77 54 38 0 0
0.0600 0.2671 -0.3112 -0.021 0.953 0.303 72 46 30 0 0
0.0571 0.2705 -0.3166 -0.203 0.978 0.040 83 51 30 0 0
0.0584 0.2673 -0.3855 0.205 0.913 0.351 64 42 31 0 0
0.0185 0.3149 -0.4149 -0.593 0.798 0.112 73 35 12 0 0
0.1068 0.2025 -0.6347 0.594 0.801 0.075 184 186 188 0 0
0.1063 0.2030 -0.6378 0.593 0.801 0.075 183 185 187 0 0
0.1056 0.2038 -0.6409 0.592 0.802 0.082 181 181 182 0 0
0.1048 0.2046 -0.6439 0.610 0.788 0.090 178 177 177 0 0
0.0686 0.2459 -0.7490 0.203 0.963 -0.175 72 45 28 0 0
0.0113 0.3120 -0.8882 -0.228 0.879 -0.420 79 50 33 0 0
0.0194 0.3009 -0.9418 -0.504 0.830 0.237 72 39 16 0 0
-0.0233 0.3516 -0.9804 -0.722 0.682 -0.111 91 67 55 0 0
-0.0217 0.3496 -0.9851 -0.260 0.861 0.436 93 69 57 0 0
-0.0306 0.3598 -1.0073 -0.271 0.741 0.615 82 39 7 0 0
-0.0335 0.3634 -1.0080 -0.485 0.781 0.393 84 39 8 0 0
-0.0363 0.3665 -1.0188 -0.609 0.754 0.248 89 44 11 0 0
-0.0384 0.3681 -1.0569 -0.653 0.753 -0.079 97 66 38 0 0
-0.0446 0.3741 -1.1182 -0.526 0.850 0.044 101 66 40 0 0
-0.0448 0.3742 -1.1215 -0.526 0.850 0.044 102 68 41 0 0
-0.0454 0.3748 -1.1242 -0.553 0.831 0.056 103 69 42 0 0
-0.0455 0.3750 -1.1275 -0.553 0.831 0.056 102 68 41 0 0
0.0738 0.2636 0.0378 -0.660 0.495 -0.565 102 70 47 0 0
0.0539 0.2868 0.0033 0.261 0.735 0.625 88 57 33 0 0
0.0523 0.2887 0.0004 0.283 0.836 0.471 87 56 34 0 0
0.0189 0.3255 -0.1467 -0.763 0.567 -0.310 74 50 35 0 0
0.0357 0.3042 -0.1874 -0.810 0.580 0.088 71 52 45 0 0
0.0354 0.3046 -0.1903 -0.633 0.680 -0.370 71 52 44 0 0
0.0397 0.2993 -0.1940 -0.290 0.574 -0.765 70 52 42 0 0
0.0419 0.2965 -0.1974 0.127 0.709 -0.693 70 52 42 0 0
0.0599 0.2735 -0.2493 -0.948 0.303 -0.099 75 53 40 0 0
0.0651 0.2664 -0.2811 -0.168 0.865 0.474 82 59 45 0 0
0.0653 0.2660 -0.2904 -0.284 0.945 0.162 81 54 40 0 0
0.0723 0.2573 -0.2984 0.260 0.912 -0.317 87 64 47 0 0
0.0649 0.2660 -0.3120 -0.076 0.779 0.623 73 45 29 0 0
0.0616 0.2698 -0.3142 -0.439 0.897 -0.045 76 45 27 0 0
0.0606 0.2710 -0.3170 -0.756 0.650 -0.081 85 54 33 0 0
0.1010 0.2213 -0.3538 -0.560 0.537 -0.631 83 65 52 0 0
0.0230 0.3137 -0.4311 -0.464 0.740 -0.487 93 63 38 0 0
0.1118 0.2009 -0.6565 0.596 0.794 0.119 188 189 191 0 0
0.0832 0.2344 -0.7054 0.574 0.755 0.316 80 57 43 0 0
0.0732 0.2458 -0.7334 0.017 0.948 0.317 72 45 26 0 0
0.0452 0.2783 -0.7898 0.132 0.991 -0.029 70 42 28 0 0
0.0438 0.2799 -0.7923 0.087 0.996 0.036 73 45 31 0 0
0.0163 0.3119 -0.8433 -0.459 0.860 0.222 79 43 21 0 0
-0.0212 0.3539 -0.9802 -0.722 0.682 -0.111 91 67 55 0 0
-0.0210 0.3535 -0.9837 -0.748 0.659 -0.074 94 70 58 0 0
-0.0363 0.3704 -1.0534 -0.624 0.780 -0.044 99 68 40 0 0
-0.0302 0.3621 -1.0895 -0.074 0.958 0.278 46 23 10 0 0
0.0816 0.2588 0.0349 -0.007 0.984 -0.180 99 66 45 0 0
0.0375 0.3067 -0.1844 -0.828 0.451 -0.332 73 54 47 0 0
0.0354 0.3093 -0.1870 -0.368 0.904 -0.217 72 53 46 0 0
0.0622 0.2755 -0.2463 -0.452 0.872 -0.187 76 54 42 0 0
0.0624 0.2752 -0.2494 -0.510 0.848 -0.145 77 55 44 0 0
0.0681 0.2676 -0.2844 -0.204 0.975 0.086 81 58 43 0 0
0.0678 0.2678 -0.2874 -0.174 0.928 0.329 75 52 36 0 0
0.0600 0.2764 -0.3193 -0.343 0.905 -0.250 94 65 41 0 0
0.1010 0.2263 -0.3499 -0.599 0.543 -0.589 94 80 71 0 0
0.1032 0.2236 -0.3538 -0.560 0.537 -0.631 92 78 69 0 0
0.1047 0.2217 -0.3574 -0.623 0.567 -0.538 87 72 63 0 0
0.0256 0.3152 -0.4313 -0.042 0.993 0.113 94 64 39 0 0
0.0395 0.2899 -0.7945 -0.204 0.935 -0.291 74 46 33 0 0
0.0377 0.2920 -0.7967 -0.711 0.703 0.031 75 48 32 0 0
0.0075 0.3244 -0.9689 -0.931 0.141 0.336 86 64 53 0 0
-0.0204 0.3575 -0.9855 -0.514 0.723 0.462 92 67 56 0 0
-0.0203 0.3573 -0.9889 -0.514 0.426 0.745 92 67 55 0 0
-0.0281 0.3664 -1.0053 -0.249 0.757 0.604 82 38 9 0 0
-0.0338 0.3721 -1.0568 -0.653 0.753 -0.079 98 67 39 0 0
-0.0291 0.3654 -1.0984 -0.570 0.814 0.108 55 28 12 0 0
-0.0306 0.3671 -1.1004 -0.541 0.716 0.441 60 30 13 0 0
0.0818 0.2617 -0.0327 0.188 0.594 -0.782 85 72 66 0 0
0.0832 0.2598 -0.0357 0.187 0.557 -0.809 78 68 63 0 0
0.0757 0.2677 -0.0886 0.207 0.977 0.049 90 67 52 0 0
0.0220 0.3311 -0.1351 -0.520 0.757 -0.396 85 51 26 0 0
0.0716 0.2692 -0.2326 -0.920 0.116 0.374 73 53 42 0 0
0.0668 0.2749 -0.2377 -0.969 0.168 0.182 75 55 44 0 0
0.0831 0.2537 -0.3064 0.261 0.964 -0.046 75 51 37 0 0
0.1041 0.2274 -0.3534 -0.497 0.659 -0.565 143 139 137 0 0
0.1060 0.2251 -0.3571 -0.747 0.352 -0.564 145 141 138 0 0
0.0595 0.2800 -0.3930 -0.369 0.235 0.899 56 36 25 0 0
0.0289 0.3160 -0.4316 0.138 0.990 0.019 96 66 41 0 0
0.0904 0.2353 -0.7238 0.541 0.808 0.234 79 58 45 0 0
0.0654 0.2640 -0.7797 -0.979 -0.034 -0.203 76 48 34 0 0
0.0395 0.2942 -0.8197 -0.820 0.442 0.363 72 44 31 0 0
0.0400 0.2936 -0.8234 -0.392 0.302 0.869 75 47 33 0 0
0.0370 0.2971 -0.8280 -0.422 0.366 0.829 80 52 38 0 0
0.0274 0.3058 -0.9493 -0.119 0.949 0.291 65 35 18 0 0
0.0088 0.3276 -0.9680 -0.945 0.161 0.284 86 64 53 0 0
-0.0254 0.3678 -1.0057 0.012 0.987 0.158 85 41 12 0 0
-0.0274 0.3685 -1.0810 -0.410 0.711 0.571 71 46 30 0 0
-0.0233 0.3635 -1.0882 -0.277 0.932 0.234 55 30 19 0 0
-0.0259 0.3663 -1.0992 -0.317 0.907 0.277 54 27 11 0 0
-0.0279 0.3686 -1.1007 -0.351 0.853 0.387 59 29 11 0 0
-0.0353 0.3771 -1.1239 -0.411 0.852 0.325 103 69 42 0 0
0.0679 0.2837 -0.0029 -0.209 0.975 0.077 83 55 33 0 0
0.1044 0.2382 -0.0790 0.374 0.787 0.490 87 68 55 0 0
0.0294 0.3265 -0.1445 -0.885 0.354 -0.301 78 53 36 0 0
0.0399 0.3134 -0.1724 0.311 0.950 -0.023 76 59 51 0 0
0.0758 0.2690 -0.2300 -0.483 0.873 0.064 74 56 45 0 0
0.1061 0.2298 -0.3565 -0.826 0.265 -0.498 177 178 179 0 0
0.1075 0.2281 -0.3601 -0.874 0.044 -0.484 160 160 160 0 0
0.0635 0.2801 -0.3936 -0.171 0.538 0.825 73 52 41 0 0
0.0611 0.2829 -0.3959 -0.094 0.581 0.809 73 49 38 0 0
0.0906 0.2398 -0.7327 0.538 0.757 0.371 78 58 45 0 0
0.0875 0.2434 -0.7411 0.423 0.828 0.369 76 53 39 0 0
0.0618 0.2732 -0.7826 -0.932 -0.309 -0.189 76 50 34 0 0
0.0388 0.2998 -0.8276 -0.561 0.325 0.761 79 53 41 0 0
0.0367 0.3022 -0.8295 -0.550 0.580 0.601 80 53 40 0 0
0.0255 0.3148 -0.8682 -0.429 0.755 0.496 85 57 35 0 0
0.0266 0.3130 -0.8859 -0.731 0.650 0.205 82 53 35 0 0
0.0345 0.3033 -0.8952 -0.471 0.880 -0.068 80 51 33 0 0
-0.0147 0.3601 -0.9897 -0.542 0.769 0.339 88 60 49 0 0
-0.0232 0.3684 -1.0759 -0.515 0.824 0.235 89 60 40 0 0
-0.0249 0.3703 -1.0811 -0.451 0.823 0.346 65 42 27 0 0
-0.0230 0.3675 -1.0998 -0.317 0.907 0.277 55 26 11 0 0
-0.0345 0.3799 -1.1631 0.025 0.219 0.976 183 179 176 0 0
0.0757 0.2790 0.0027 -0.830 0.558 0.007 88 57 36 0 0
0.0960 0.2540 -0.0333 0.225 0.642 -0.733 92 84 80 0 0
0.1003 0.2488 -0.0365 0.211 0.627 -0.750 96 90 87 0 0
0.1086 0.2388 -0.0399 0.219 0.609 -0.763 160 158 156 0 0
0.1034 0.2438 -0.0909 0.112 0.769 0.629 96 74 61 0 0
0.1017 0.2458 -0.0937 -0.121 0.567 0.815 95 74 62 0 0
0.1063 0.2348 -0.3399 -0.781 -0.186 0.596 124 115 111 0 0
0.0598 0.2891 -0.3947 0.306 0.870 0.386 80 53 43 0 0
0.0577 0.2915 -0.4033 0.234 0.963 0.131 83 56 43 0 0
0.0375 0.3061 -0.8284 -0.869 0.295 0.397 80 54 42 0 0
0.0378 0.3057 -0.8319 -0.935 0.325 0.144 80 54 40 0 0
0.0392 0.3025 -0.9003 -0.051 0.987 0.152 78 49 31 0 0
0.0397 0.3019 -0.9041 -0.643 0.720 -0.261 77 48 33 0 0
0.0395 0.3020 -0.9073 -0.270 0.963 0.006 73 44 29 0 0
-0.0182 0.3687 -1.0079 -0.373 0.925 0.076 85 42 14 0 0
-0.0207 0.3702 -1.0760 -0.607 0.695 0.386 90 60 40 0 0
-0.0222 0.3719 -1.0814 -0.640 0.705 0.306 60 36 23 0 0
-0.0270 0.3769 -1.1072 -0.489 0.865 0.110 73 37 15 0 0
-0.0236 0.3721 -1.1445 -0.647 0.729 -0.222 94 63 38 0 0
0.0843 0.2737 0.0171 0.312 0.950 0.001 92 62 41 0 0
0.0807 0.2777 0.0055 -0.108 0.917 -0.384 92 62 44 0 0
0.0795 0.2791 0.0026 -0.096 0.906 -0.412 89 61 40 0 0
0.0788 0.2798 -0.0002 0.056 0.855 -0.516 88 60 39 0 0
0.0877 0.2688 -0.0210 0.439 0.763 -0.475 79 62 52 0 0
0.0621 0.2957 -0.1844 0.277 0.794 -0.541 75 56 49 0 0
0.0895 0.2621 -0.2289 0.485 0.865 -0.125 79 63 51 0 0
0.0900 0.2614 -0.2351 0.357 0.923 -0.145 82 66 53 0 0
0.1035 0.2444 -0.2785 0.552 0.811 -0.192 100 83 74 0 0
0.0877 0.2624 -0.3121 0.526 0.831 0.180 91 63 46 0 0
0.1081 0.2376 -0.3366 -0.783 -0.131 0.608 115 107 101 0 0
0.1056 0.2405 -0.3391 -0.781 -0.186 0.596 170 168 167 0 0
0.1116 0.2326 -0.3793 -0.345 0.352 0.870 96 82 74 0 0
0.1086 0.2360 -0.3816 -0.350 0.320 0.880 98 84 74 0 0
0.1066 0.2383 -0.3841 -0.625 0.556 0.548 97 83 73 0 0
0.1024 0.2433 -0.3860 -0.586 0.810 0.010 94 78 69 0 0
0.0982 0.2483 -0.3878 0.097 0.529 0.843 82 64 56 0 0
0.0682 0.2839 -0.3937 0.028 0.460 0.888 80 52 43 0 0
0.0404 0.3161 -0.4335 0.174 0.977 0.120 92 65 44 0 0
0.1244 0.2096 -0.7325 0.566 0.789 0.238 165 163 163 0 0
0.1212 0.2133 -0.7376 0.549 0.799 0.243 114 105 102 0 0
0.0655 0.2785 -0.7853 -0.898 0.356 -0.259 74 48 35 0 0
0.0364 0.3094 -0.9610 -0.007 0.998 0.062 83 61 50 0 0
-0.0154 0.3701 -1.0083 -0.606 0.769 0.202 85 44 16 0 0
-0.0159 0.3705 -1.0113 -0.596 0.786 0.162 87 46 17 0 0
-0.0153 0.3698 -1.0151 -0.532 0.723 0.441 88 46 17 0 0
-0.0174 0.3723 -1.0165 -0.605 0.754 0.256 89 45 16 0 0
-0.0180 0.3729 -1.0194 -0.605 0.754 0.256 90 47 16 0 0
-0.0193 0.3735 -1.0651 -0.497 0.868 0.018 97 66 37 0 0
-0.0194 0.3734 -1.0684 -0.351 0.934 0.061 96 65 37 0 0
-0.0197 0.3738 -1.0714 -0.190 0.960 0.205 93 63 38 0 0
-0.0193 0.3732 -1.0752 -0.725 0.587 0.359 84 54 36 0 0
-0.0194 0.3732 -1.0785 -0.664 0.643 0.381 70 42 28 0 0
-0.0183 0.3719 -1.0828 -0.564 0.823 0.075 54 33 21 0 0
-0.0200 0.3737 -1.0880 -0.684 0.567 0.459 44 20 9 0 0
-0.0211 0.3746 -1.1073 -0.614 0.676 0.408 72 35 16 0 0
-0.0219 0.3755 -1.1099 -0.614 0.676 0.408 78 42 21 0 0
-0.0211 0.3738 -1.1447 -0.280 0.942 -0.186 96 65 40 0 0
0.1025 0.2569 0.0287 0.275 0.863 0.424 114 86 73 0 0
0.0941 0.2667 0.0229 0.265 0.964 -0.038 99 70 52 0 0
0.0925 0.2686 0.0199 0.203 0.975 -0.089 94 67 47 0 0
0.0896 0.2720 0.0170 0.312 0.950 0.001 90 63 43 0 0
0.0866 0.2748 -0.0151 0.378 0.868 -0.321 82 62 49 0 0
0.1122 0.2428 -0.0944 -0.512 0.853 0.106 112 98 93 0 0
0.0718 0.2887 -0.1917 -0.500 0.837 0.222 75 58 50 0 0
0.0698 0.2910 -0.1943 -0.303 0.918 -0.255 74 58 50 0 0
0.1123 0.2387 -0.2770 0.552 0.811 -0.192 114 106 101 0 0
0.1138 0.2369 -0.2805 0.552 0.811 -0.192 130 123 120 0 0
0.1162 0.2340 -0.2842 0.564 0.783 -0.262 144 141 138 0 0
0.1082 0.2413 -0.3839 -0.860 -0.013 0.511 101 90 85 0 0
