ply
format ascii 1.0
element vertex 878
property float x
property float y
property float z
property float nx
property float ny
property float nz
property uchar diffuse_red
property uchar diffuse_green
property uchar diffuse_blue
property uchar class
property uchar detection
end_header
0.1783 0.2320 -0.8696 0.953 0.255 -0.166 118 98 85 0 0
0.1809 0.2335 -0.9543 0.995 -0.094 -0.010 88 69 58 0 0
0.1871 0.2307 -0.9736 0.992 0.075 0.100 81 61 52 0 0
0.2043 0.2206 -0.9723 0.979 0.025 0.201 88 68 59 0 0
0.2046 0.2205 -0.9754 0.967 0.244 0.079 90 70 59 0 0
0.2083 0.2184 -0.9763 0.923 0.280 0.265 95 73 62 0 0
0.2067 0.2195 -0.9807 0.965 0.049 0.259 99 76 63 0 0
0.2137 0.2163 -1.0057 0.940 -0.136 0.313 104 84 70 0 0
0.2178 0.2140 -1.0062 0.909 0.196 0.367 98 76 64 0 0
0.2213 0.2120 -1.0071 0.991 0.082 -0.107 93 69 57 0 0
0.2345 0.2043 -1.0079 0.882 0.335 0.332 83 50 24 0 0
0.2332 0.2088 -1.1111 0.946 0.036 -0.323 59 35 22 0 0
0.1199 0.2310 0.0136 0.828 -0.388 0.405 63 26 7 0 0
0.1168 0.2340 -0.0192 0.867 -0.295 0.403 60 25 6 0 0
0.1073 0.2403 -0.0407 0.942 -0.332 -0.053 129 121 115 0 0
0.1080 0.2399 -0.0437 0.757 -0.614 0.221 181 180 180 0 0
0.1147 0.2375 -0.0851 0.819 0.556 0.142 95 68 53 0 0
0.1167 0.2365 -0.0879 0.847 0.527 0.072 97 69 54 0 0
0.1714 0.2056 -0.1085 0.496 -0.488 0.718 113 80 63 0 0
0.1200 0.2398 -0.2363 0.973 0.201 0.109 97 80 73 0 0
0.1089 0.2468 -0.2539 0.798 0.571 -0.194 110 98 91 0 0
0.1109 0.2458 -0.2566 0.718 0.677 -0.161 115 104 98 0 0
0.1100 0.2464 -0.2599 0.694 0.702 -0.159 119 108 104 0 0
0.0844 0.2625 -0.2966 0.851 0.452 0.268 180 180 182 0 0
0.0924 0.2583 -0.3075 0.708 0.591 0.387 107 96 90 0 0
0.0941 0.2583 -0.3355 0.870 0.462 -0.173 181 181 183 0 0
0.1660 0.2206 -0.4466 0.737 0.374 -0.563 146 142 138 0 0
0.0879 0.2786 -0.8080 0.529 0.784 0.325 111 103 100 0 0
0.1767 0.2285 -0.8436 0.860 0.276 -0.430 86 57 38 0 0
0.1713 0.2320 -0.8532 0.788 0.058 0.613 89 55 34 0 0
0.1754 0.2297 -0.8575 0.523 -0.380 0.763 98 67 41 0 0
0.1775 0.2286 -0.8595 0.523 -0.380 0.763 103 75 52 0 0
0.1782 0.2283 -0.8624 0.982 0.068 -0.175 107 80 58 0 0
0.1772 0.2290 -0.8663 0.869 0.113 -0.481 111 86 65 0 0
0.1751 0.2304 -0.8708 0.872 0.032 -0.488 112 90 71 0 0
0.1796 0.2278 -0.8715 0.972 0.172 -0.162 114 94 77 0 0
0.1613 0.2399 -0.9155 0.810 0.520 0.269 122 101 89 0 0
0.1833 0.2286 -0.9553 0.653 -0.742 -0.152 82 63 52 0 0
0.2026 0.2180 -0.9694 0.906 -0.086 -0.414 87 68 58 0 0
0.2350 0.2043 -1.1122 0.960 0.166 -0.223 60 35 21 0 0
0.1099 0.2352 -0.0375 0.753 0.209 -0.624 58 29 17 0 0
0.1524 0.2129 -0.1018 0.136 -0.107 0.985 103 74 60 0 0
0.1170 0.2384 -0.2459 0.986 0.161 0.036 90 75 68 0 0
0.1163 0.2391 -0.2553 0.797 0.599 -0.081 103 89 80 0 0
0.1170 0.2388 -0.2582 0.736 0.671 -0.094 101 86 77 0 0
0.0972 0.2529 -0.3345 0.870 0.462 -0.173 160 156 156 0 0
0.1606 0.2187 -0.4016 0.568 0.294 0.769 85 61 51 0 0
0.1704 0.2146 -0.4448 0.740 0.359 -0.568 124 115 109 0 0
0.1719 0.2277 -0.8423 0.897 0.410 -0.165 89 65 52 0 0
0.1696 0.2292 -0.8469 0.875 0.480 -0.059 87 59 44 0 0
0.1715 0.2284 -0.8557 0.946 -0.113 0.303 91 57 32 0 0
0.1772 0.2252 -0.8590 0.633 -0.233 0.738 99 67 43 0 0
0.1812 0.2230 -0.8600 0.977 0.151 0.150 105 75 51 0 0
0.1653 0.2334 -0.8958 0.872 0.467 -0.144 107 88 74 0 0
0.1626 0.2352 -0.9040 0.844 0.536 0.035 91 73 59 0 0
0.1824 0.2256 -0.9550 0.952 -0.261 -0.159 83 62 53 0 0
0.1817 0.2261 -0.9588 0.899 -0.391 -0.198 83 60 52 0 0
0.1953 0.2188 -0.9733 0.858 -0.200 -0.473 86 66 57 0 0
0.2038 0.2138 -0.9711 0.994 0.024 0.109 86 66 57 0 0
0.2169 0.2065 -0.9789 0.938 -0.262 -0.225 101 78 63 0 0
0.2493 0.1897 -1.0317 0.837 -0.235 0.494 95 64 37 0 0
0.2490 0.1933 -1.1271 0.798 -0.530 0.289 95 61 33 0 0
0.1115 0.2300 -0.0135 0.901 -0.419 -0.113 63 26 7 0 0
0.1164 0.2274 -0.0221 0.848 -0.505 0.161 61 26 7 0 0
0.1232 0.2257 -0.0841 0.854 0.496 0.159 91 60 45 0 0
0.1243 0.2252 -0.0870 0.973 0.230 -0.026 83 54 39 0 0
0.1254 0.2246 -0.0898 0.973 0.032 -0.226 90 61 46 0 0
0.1868 0.1902 -0.1122 0.582 -0.422 0.695 114 77 57 0 0
0.1198 0.2333 -0.2452 0.867 0.447 0.220 85 68 59 0 0
0.0905 0.2519 -0.2948 0.827 0.487 0.282 116 103 99 0 0
0.1005 0.2466 -0.3083 0.763 0.514 0.392 95 71 61 0 0
0.1735 0.2093 -0.4434 0.730 0.281 -0.622 113 102 94 0 0
0.1735 0.2233 -0.8440 0.887 0.462 0.017 91 67 53 0 0
0.2475 0.1871 -1.0257 0.974 -0.097 0.206 83 48 22 0 0
0.1267 0.2203 -0.0837 0.847 0.488 0.210 95 64 47 0 0
0.1845 0.1882 -0.1124 0.750 -0.288 0.595 113 76 55 0 0
0.1920 0.1845 -0.1317 0.975 -0.122 0.187 82 41 13 0 0
0.1889 0.1867 -0.1437 0.761 -0.645 0.070 76 44 25 0 0
0.1620 0.2041 -0.2009 0.725 0.433 -0.536 78 62 54 0 0
0.1217 0.2296 -0.2722 0.842 0.492 -0.223 98 80 70 0 0
0.1160 0.2333 -0.2827 0.767 0.572 0.289 101 83 74 0 0
0.1554 0.2147 -0.3994 0.554 -0.300 0.777 84 60 50 0 0
0.0992 0.2606 -0.7968 0.722 0.666 0.187 84 71 62 0 0
0.1761 0.2182 -0.8418 0.887 0.462 0.017 94 74 62 0 0
0.2148 0.2007 -0.9754 0.919 -0.392 0.031 98 76 64 0 0
0.2504 0.1822 -1.0325 0.841 -0.500 0.207 93 63 35 0 0
0.2497 0.1862 -1.1346 0.950 -0.181 0.256 98 66 41 0 0
0.1847 0.1848 -0.1123 0.857 -0.198 0.476 112 75 53 0 0
0.1896 0.1830 -0.1435 0.851 -0.359 0.383 77 46 27 0 0
0.1608 0.2014 -0.2009 0.742 0.554 -0.376 77 59 52 0 0
0.1312 0.2204 -0.2639 0.884 0.464 -0.057 90 70 59 0 0
0.1000 0.2393 -0.2954 0.749 0.568 0.339 91 71 60 0 0
0.0981 0.2405 -0.2989 0.735 0.243 0.633 99 79 68 0 0
0.1087 0.2358 -0.3371 0.580 0.489 -0.651 127 118 116 0 0
0.0807 0.2526 -0.3600 0.993 0.098 -0.065 181 181 184 0 0
0.0798 0.2676 -0.7857 0.639 0.637 0.431 107 98 93 0 0
0.0818 0.2666 -0.7881 0.697 0.497 0.516 101 87 81 0 0
0.1778 0.2136 -0.8402 0.870 -0.074 -0.487 94 75 63 0 0
0.1746 0.2156 -0.8453 0.832 -0.086 -0.549 91 68 54 0 0
0.1725 0.2170 -0.8497 0.885 0.425 -0.192 89 62 43 0 0
0.2284 0.1902 -0.9981 0.860 0.503 0.086 96 73 59 0 0
0.2576 0.1753 -1.0491 0.711 -0.639 0.294 107 79 55 0 0
0.0599 0.2455 0.0895 0.751 0.492 0.440 181 183 181 0 0
0.0679 0.2413 0.0806 0.822 0.470 0.321 182 182 182 0 0
0.0864 0.2311 0.0717 0.806 -0.529 -0.266 152 148 144 0 0
0.0837 0.2328 0.0658 0.985 0.164 0.051 140 131 127 0 0
0.1132 0.2178 0.0162 0.943 -0.274 0.191 63 26 7 0 0
0.1334 0.2098 -0.0888 0.889 0.454 0.056 87 55 40 0 0
0.1839 0.1819 -0.1123 0.902 -0.131 0.410 111 74 52 0 0
0.1914 0.1781 -0.1258 0.943 -0.287 0.166 106 66 35 0 0
0.1921 0.1784 -0.1459 0.786 -0.554 -0.276 74 51 37 0 0
0.1434 0.2095 -0.2460 0.706 -0.434 -0.560 82 60 49 0 0
0.1422 0.2103 -0.2492 0.989 -0.008 0.145 82 60 48 0 0
0.1413 0.2109 -0.2525 0.949 0.226 -0.221 84 60 48 0 0
0.1315 0.2167 -0.2606 0.831 0.137 -0.538 86 62 49 0 0
0.1286 0.2186 -0.2673 0.843 0.200 -0.499 85 64 49 0 0
0.1270 0.2199 -0.2768 0.845 0.526 0.096 88 65 51 0 0
0.1131 0.2294 -0.3264 0.990 0.102 -0.097 95 65 46 0 0
0.0922 0.2429 -0.3726 0.636 0.611 0.472 79 60 54 0 0
0.1301 0.2220 -0.3905 0.452 0.489 0.746 80 56 46 0 0
0.1586 0.2060 -0.3978 0.409 -0.207 0.889 83 59 49 0 0
0.1762 0.1963 -0.4079 0.907 0.357 0.221 105 79 66 0 0
0.1844 0.1926 -0.4358 0.790 0.150 -0.595 91 68 51 0 0
0.0766 0.2650 -0.7628 0.753 0.647 -0.124 214 214 214 0 0
0.1757 0.2116 -0.8473 0.841 -0.407 -0.358 91 64 47 0 0
0.1917 0.2065 -0.9659 0.265 -0.961 -0.082 85 66 56 0 0
0.1884 0.2086 -0.9746 0.611 -0.686 0.396 89 69 60 0 0
0.2304 0.1849 -0.9765 0.946 -0.323 -0.033 103 80 66 0 0
0.2320 0.1840 -0.9786 0.828 -0.543 0.140 101 77 64 0 0
0.2306 0.1850 -0.9828 0.933 -0.177 0.314 99 75 63 0 0
0.2320 0.1843 -0.9851 0.980 -0.184 0.074 97 73 63 0 0
0.0594 0.2422 0.0925 0.733 0.543 0.411 182 182 182 0 0
0.0645 0.2395 0.0895 0.792 0.464 0.398 183 183 179 0 0
0.0879 0.2266 0.0776 0.727 0.440 0.527 122 109 104 0 0
0.1101 0.2159 0.0220 0.825 -0.561 -0.070 63 26 7 0 0
0.1097 0.2167 0.0043 0.782 -0.539 0.313 68 31 11 0 0
0.1314 0.2073 -0.0829 0.525 0.006 0.851 84 56 42 0 0
0.1344 0.2057 -0.0856 0.881 0.400 0.254 84 55 42 0 0
0.1355 0.2052 -0.0885 0.881 0.400 0.254 85 54 39 0 0
0.1476 0.1987 -0.0989 0.631 0.376 0.679 85 51 33 0 0
0.1796 0.1810 -0.1098 0.356 -0.168 0.919 98 60 39 0 0
0.1908 0.1752 -0.1257 0.941 -0.266 0.208 103 63 30 0 0
0.1383 0.2092 -0.2529 0.799 -0.239 0.552 82 59 45 0 0
0.1412 0.2076 -0.2553 0.863 -0.455 0.217 82 58 43 0 0
0.1294 0.2148 -0.2699 0.661 -0.336 -0.671 86 62 46 0 0
0.1296 0.2148 -0.2730 0.858 0.413 -0.305 87 63 47 0 0
0.1153 0.2247 -0.3256 0.604 -0.789 -0.113 93 61 40 0 0
0.0843 0.2434 -0.3585 0.877 0.463 0.125 121 116 112 0 0
0.0854 0.2429 -0.3646 0.623 0.479 0.619 79 66 57 0 0
0.0921 0.2392 -0.3660 0.575 0.474 0.666 75 58 52 0 0
0.1017 0.2339 -0.3698 0.514 0.444 0.734 75 55 47 0 0
0.1064 0.2313 -0.3717 0.543 0.444 0.713 81 58 49 0 0
0.1702 0.1961 -0.4002 0.979 -0.005 -0.203 85 61 51 0 0
0.1705 0.1960 -0.4032 0.994 -0.105 -0.013 94 68 57 0 0
0.1915 0.2028 -0.9586 0.931 0.011 0.365 87 68 59 0 0
0.2439 0.1775 -1.0868 0.998 -0.058 -0.014 58 36 23 0 0
0.2439 0.1776 -1.0901 0.998 -0.058 -0.014 46 28 17 0 0
0.2418 0.1793 -1.1048 0.962 0.224 -0.158 56 32 20 0 0
0.0582 0.2393 0.0984 0.727 0.507 0.463 182 182 182 0 0
0.0612 0.2376 0.0954 0.727 0.507 0.463 182 182 182 0 0
0.0642 0.2360 0.0924 0.727 0.507 0.463 182 181 181 0 0
0.0705 0.2327 0.0864 0.775 0.509 0.374 138 124 116 0 0
0.1110 0.2134 -0.0194 0.953 -0.279 0.114 58 22 5 0 0
0.1372 0.2009 -0.0882 0.940 0.230 0.253 76 44 29 0 0
0.1389 0.2000 -0.0910 0.752 0.278 0.597 91 55 39 0 0
0.1900 0.1724 -0.1257 0.969 -0.218 0.115 107 66 31 0 0
0.1871 0.1746 -0.1435 0.715 -0.151 0.682 73 43 24 0 0
0.1278 0.2122 -0.2701 0.646 -0.371 -0.667 85 59 46 0 0
0.1249 0.2141 -0.2738 0.770 -0.424 -0.478 84 58 45 0 0
0.1237 0.2148 -0.2771 0.562 -0.770 -0.303 84 58 46 0 0
0.1282 0.2124 -0.2792 0.914 0.122 0.387 83 57 44 0 0
0.1238 0.2165 -0.3295 0.795 0.605 0.056 100 71 52 0 0
0.1236 0.2168 -0.3326 0.674 0.420 -0.608 101 77 61 0 0
0.0911 0.2361 -0.3628 0.540 0.514 0.667 96 83 74 0 0
0.0953 0.2338 -0.3649 0.603 0.529 0.597 80 66 58 0 0
0.1028 0.2298 -0.3723 0.913 0.335 -0.235 77 57 45 0 0
0.1410 0.2089 -0.3930 0.469 0.015 0.883 74 50 40 0 0
0.1806 0.2019 -0.8496 0.869 0.477 0.128 85 52 28 0 0
0.1914 0.1993 -0.9546 0.597 -0.621 -0.508 91 72 65 0 0
0.2243 0.1820 -0.9952 0.768 -0.328 0.550 87 63 52 0 0
0.2289 0.1794 -0.9953 0.966 0.164 0.200 85 62 48 0 0
0.2444 0.1714 -1.0171 0.938 -0.252 0.239 76 38 12 0 0
0.2548 0.1664 -1.0421 0.949 -0.309 -0.060 102 71 43 0 0
0.0555 0.2370 0.1074 0.715 0.206 0.668 182 182 182 0 0
0.0607 0.2342 0.1043 0.818 0.195 0.541 182 182 182 0 0
0.0629 0.2330 0.1013 0.829 0.185 0.528 182 182 183 0 0
0.0627 0.2332 0.0983 0.750 0.422 0.509 182 183 184 0 0
0.1374 0.1973 -0.0851 0.958 0.238 0.163 81 52 41 0 0
0.1381 0.1970 -0.0880 0.940 0.230 0.253 78 45 30 0 0
0.1398 0.1961 -0.0908 0.863 0.233 0.449 82 46 30 0 0
0.1427 0.1946 -0.0934 0.817 0.149 0.557 93 66 52 0 0
0.1303 0.2075 -0.2724 0.716 -0.198 -0.669 82 56 43 0 0
0.1279 0.2091 -0.2790 0.964 0.256 0.072 81 55 42 0 0
0.1280 0.2107 -0.3282 0.825 0.554 0.110 94 65 44 0 0
0.0959 0.2297 -0.3581 0.757 0.591 0.278 85 68 55 0 0
0.0916 0.2323 -0.3624 0.494 0.259 0.830 94 77 66 0 0
0.0971 0.2292 -0.3641 0.530 0.311 0.789 84 67 56 0 0
0.1095 0.2225 -0.3703 0.793 0.399 0.459 76 54 42 0 0
0.1131 0.2207 -0.3787 0.857 -0.368 0.360 81 58 43 0 0
0.1158 0.2193 -0.3811 0.705 0.045 0.708 81 57 44 0 0
0.1337 0.2093 -0.3855 0.778 0.172 0.604 77 53 41 0 0
0.1580 0.1960 -0.3970 0.511 0.006 0.859 77 52 42 0 0
0.1889 0.1796 -0.4242 0.968 -0.178 -0.176 86 49 28 0 0
0.1795 0.1987 -0.8398 0.911 0.400 0.101 92 67 55 0 0
0.1814 0.1976 -0.8420 0.942 0.319 0.100 92 65 53 0 0
0.1798 0.1987 -0.8461 0.924 0.382 0.013 87 59 39 0 0
0.1862 0.1963 -0.8816 0.880 0.064 -0.471 97 72 50 0 0
0.1829 0.2009 -0.9658 0.895 0.082 -0.439 88 68 60 0 0
0.2313 0.1748 -0.9994 0.683 -0.521 0.512 79 49 29 0 0
0.2542 0.1632 -1.0384 0.946 -0.319 -0.048 96 64 37 0 0
0.2541 0.1634 -1.0417 0.946 -0.319 -0.048 98 66 39 0 0
0.2436 0.1707 -1.0852 0.976 -0.172 -0.134 67 45 28 0 0
0.2435 0.1710 -1.0919 0.980 -0.005 0.200 56 34 21 0 0
0.2514 0.1676 -1.1252 0.930 -0.360 0.071 100 70 42 0 0
0.0529 0.2349 0.1103 0.636 0.110 0.764 182 182 182 0 0
0.0568 0.2328 0.1073 0.715 0.206 0.668 182 182 182 0 0
0.0648 0.2284 0.1042 0.939 -0.264 0.220 182 182 182 0 0
0.0639 0.2290 0.1013 0.829 0.185 0.528 184 183 183 0 0
0.0659 0.2280 0.0983 0.835 0.239 0.495 168 166 164 0 0
0.0966 0.2114 0.0776 0.763 0.486 0.425 104 69 45 0 0
0.0951 0.2124 0.0746 0.841 0.541 0.023 102 67 44 0 0
0.1121 0.2037 0.0485 0.964 -0.260 0.052 70 33 11 0 0
0.1077 0.2078 0.0012 0.835 -0.548 0.047 68 31 11 0 0
0.1377 0.1937 -0.0850 0.956 0.039 0.292 87 58 46 0 0
0.1386 0.1934 -0.0879 0.973 -0.026 0.231 78 44 29 0 0
0.1407 0.1923 -0.0906 0.878 -0.021 0.478 76 40 24 0 0
0.1338 0.2017 -0.2593 0.999 -0.033 0.030 75 51 38 0 0
0.1237 0.2081 -0.2828 0.350 -0.835 0.425 78 52 39 0 0
0.1256 0.2071 -0.2854 0.798 -0.177 0.576 77 51 38 0 0
0.1352 0.2032 -0.3292 0.722 -0.002 -0.692 92 63 45 0 0
0.1114 0.2177 -0.3663 0.440 0.208 0.873 63 45 37 0 0
0.1117 0.2177 -0.3694 0.762 0.436 0.478 71 51 41 0 0
0.1159 0.2154 -0.3714 0.762 0.372 0.530 73 51 39 0 0
0.1231 0.2119 -0.3881 0.997 -0.011 0.077 79 53 41 0 0
0.1233 0.2119 -0.3912 0.997 -0.011 0.077 70 46 36 0 0
0.1797 0.1807 -0.4055 0.891 -0.208 0.404 93 73 60 0 0
0.1839 0.1787 -0.4133 0.854 -0.140 0.501 97 66 47 0 0
0.1778 0.1825 -0.4243 1.000 -0.001 -0.003 84 47 25 0 0
0.1884 0.1765 -0.4240 0.945 -0.218 -0.242 83 45 24 0 0
0.1814 0.1941 -0.8381 0.890 0.452 0.059 92 67 55 0 0
0.1816 0.1940 -0.8412 0.890 0.452 0.059 93 66 53 0 0
0.1818 0.1940 -0.8443 0.890 0.452 0.059 86 57 38 0 0
0.1841 0.1959 -0.9412 0.950 0.239 -0.203 62 37 26 0 0
0.1857 0.1951 -0.9434 0.996 0.037 -0.077 74 50 40 0 0
0.2543 0.1594 -1.0278 0.741 -0.592 0.317 91 56 28 0 0
0.2537 0.1599 -1.0315 0.914 -0.390 0.110 92 61 33 0 0
0.2540 0.1598 -1.0345 0.914 -0.390 0.110 95 64 38 0 0
0.2542 0.1598 -1.0376 0.892 -0.286 0.350 96 65 39 0 0
0.2529 0.1606 -1.0417 0.949 -0.309 -0.060 100 69 41 0 0
0.2528 0.1611 -1.0548 0.914 -0.404 -0.020 99 72 45 0 0
0.0536 0.2310 0.1103 0.613 0.055 0.788 182 182 182 0 0
0.0582 0.2286 0.1072 0.687 0.072 0.723 182 182 182 0 0
0.0640 0.2254 0.1042 0.939 -0.264 0.220 183 182 183 0 0
0.1113 0.2008 0.0484 0.964 -0.260 0.052 70 33 13 0 0
0.1065 0.2047 0.0130 0.947 -0.312 0.077 64 27 9 0 0
0.1280 0.1956 -0.0771 0.853 0.055 0.519 91 67 52 0 0
0.1381 0.1902 -0.0849 0.839 -0.112 0.533 90 61 48 0 0
0.1440 0.1873 -0.0961 0.869 -0.139 0.476 91 63 51 0 0
0.1469 0.1857 -0.0987 0.889 -0.107 0.445 83 52 37 0 0
0.1829 0.1660 -0.1119 0.938 -0.244 0.248 109 72 53 0 0
0.1751 0.1734 -0.2033 0.334 -0.487 0.807 71 53 43 0 0
0.1575 0.1845 -0.2422 0.853 -0.500 0.148 77 53 41 0 0
0.1139 0.2130 -0.3685 0.762 0.436 0.478 64 45 36 0 0
0.1244 0.2078 -0.3906 0.965 0.173 0.196 71 47 37 0 0
0.1607 0.1878 -0.3987 0.481 -0.003 0.877 71 44 35 0 0
0.1790 0.1778 -0.4054 0.891 -0.208 0.404 98 79 68 0 0
0.1875 0.1737 -0.4240 0.913 -0.372 -0.169 82 41 21 0 0
0.1865 0.1743 -0.4273 0.970 -0.162 -0.180 85 49 27 0 0
0.0802 0.2429 -0.7109 0.472 -0.008 0.881 207 207 206 0 0
0.1843 0.1891 -0.8422 0.906 0.415 0.085 86 57 38 0 0
0.1886 0.1896 -0.9343 0.891 0.071 0.449 60 32 20 0 0
0.1898 0.1893 -0.9434 0.938 -0.182 0.295 79 54 44 0 0
0.2534 0.1569 -1.0373 0.929 -0.237 0.286 105 74 46 0 0
0.2537 0.1567 -1.0403 0.944 -0.310 0.118 107 76 48 0 0
0.2428 0.1650 -1.1070 0.888 -0.170 -0.427 56 28 12 0 0
0.0521 0.2283 0.1132 0.706 0.067 0.705 182 182 182 0 0
0.0541 0.2273 0.1102 0.613 0.055 0.788 182 182 182 0 0
0.0586 0.2248 0.1071 0.687 0.072 0.723 182 183 182 0 0
0.0996 0.2029 0.0804 0.870 0.270 0.413 96 58 30 0 0
0.1051 0.2021 0.0100 0.818 -0.574 -0.033 61 24 7 0 0
0.1285 0.1919 -0.0770 0.816 0.080 0.573 96 73 58 0 0
0.1380 0.1869 -0.0849 0.786 -0.085 0.612 81 53 40 0 0
0.1467 0.1825 -0.0986 0.896 -0.096 0.433 95 64 51 0 0
0.1821 0.1632 -0.1119 0.864 -0.393 0.316 116 80 61 0 0
0.1847 0.1619 -0.1173 0.931 -0.130 0.341 136 105 90 0 0
0.1524 0.1833 -0.2221 0.537 -0.841 -0.063 72 52 41 0 0
0.1387 0.1928 -0.2790 0.957 -0.291 -0.007 71 44 32 0 0
0.1322 0.1969 -0.2957 0.917 0.036 0.398 73 46 31 0 0
0.1315 0.1975 -0.2989 0.804 -0.174 0.568 68 41 25 0 0
0.1168 0.2078 -0.3674 0.439 -0.051 0.897 55 36 29 0 0
0.1197 0.2063 -0.3698 0.660 -0.062 0.748 68 45 38 0 0
0.1767 0.1756 -0.4027 0.876 -0.282 0.391 88 65 54 0 0
0.1778 0.1751 -0.4054 0.876 -0.282 0.391 106 87 76 0 0
0.1818 0.1730 -0.4103 0.626 -0.103 0.773 93 67 54 0 0
0.1863 0.1844 -0.8404 0.895 0.425 0.134 84 55 37 0 0
0.1958 0.1800 -0.8672 0.954 -0.298 -0.030 102 75 54 0 0
0.2515 0.1543 -1.0314 0.906 -0.385 0.177 99 65 35 0 0
0.2523 0.1541 -1.0404 0.911 -0.399 0.100 103 73 45 0 0
0.0552 0.2231 0.1131 0.758 -0.126 0.640 182 182 182 0 0
0.0576 0.2219 0.1101 0.768 -0.335 0.545 182 182 183 0 0
0.0902 0.2087 -0.0415 0.888 -0.446 0.110 46 19 6 0 0
0.0988 0.2043 -0.0558 0.859 0.066 0.508 48 33 24 0 0
0.1306 0.1874 -0.0767 0.778 0.121 0.617 93 72 58 0 0
0.1417 0.1815 -0.0844 0.961 0.161 0.226 83 53 41 0 0
0.1410 0.1820 -0.0874 0.961 0.155 0.230 81 46 34 0 0
0.1422 0.1814 -0.0902 0.964 0.090 0.249 70 34 18 0 0
0.1805 0.1607 -0.1091 0.834 0.032 0.550 104 66 44 0 0
0.1847 0.1587 -0.1173 0.977 -0.007 0.215 134 105 91 0 0
0.1779 0.1655 -0.2113 0.739 -0.594 0.318 70 50 41 0 0
0.1626 0.1742 -0.2200 0.969 -0.167 -0.181 70 50 39 0 0
0.1503 0.1812 -0.2253 0.649 -0.759 0.052 71 51 40 0 0
0.1400 0.1882 -0.2664 0.749 -0.580 0.320 74 50 38 0 0
0.1323 0.1935 -0.2955 0.946 0.013 0.324 77 49 36 0 0
0.1330 0.1933 -0.3014 0.929 -0.143 0.343 82 55 44 0 0
0.1103 0.2077 -0.3595 0.918 0.150 0.368 75 53 38 0 0
0.1127 0.2066 -0.3651 0.833 0.506 0.226 50 29 24 0 0
0.1137 0.2061 -0.3680 0.833 0.506 0.226 47 26 20 0 0
0.1190 0.2034 -0.3759 0.839 0.334 0.431 74 52 39 0 0
0.1214 0.2021 -0.3783 0.964 0.202 0.175 72 47 37 0 0
0.1811 0.1700 -0.4102 0.649 -0.073 0.757 96 71 57 0 0
0.1853 0.1682 -0.4240 0.894 -0.403 -0.198 81 42 17 0 0
0.1855 0.1681 -0.4270 0.970 -0.162 -0.180 79 42 20 0 0
0.1848 0.1687 -0.4302 0.943 -0.173 -0.285 84 51 29 0 0
0.1855 0.1684 -0.4330 0.899 -0.211 -0.384 89 62 41 0 0
0.0682 0.2422 -0.7085 0.810 0.559 0.176 125 118 113 0 0
0.0757 0.2381 -0.7085 0.488 -0.053 0.871 116 108 102 0 0
0.1842 0.1816 -0.8215 0.752 -0.648 -0.118 80 57 43 0 0
0.1822 0.1828 -0.8258 0.532 -0.814 -0.233 81 58 44 0 0
0.1895 0.1798 -0.8573 0.974 -0.190 0.123 92 57 31 0 0
0.1771 0.1882 -0.9071 0.983 0.054 -0.177 77 47 25 0 0
0.1856 0.1849 -0.9511 0.981 0.191 0.027 77 54 42 0 0
0.1855 0.1851 -0.9544 0.937 0.030 0.348 80 60 49 0 0
0.1873 0.1842 -0.9566 0.646 0.036 0.763 81 63 53 0 0
0.1843 0.1863 -0.9718 0.737 0.291 -0.610 89 71 61 0 0
0.2512 0.1517 -1.0501 0.906 -0.259 0.335 101 73 49 0 0
0.2517 0.1515 -1.0530 0.877 -0.324 0.355 103 75 51 0 0
0.2339 0.1625 -1.0889 0.876 -0.047 0.480 79 51 36 0 0
0.2409 0.1591 -1.1033 0.691 -0.506 0.516 59 33 16 0 0
0.0547 0.2200 0.1130 0.758 -0.126 0.640 182 182 182 0 0
0.0564 0.2191 0.1100 0.768 -0.335 0.545 183 183 182 0 0
0.0592 0.2177 0.1070 0.761 -0.269 0.591 167 160 156 0 0
0.0996 0.1961 0.0803 0.938 -0.043 0.344 75 37 13 0 0
0.1001 0.2002 -0.0557 0.891 -0.420 0.171 64 46 37 0 0
0.1023 0.1991 -0.0585 0.925 -0.137 0.355 68 49 42 0 0
0.1044 0.1980 -0.0613 0.850 -0.143 0.507 62 45 40 0 0
0.1310 0.1838 -0.0766 0.778 0.121 0.617 99 80 66 0 0
0.1331 0.1827 -0.0793 0.809 0.102 0.579 91 69 58 0 0
0.1408 0.1787 -0.0874 0.939 0.100 0.330 75 39 25 0 0
0.1423 0.1780 -0.0901 0.961 0.155 0.230 70 34 17 0 0
0.1428 0.1778 -0.0930 0.717 -0.045 0.695 75 44 25 0 0
0.1453 0.1765 -0.0957 0.717 -0.045 0.695 98 74 61 0 0
0.1832 0.1561 -0.1145 0.956 -0.077 0.282 136 108 94 0 0
0.1839 0.1558 -0.1172 0.997 -0.041 0.071 135 107 94 0 0
0.1875 0.1540 -0.1225 0.944 -0.286 0.165 113 75 53 0 0
0.1624 0.1710 -0.2199 0.910 -0.347 -0.225 70 50 39 0 0
0.1618 0.1714 -0.2229 0.910 -0.347 -0.225 71 51 40 0 0
0.1516 0.1772 -0.2278 0.829 -0.542 0.134 71 51 40 0 0
0.1500 0.1787 -0.2461 0.929 -0.370 -0.023 73 50 37 0 0
0.1499 0.1789 -0.2491 0.945 -0.321 -0.059 73 50 38 0 0
0.1496 0.1791 -0.2522 0.952 -0.298 -0.069 72 49 37 0 0
0.1496 0.1792 -0.2552 0.917 -0.331 -0.221 71 49 36 0 0
0.1394 0.1851 -0.2633 0.896 -0.250 0.367 72 49 36 0 0
0.1403 0.1847 -0.2661 0.806 -0.580 0.119 74 50 38 0 0
0.1350 0.1885 -0.2946 0.952 -0.221 -0.211 68 40 28 0 0
0.1335 0.1895 -0.3011 0.942 -0.274 0.195 76 49 38 0 0
0.1171 0.2007 -0.3668 0.607 0.045 0.794 46 23 19 0 0
0.1222 0.1983 -0.3778 0.964 0.202 0.175 66 42 32 0 0
0.0654 0.2354 -0.5593 0.629 0.777 -0.031 190 191 191 0 0
0.0705 0.2372 -0.7036 0.909 0.310 0.277 103 91 84 0 0
0.1730 0.1839 -0.8108 0.993 0.067 -0.096 81 58 45 0 0
0.1793 0.1805 -0.8138 0.731 -0.423 0.535 82 58 46 0 0
0.1825 0.1788 -0.8153 0.474 -0.878 0.069 83 59 47 0 0
0.1914 0.1744 -0.8329 0.922 0.213 0.323 86 62 48 0 0
0.1880 0.1765 -0.8381 0.993 0.095 0.076 84 57 40 0 0
0.1882 0.1765 -0.8412 0.993 0.095 0.076 79 47 27 0 0
0.1903 0.1758 -0.8561 0.895 -0.382 -0.230 92 56 29 0 0
0.1933 0.1743 -0.8609 0.904 -0.352 0.242 100 72 50 0 0
0.1787 0.1839 -0.9086 0.987 0.057 0.150 80 49 25 0 0
0.1897 0.1785 -0.9313 0.905 0.164 0.393 58 30 16 0 0
0.2301 0.1579 -0.9864 0.642 -0.602 0.475 94 71 63 0 0
0.2303 0.1583 -1.0025 0.759 -0.651 0.016 74 36 15 0 0
0.2318 0.1602 -1.0863 0.771 -0.064 0.634 90 63 44 0 0
0.2334 0.1593 -1.0883 0.922 -0.091 0.376 80 53 35 0 0
0.2317 0.1610 -1.1094 0.937 -0.340 -0.084 61 34 17 0 0
0.0516 0.2181 0.1160 0.628 -0.449 0.635 182 182 182 0 0
0.0552 0.2163 0.1100 0.768 -0.335 0.545 183 179 175 0 0
0.0967 0.1943 0.0832 0.998 -0.057 -0.026 75 37 14 0 0
0.0979 0.1937 0.0803 0.975 -0.145 0.169 65 33 12 0 0
0.1158 0.1843 0.0659 0.820 -0.404 0.406 63 30 10 0 0
0.1408 0.1754 -0.0873 0.917 -0.030 0.398 78 42 27 0 0
0.1448 0.1735 -0.0956 0.808 -0.184 0.560 97 74 62 0 0
0.1874 0.1509 -0.1225 0.989 -0.142 0.034 120 81 60 0 0
0.1529 0.1736 -0.2423 0.892 -0.046 0.449 72 50 37 0 0
0.1509 0.1748 -0.2457 0.984 -0.097 -0.151 72 50 37 0 0
0.1502 0.1753 -0.2488 0.940 -0.271 -0.207 72 50 37 0 0
0.1489 0.1761 -0.2521 0.906 -0.358 -0.225 71 49 36 0 0
0.1345 0.1849 -0.2793 0.779 -0.601 -0.180 68 41 30 0 0
0.1356 0.1844 -0.2821 0.591 -0.798 0.119 73 46 35 0 0
0.1333 0.1859 -0.2917 0.737 -0.676 -0.012 67 40 29 0 0
0.1173 0.1971 -0.3664 0.564 -0.034 0.825 43 19 15 0 0
0.1176 0.1970 -0.3694 0.909 -0.024 0.416 50 27 21 0 0
0.1173 0.1973 -0.3726 0.997 0.042 0.066 69 47 36 0 0
0.1209 0.1954 -0.3748 0.935 -0.253 0.248 69 47 34 0 0
0.1360 0.1874 -0.3830 0.890 0.124 0.439 66 39 30 0 0
0.1749 0.1666 -0.4053 0.599 -0.336 0.727 112 93 86 0 0
0.1805 0.1637 -0.4097 0.439 -0.347 0.829 93 68 54 0 0
0.0851 0.2188 -0.4901 0.792 0.598 0.120 150 147 145 0 0
0.0854 0.2187 -0.4932 0.790 0.488 0.371 155 153 151 0 0
0.0852 0.2204 -0.5418 0.686 0.722 -0.094 182 180 180 0 0
0.0822 0.2222 -0.5494 0.708 0.703 -0.066 185 184 182 0 0
0.0810 0.2230 -0.5531 0.704 0.707 -0.068 183 182 181 0 0
0.1579 0.1887 -0.8086 0.773 -0.212 -0.598 80 57 43 0 0
0.1702 0.1820 -0.8117 0.947 -0.102 0.304 78 55 41 0 0
0.1774 0.1781 -0.8142 0.659 -0.575 0.485 77 53 41 0 0
0.1886 0.1733 -0.8564 0.958 -0.263 0.119 88 49 22 0 0
0.2296 0.1547 -0.9827 0.715 -0.696 -0.059 91 71 58 0 0
0.2288 0.1553 -0.9865 0.916 -0.378 0.134 92 70 59 0 0
0.2285 0.1555 -0.9899 0.858 -0.439 0.267 88 66 54 0 0
0.2292 0.1554 -0.9992 0.959 -0.280 -0.049 79 42 24 0 0
0.2306 0.1581 -1.1092 0.937 -0.340 -0.084 59 31 15 0 0
0.0504 0.2153 0.1159 0.721 -0.299 0.625 183 183 181 0 0
0.0970 0.1906 0.0890 0.933 0.092 0.348 87 45 18 0 0
0.1028 0.1876 0.0832 0.947 -0.320 0.017 70 35 15 0 0
0.1021 0.1922 -0.0524 0.833 -0.543 0.105 48 21 10 0 0
0.1165 0.1846 -0.0601 0.784 0.132 0.606 84 66 59 0 0
0.1257 0.1798 -0.0681 0.680 0.185 0.710 79 51 41 0 0
0.1441 0.1705 -0.0956 0.865 -0.083 0.494 98 76 63 0 0
0.1821 0.1502 -0.1144 0.996 -0.063 -0.066 124 96 83 0 0
0.1817 0.1506 -0.1173 0.993 0.005 0.114 143 118 104 0 0
0.1820 0.1505 -0.1202 0.970 0.038 0.242 137 107 91 0 0
0.1612 0.1648 -0.2138 0.785 -0.594 0.177 68 50 40 0 0
0.1503 0.1718 -0.2456 0.940 -0.298 -0.169 72 50 39 0 0
0.1495 0.1723 -0.2488 0.935 -0.284 -0.213 72 50 39 0 0
0.1327 0.1821 -0.2673 0.795 -0.560 0.236 70 48 35 0 0
0.1330 0.1821 -0.2703 0.811 -0.550 -0.201 69 46 33 0 0
0.1339 0.1820 -0.2822 0.994 -0.100 -0.034 67 43 31 0 0
0.1327 0.1829 -0.2916 0.967 -0.180 0.180 68 40 28 0 0
0.1332 0.1829 -0.3006 0.988 0.128 -0.086 68 45 27 0 0
0.1190 0.1927 -0.3657 0.839 0.196 0.508 48 28 21 0 0
0.1195 0.1925 -0.3686 0.846 0.082 0.526 48 27 20 0 0
0.1212 0.1917 -0.3713 0.942 0.104 0.320 59 37 28 0 0
0.1221 0.1913 -0.3742 0.929 -0.050 0.367 71 49 37 0 0
0.1377 0.1831 -0.3853 0.861 0.132 0.491 70 44 32 0 0
0.1406 0.1816 -0.3875 0.707 0.014 0.707 71 44 33 0 0
0.0902 0.2125 -0.4912 0.800 0.570 0.188 93 82 75 0 0
0.0908 0.2122 -0.4942 0.801 0.510 0.313 98 88 80 0 0
0.0898 0.2135 -0.5171 0.872 -0.474 -0.120 109 100 94 0 0
0.0865 0.2154 -0.5215 0.264 -0.956 -0.125 106 97 93 0 0
0.0854 0.2161 -0.5251 0.157 -0.960 -0.233 109 99 94 0 0
0.0902 0.2136 -0.5267 0.898 -0.230 -0.375 109 99 94 0 0
0.0926 0.2123 -0.5290 0.855 0.469 -0.222 110 100 95 0 0
0.0911 0.2133 -0.5328 0.855 0.469 -0.222 116 106 102 0 0
0.0912 0.2133 -0.5360 0.852 0.514 -0.099 115 106 101 0 0
0.0887 0.2148 -0.5401 0.879 0.476 0.014 120 110 107 0 0
0.0889 0.2148 -0.5433 0.800 0.580 0.153 120 111 108 0 0
0.0906 0.2139 -0.5459 0.739 0.673 0.017 124 114 110 0 0
0.1704 0.1784 -0.8110 0.994 0.011 0.109 74 49 36 0 0
0.1755 0.1757 -0.8146 0.721 -0.587 0.367 72 45 34 0 0
0.1866 0.1702 -0.8343 0.850 -0.202 0.486 80 53 38 0 0
0.1867 0.1703 -0.8374 0.799 -0.281 0.532 73 45 28 0 0
0.1891 0.1690 -0.8393 0.924 0.176 0.340 73 42 23 0 0
0.1905 0.1685 -0.8482 0.831 0.068 0.552 69 34 13 0 0
0.1916 0.1705 -0.9319 0.836 0.044 0.546 51 23 11 0 0
0.1845 0.1750 -0.9495 0.946 0.024 -0.323 67 41 27 0 0
0.1929 0.1707 -0.9605 0.949 0.110 0.296 85 66 57 0 0
0.2215 0.1555 -0.9744 0.769 -0.561 0.305 85 65 54 0 0
0.2220 0.1553 -0.9773 0.778 -0.462 0.426 89 69 58 0 0
0.2467 0.1434 -1.0314 0.946 -0.324 0.011 88 51 25 0 0
0.0500 0.2121 0.1158 0.715 -0.468 0.519 182 181 180 0 0
0.0972 0.1871 0.0889 0.944 -0.166 0.284 76 36 11 0 0
0.1009 0.1853 0.0831 0.800 -0.585 0.132 68 34 14 0 0
0.1012 0.1894 -0.0554 0.850 -0.483 -0.210 45 19 8 0 0
0.0999 0.1902 -0.0585 0.453 -0.891 -0.019 57 35 27 0 0
0.1170 0.1809 -0.0600 0.784 0.132 0.606 72 54 47 0 0
0.1263 0.1761 -0.0680 0.734 0.331 0.593 74 46 37 0 0
0.1436 0.1674 -0.0927 0.988 -0.076 0.135 68 38 19 0 0
0.1442 0.1671 -0.0955 0.952 -0.189 0.241 104 81 72 0 0
0.1592 0.1626 -0.2140 0.830 -0.558 0.011 68 49 40 0 0
0.1490 0.1693 -0.2487 0.924 -0.349 -0.155 68 46 35 0 0
0.1481 0.1698 -0.2519 0.849 -0.501 -0.169 66 44 33 0 0
0.1352 0.1772 -0.2636 0.817 -0.562 0.128 71 49 35 0 0
0.1346 0.1777 -0.2667 0.864 -0.493 -0.101 71 49 36 0 0
0.1344 0.1779 -0.2698 0.934 -0.308 -0.182 68 46 33 0 0
0.1334 0.1785 -0.2730 0.965 -0.085 -0.247 67 43 31 0 0
0.1204 0.1885 -0.3650 0.948 0.235 0.217 48 28 22 0 0
0.1201 0.1887 -0.3682 0.959 0.208 0.191 46 26 19 0 0
0.1199 0.1890 -0.3713 0.984 0.180 -0.007 53 31 22 0 0
0.1399 0.1785 -0.3874 0.768 0.105 0.631 77 50 38 0 0
0.1686 0.1632 -0.4005 0.889 -0.448 0.100 64 29 17 0 0
0.1706 0.1631 -0.4303 0.855 -0.512 0.087 79 39 15 0 0
0.0928 0.2075 -0.4931 0.902 0.427 0.065 86 68 59 0 0
0.0931 0.2075 -0.4963 0.902 0.427 0.065 88 70 61 0 0
0.0850 0.2121 -0.5022 0.816 0.575 0.064 89 72 63 0 0
0.0899 0.2099 -0.5167 0.937 -0.310 -0.164 95 79 68 0 0
0.0901 0.2099 -0.5198 0.926 -0.328 -0.186 96 79 69 0 0
0.0840 0.2134 -0.5252 0.450 -0.842 -0.296 96 78 68 0 0
0.0902 0.2100 -0.5262 0.879 -0.368 -0.304 98 79 70 0 0
0.0956 0.2071 -0.5275 0.871 0.421 -0.253 98 79 71 0 0
0.0946 0.2077 -0.5311 0.854 0.490 -0.176 102 82 75 0 0
0.0917 0.2094 -0.5354 0.912 0.407 0.056 101 81 73 0 0
0.0916 0.2096 -0.5387 0.855 0.488 0.174 101 82 74 0 0
0.0937 0.2088 -0.5476 0.819 0.568 0.080 103 86 78 0 0
0.0939 0.2088 -0.5508 0.820 0.573 0.022 104 86 79 0 0
0.0948 0.2084 -0.5537 0.826 0.555 -0.097 103 85 78 0 0
0.0904 0.2113 -0.5715 0.779 0.621 -0.089 106 89 76 0 0
0.0878 0.2150 -0.6446 0.736 0.676 0.005 99 80 70 0 0
0.1577 0.1805 -0.7652 0.918 -0.142 0.371 69 41 28 0 0
0.1570 0.1810 -0.7689 0.659 -0.563 0.499 68 40 27 0 0
0.1608 0.1789 -0.7701 0.834 -0.476 -0.278 71 43 31 0 0
0.1737 0.1733 -0.8150 0.620 -0.470 0.628 70 42 29 0 0
0.1722 0.1742 -0.8190 0.791 -0.590 -0.164 70 42 29 0 0
0.1765 0.1721 -0.8264 0.998 0.031 -0.059 72 45 33 0 0
0.1914 0.1645 -0.8437 0.854 0.243 0.459 67 34 15 0 0
0.1951 0.1625 -0.8448 0.968 -0.009 0.253 72 37 15 0 0
0.1917 0.1679 -0.9605 0.934 0.195 0.300 88 70 58 0 0
0.2218 0.1519 -0.9734 0.773 -0.615 -0.157 86 66 55 0 0
0.2479 0.1390 -1.0168 0.999 -0.022 0.037 75 38 11 0 0
0.0936 0.1855 0.0976 0.728 0.403 0.554 126 87 55 0 0
0.0990 0.1873 -0.0585 0.710 -0.412 0.571 45 23 15 0 0
0.1003 0.1867 -0.0614 0.404 -0.384 0.830 87 69 63 0 0
0.1295 0.1711 -0.0706 0.972 0.173 0.161 83 55 41 0 0
0.1315 0.1702 -0.0763 0.943 0.048 0.328 109 92 79 0 0
0.1345 0.1686 -0.0789 0.849 -0.099 0.520 101 80 67 0 0
0.1438 0.1641 -0.0955 0.917 -0.162 0.366 104 83 73 0 0
0.1608 0.1572 -0.1753 0.683 -0.112 0.722 68 51 41 0 0
0.1482 0.1663 -0.2457 0.782 -0.590 -0.204 67 44 35 0 0
0.1463 0.1675 -0.2520 0.766 -0.613 -0.193 65 42 34 0 0
0.1339 0.1754 -0.2909 0.987 -0.133 0.085 64 39 27 0 0
0.1300 0.1785 -0.3223 0.941 -0.020 0.339 76 40 17 0 0
0.1207 0.1851 -0.3708 0.979 0.204 0.002 55 33 25 0 0
0.1401 0.1750 -0.3871 0.768 0.105 0.631 77 51 37 0 0
0.1747 0.1567 -0.4044 0.939 -0.326 -0.107 104 80 71 0 0
0.1751 0.1567 -0.4104 0.907 -0.405 0.117 110 88 74 0 0
0.0992 0.2004 -0.4874 0.932 0.361 0.029 80 58 46 0 0
0.0956 0.2024 -0.4918 0.991 0.131 0.016 79 57 45 0 0
0.0965 0.2021 -0.4947 0.987 0.160 -0.014 83 61 49 0 0
0.0920 0.2047 -0.4994 0.886 0.460 0.055 86 64 52 0 0
0.0963 0.2031 -0.5237 0.578 -0.772 -0.264 94 69 55 0 0
0.0957 0.2035 -0.5271 0.594 -0.701 -0.394 93 68 55 0 0
0.0981 0.2023 -0.5295 0.658 -0.749 -0.080 93 68 55 0 0
0.0956 0.2038 -0.5336 0.572 -0.772 0.276 92 67 54 0 0
0.0912 0.2063 -0.5384 0.674 -0.453 0.584 94 69 56 0 0
0.0943 0.2047 -0.5405 0.751 0.200 0.630 94 69 56 0 0
0.0935 0.2052 -0.5440 0.900 -0.279 0.336 92 69 57 0 0
0.0945 0.2048 -0.5469 0.900 -0.279 0.336 89 66 54 0 0
0.1008 0.2015 -0.5542 0.952 0.151 -0.265 97 73 61 0 0
0.1541 0.1796 -0.7859 0.912 0.111 -0.396 70 42 26 0 0
0.1719 0.1708 -0.8153 0.597 -0.748 0.292 68 39 23 0 0
0.1759 0.1690 -0.8260 0.630 -0.776 -0.036 72 44 30 0 0
0.1850 0.1666 -0.9117 0.794 -0.317 0.519 100 72 47 0 0
0.1885 0.1647 -0.9127 0.912 -0.239 0.332 101 75 51 0 0
0.2198 0.1496 -0.9739 0.678 -0.735 -0.015 87 67 56 0 0
0.2171 0.1512 -0.9790 0.850 -0.204 0.485 89 69 59 0 0
0.2260 0.1470 -0.9989 0.921 -0.345 -0.184 79 43 23 0 0
0.2265 0.1468 -1.0018 0.805 -0.499 -0.321 76 40 18 0 0
0.2453 0.1370 -1.0146 0.800 -0.441 0.407 76 39 12 0 0
0.2501 0.1370 -1.1016 0.966 0.200 -0.164 66 36 14 0 0
0.0428 0.2091 0.1188 0.656 -0.003 0.754 182 183 183 0 0
0.0976 0.1847 -0.0586 0.767 -0.369 0.525 45 22 13 0 0
0.0983 0.1844 -0.0615 0.404 -0.384 0.830 73 55 47 0 0
0.1378 0.1632 -0.0697 0.650 -0.653 -0.388 77 50 36 0 0
0.1408 0.1622 -0.0899 0.921 -0.263 0.286 58 25 8 0 0
0.1428 0.1612 -0.0926 0.967 -0.252 -0.024 59 28 11 0 0
0.1432 0.1610 -0.0955 0.917 -0.162 0.366 100 81 66 0 0
0.1816 0.1407 -0.1113 0.932 -0.048 0.358 112 81 64 0 0
0.1821 0.1405 -0.1141 0.987 -0.154 0.052 149 123 115 0 0
0.1848 0.1393 -0.1224 0.987 -0.048 0.151 115 80 56 0 0
0.1761 0.1457 -0.1785 0.905 0.050 -0.422 67 48 38 0 0
0.1548 0.1583 -0.2115 0.833 -0.526 -0.173 65 42 34 0 0
0.1558 0.1578 -0.2143 0.806 -0.592 0.029 65 42 35 0 0
0.1449 0.1648 -0.2491 0.842 -0.535 -0.068 64 42 33 0 0
0.1331 0.1725 -0.2908 0.955 -0.296 -0.010 62 38 26 0 0
0.1308 0.1747 -0.3218 0.964 -0.077 0.254 70 34 14 0 0
0.1321 0.1741 -0.3246 0.885 -0.445 0.137 72 38 17 0 0
0.1380 0.1727 -0.3843 0.794 -0.108 0.598 58 31 16 0 0
0.1737 0.1541 -0.4105 0.857 -0.516 0.019 116 94 82 0 0
0.0965 0.2000 -0.5425 0.986 0.125 0.106 88 63 46 0 0
0.1022 0.1973 -0.5565 0.919 0.334 -0.207 91 64 48 0 0
0.1552 0.1749 -0.7653 0.830 -0.346 0.438 64 33 18 0 0
0.1586 0.1732 -0.7700 0.633 -0.657 -0.410 60 31 17 0 0
0.1546 0.1758 -0.7850 0.938 0.026 -0.345 68 39 23 0 0
0.1657 0.1703 -0.7986 0.899 0.334 -0.282 69 38 21 0 0
0.1668 0.1697 -0.8013 0.795 0.605 -0.041 66 36 20 0 0
0.1753 0.1651 -0.8031 0.466 -0.426 -0.775 66 36 20 0 0
0.1717 0.1675 -0.8147 0.904 -0.412 -0.112 69 40 22 0 0
0.1877 0.1618 -0.9125 0.894 -0.299 0.334 104 77 53 0 0
0.1988 0.1571 -0.9577 0.967 -0.242 0.085 85 66 56 0 0
0.1977 0.1578 -0.9617 0.805 -0.069 0.590 86 68 58 0 0
0.2198 0.1462 -0.9764 0.991 -0.133 0.007 91 71 60 0 0
0.2258 0.1437 -0.9983 0.983 -0.161 -0.089 78 42 23 0 0
0.2257 0.1438 -1.0016 0.982 -0.180 -0.053 77 41 20 0 0
0.2479 0.1346 -1.0959 0.943 0.248 0.221 53 27 15 0 0
0.0879 0.1816 0.1063 0.819 0.228 0.527 117 86 71 0 0
0.0903 0.1804 0.1034 0.764 0.216 0.608 134 103 82 0 0
0.0930 0.1790 0.1004 0.717 0.231 0.658 127 92 69 0 0
0.0965 0.1819 -0.0586 0.751 -0.084 0.655 57 33 22 0 0
0.1277 0.1654 -0.0706 0.727 0.102 0.679 76 51 39 0 0
0.1407 0.1590 -0.0928 0.914 -0.390 0.110 64 32 17 0 0
0.1816 0.1375 -0.1141 0.987 -0.154 0.052 141 116 106 0 0
0.1825 0.1372 -0.1197 0.997 -0.000 0.073 129 103 87 0 0
0.1833 0.1369 -0.1225 0.961 -0.221 -0.167 110 75 51 0 0
0.1885 0.1348 -0.1476 0.878 -0.458 0.137 71 47 34 0 0
0.1506 0.1574 -0.2151 0.945 -0.325 0.045 64 42 36 0 0
0.1488 0.1586 -0.2243 0.762 -0.474 -0.442 62 42 33 0 0
0.1418 0.1630 -0.2436 0.682 -0.729 0.062 63 43 32 0 0
0.1416 0.1632 -0.2466 0.657 -0.730 -0.188 63 43 32 0 0
0.1304 0.1715 -0.3217 0.957 -0.192 0.216 71 35 15 0 0
0.1304 0.1716 -0.3247 0.824 -0.539 0.173 72 37 15 0 0
0.1256 0.1750 -0.3505 0.840 -0.328 0.433 64 40 27 0 0
0.1396 0.1683 -0.3805 0.989 0.024 0.148 57 31 18 0 0
0.1409 0.1678 -0.3863 0.945 0.007 0.327 72 45 33 0 0
0.1421 0.1672 -0.3890 0.964 0.035 0.263 55 30 19 0 0
0.1731 0.1511 -0.4103 0.886 -0.378 0.268 111 87 78 0 0
0.0987 0.1939 -0.4964 0.994 0.037 -0.100 75 49 34 0 0
0.1051 0.1921 -0.5517 0.926 0.220 0.306 82 52 35 0 0
0.1513 0.1737 -0.7699 0.518 -0.742 0.426 59 29 16 0 0
0.1543 0.1721 -0.7716 0.709 -0.661 -0.247 60 31 17 0 0
0.1627 0.1682 -0.7931 0.987 -0.110 -0.116 65 36 18 0 0
0.1765 0.1608 -0.7954 0.816 0.578 -0.007 65 36 18 0 0
0.1717 0.1639 -0.8109 0.915 -0.377 -0.142 68 39 21 0 0
0.1633 0.1688 -0.8220 0.925 -0.031 0.379 69 40 22 0 0
0.1667 0.1670 -0.8233 0.917 -0.092 0.388 70 41 23 0 0
0.1980 0.1541 -0.9574 0.967 -0.242 0.085 84 65 56 0 0
0.1979 0.1542 -0.9607 0.889 0.009 0.457 82 64 54 0 0
0.1973 0.1546 -0.9643 0.920 -0.289 0.266 86 68 58 0 0
0.2249 0.1409 -1.0013 0.969 -0.234 -0.082 77 40 21 0 0
0.2480 0.1291 -1.0271 0.852 -0.258 0.456 78 42 16 0 0
0.2487 0.1288 -1.0298 0.975 -0.217 -0.046 88 55 27 0 0
0.0455 0.2007 0.1186 0.837 -0.472 0.276 182 183 182 0 0
0.0890 0.1776 0.1062 0.733 0.156 0.662 110 79 67 0 0
0.0920 0.1761 0.1033 0.733 0.156 0.662 138 104 85 0 0
0.0960 0.1748 0.0741 0.952 -0.235 0.195 62 29 10 0 0
0.0971 0.1744 0.0683 0.952 -0.235 0.195 59 26 7 0 0
0.1271 0.1624 -0.0706 0.526 -0.255 0.811 99 74 61 0 0
0.1309 0.1604 -0.0732 0.955 -0.233 0.184 150 129 117 0 0
0.1383 0.1570 -0.0929 0.737 -0.667 0.110 59 28 13 0 0
0.1816 0.1343 -0.1140 0.877 -0.476 0.060 147 122 114 0 0
0.1833 0.1335 -0.1166 0.892 -0.412 -0.188 163 141 130 0 0
0.1828 0.1338 -0.1195 0.892 -0.412 -0.188 132 105 89 0 0
0.1727 0.1414 -0.1904 0.990 0.140 -0.036 64 44 37 0 0
0.1522 0.1530 -0.2087 0.974 0.222 0.035 62 42 35 0 0
0.1475 0.1560 -0.2244 0.793 -0.336 -0.509 62 42 33 0 0
0.1405 0.1646 -0.3861 0.993 0.012 0.121 66 40 28 0 0
0.1419 0.1639 -0.3887 0.973 0.133 -0.186 63 38 26 0 0
0.1402 0.1650 -0.3923 0.907 0.097 -0.409 58 32 21 0 0
0.1720 0.1483 -0.4103 0.886 -0.378 0.268 108 83 72 0 0
0.1129 0.1860 -0.6061 0.919 -0.393 0.026 83 54 36 0 0
0.1145 0.1853 -0.6087 0.732 -0.668 -0.138 81 51 33 0 0
0.1611 0.1656 -0.7901 0.483 -0.805 0.343 61 33 12 0 0
0.1647 0.1637 -0.7946 0.829 0.437 -0.348 61 32 14 0 0
0.1925 0.1507 -0.8597 0.972 -0.202 0.121 97 63 37 0 0
0.1978 0.1511 -0.9666 0.989 0.024 0.144 91 74 65 0 0
0.2156 0.1417 -0.9743 0.729 -0.671 0.135 88 69 55 0 0
0.2192 0.1401 -0.9881 0.885 -0.260 0.386 98 80 68 0 0
0.2197 0.1401 -0.9943 0.995 -0.099 -0.009 93 69 59 0 0
0.2247 0.1374 -0.9941 0.986 -0.084 -0.142 80 52 38 0 0
0.2268 0.1364 -0.9991 0.978 -0.168 0.127 77 40 21 0 0
0.2480 0.1276 -1.0875 0.534 -0.782 0.322 46 22 15 0 0
0.0444 0.1978 0.1215 0.626 -0.748 -0.220 182 182 184 0 0
0.0436 0.1983 0.1185 0.615 -0.741 -0.271 182 181 181 0 0
0.0897 0.1739 0.1061 0.871 -0.241 0.428 119 89 76 0 0
0.0920 0.1728 0.1032 0.767 -0.084 0.636 142 106 83 0 0
0.0943 0.1716 0.1003 0.767 -0.084 0.636 115 74 43 0 0
0.0950 0.1743 -0.0023 0.936 -0.344 0.071 64 32 9 0 0
0.0954 0.1755 -0.0527 0.981 -0.195 -0.001 45 18 7 0 0
0.1301 0.1576 -0.0732 0.905 -0.320 0.281 137 117 105 0 0
0.1310 0.1571 -0.0760 0.869 -0.338 0.360 126 107 94 0 0
0.1364 0.1546 -0.0872 0.924 -0.331 0.191 57 28 12 0 0
0.1388 0.1534 -0.0928 0.904 -0.423 0.072 56 27 13 0 0
0.1397 0.1530 -0.0956 0.652 -0.293 0.699 92 70 59 0 0
0.1814 0.1313 -0.1168 0.810 -0.582 0.071 161 139 129 0 0
0.1819 0.1311 -0.1196 0.850 -0.524 -0.053 142 115 98 0 0
0.1818 0.1312 -0.1224 0.850 -0.524 -0.053 96 59 36 0 0
0.1607 0.1444 -0.1835 0.749 -0.613 -0.249 66 48 38 0 0
0.1620 0.1438 -0.1862 0.700 -0.698 0.147 65 46 39 0 0
0.1407 0.1574 -0.2614 0.941 -0.040 0.335 60 40 31 0 0
0.1436 0.1559 -0.2638 0.855 -0.501 0.131 62 40 29 0 0
0.1390 0.1618 -0.3800 0.949 -0.314 -0.037 55 29 16 0 0
0.1384 0.1622 -0.3833 0.913 -0.291 0.286 54 28 15 0 0
0.1392 0.1619 -0.3861 0.913 -0.291 0.286 62 36 23 0 0
0.1413 0.1608 -0.3886 0.964 -0.182 0.195 64 39 28 0 0
0.1019 0.1850 -0.4882 0.925 0.035 -0.378 69 42 25 0 0
0.1008 0.1857 -0.4917 0.962 0.033 -0.271 72 45 28 0 0
0.1162 0.1804 -0.5947 0.850 -0.423 0.315 81 53 32 0 0
0.1152 0.1812 -0.6015 0.946 -0.268 0.184 84 55 35 0 0
0.1143 0.1818 -0.6051 0.964 -0.244 0.107 85 54 36 0 0
0.1142 0.1819 -0.6083 0.900 -0.378 -0.217 83 52 34 0 0
0.1364 0.1736 -0.7308 0.721 -0.156 -0.676 58 30 10 0 0
0.1272 0.1788 -0.7385 0.644 0.765 0.012 59 31 10 0 0
0.1696 0.1582 -0.8107 0.963 -0.269 0.011 66 38 19 0 0
0.1963 0.1483 -0.9635 0.993 0.015 0.120 93 75 65 0 0
0.1973 0.1479 -0.9661 0.974 -0.106 0.200 95 78 68 0 0
0.2193 0.1368 -0.9905 0.879 -0.280 0.387 99 79 70 0 0
0.2438 0.1242 -1.0091 0.804 -0.357 0.476 68 30 9 0 0
0.2435 0.1244 -1.0126 0.977 -0.033 0.209 68 30 9 0 0
0.2487 0.1229 -1.0571 0.899 -0.438 -0.018 95 67 43 0 0
0.2491 0.1229 -1.0632 0.877 -0.403 0.261 89 64 40 0 0
0.0435 0.1949 0.1215 0.680 -0.568 -0.463 182 183 183 0 0
0.0892 0.1709 0.1061 0.710 -0.199 0.676 135 105 87 0 0
0.0916 0.1696 0.1032 0.710 -0.199 0.676 133 97 69 0 0
0.0941 0.1684 0.1002 0.710 -0.199 0.676 107 64 35 0 0
0.0941 0.1690 0.0799 0.916 -0.350 0.198 65 32 13 0 0
0.0896 0.1744 -0.0203 0.944 -0.324 0.066 56 24 10 0 0
0.0898 0.1743 -0.0233 0.944 -0.324 0.066 55 24 10 0 0
0.1202 0.1594 -0.0682 0.388 -0.232 0.892 85 59 48 0 0
0.1299 0.1544 -0.0761 0.869 -0.338 0.360 127 107 97 0 0
0.1383 0.1504 -0.0928 0.994 -0.105 -0.006 58 27 13 0 0
0.1793 0.1293 -0.1198 0.598 -0.796 -0.100 146 118 100 0 0
0.1852 0.1268 -0.1448 0.953 -0.287 0.095 72 41 23 0 0
0.1856 0.1267 -0.1476 0.948 -0.218 0.231 70 46 33 0 0
0.1815 0.1296 -0.1713 0.432 -0.895 -0.109 65 47 37 0 0
0.1422 0.1534 -0.2639 0.855 -0.501 0.131 60 40 32 0 0
0.1356 0.1575 -0.2863 0.730 -0.642 0.233 56 36 24 0 0
0.1377 0.1592 -0.3832 0.849 -0.490 0.198 58 32 19 0 0
0.1382 0.1590 -0.3861 0.856 -0.428 0.289 64 38 24 0 0
0.1400 0.1582 -0.3887 0.865 -0.442 0.237 71 45 32 0 0
0.1392 0.1587 -0.3919 0.952 -0.292 -0.094 60 33 23 0 0
0.1838 0.1361 -0.4362 0.936 0.066 0.347 83 57 40 0 0
0.0997 0.1828 -0.4917 0.967 0.080 -0.243 69 41 23 0 0
0.1087 0.1787 -0.5172 0.779 -0.599 0.186 70 40 22 0 0
0.1073 0.1796 -0.5209 0.899 -0.437 0.025 72 41 23 0 0
0.1072 0.1797 -0.5241 0.962 -0.263 -0.079 71 40 22 0 0
0.1160 0.1773 -0.6007 0.987 0.042 0.154 84 55 34 0 0
0.1150 0.1779 -0.6043 0.998 0.056 -0.025 86 55 35 0 0
0.1289 0.1742 -0.7339 0.947 0.317 -0.050 58 29 11 0 0
0.1895 0.1450 -0.8440 0.875 -0.455 -0.164 67 32 12 0 0
0.2442 0.1210 -1.0241 0.933 -0.311 0.178 74 37 11 0 0
0.0882 0.1681 0.1060 0.757 -0.241 0.607 147 114 93 0 0
0.0931 0.1662 0.0798 0.832 -0.467 0.300 62 29 10 0 0
0.0936 0.1660 0.0769 0.916 -0.350 0.198 62 29 10 0 0
0.0941 0.1658 0.0740 0.911 -0.352 0.215 65 32 13 0 0
0.1065 0.1603 0.0363 0.778 -0.573 0.259 61 29 6 0 0
0.0934 0.1684 0.0006 0.863 -0.489 0.127 65 31 9 0 0
0.1193 0.1565 -0.0682 0.409 -0.119 0.905 81 56 45 0 0
0.1286 0.1518 -0.0761 0.856 -0.441 0.270 129 109 99 0 0
0.1311 0.1505 -0.0788 0.782 -0.400 0.478 105 82 68 0 0
0.1344 0.1490 -0.0873 0.875 -0.425 0.232 52 23 10 0 0
0.1754 0.1278 -0.1087 0.569 -0.452 0.687 114 86 75 0 0
0.1783 0.1266 -0.1198 0.705 -0.701 0.101 134 105 87 0 0
0.1848 0.1238 -0.1447 0.846 -0.531 0.054 68 36 18 0 0
0.1849 0.1238 -0.1476 0.846 -0.531 0.054 68 44 31 0 0
0.1866 0.1232 -0.1588 0.786 -0.484 -0.384 67 50 40 0 0
0.1558 0.1419 -0.2341 0.710 -0.690 0.138 59 40 33 0 0
0.1212 0.1643 -0.3720 0.883 -0.467 0.048 63 42 31 0 0
0.1381 0.1559 -0.3919 0.631 -0.764 -0.134 62 34 24 0 0
0.1824 0.1337 -0.4393 0.987 0.091 -0.129 88 65 48 0 0
0.1025 0.1776 -0.4840 0.993 0.091 -0.081 69 40 22 0 0
0.1036 0.1772 -0.4900 0.971 -0.156 -0.183 69 40 22 0 0
0.1197 0.1749 -0.7084 0.674 -0.670 -0.311 60 31 13 0 0
0.1274 0.1720 -0.7471 0.897 -0.436 0.079 59 30 12 0 0
0.1310 0.1704 -0.7615 0.868 -0.475 -0.145 55 26 12 0 0
0.1528 0.1594 -0.7829 0.885 -0.459 -0.077 57 28 12 0 0
0.1880 0.1425 -0.8474 0.749 -0.655 0.099 68 31 11 0 0
0.1813 0.1474 -0.8932 0.826 -0.507 -0.244 84 56 33 0 0
0.1803 0.1481 -0.8971 0.897 -0.421 -0.133 82 52 28 0 0
0.1922 0.1434 -0.9548 0.850 -0.471 0.236 78 57 43 0 0
0.2463 0.1177 -1.0635 0.786 -0.374 0.492 95 67 44 0 0
0.2402 0.1218 -1.0939 0.716 -0.687 0.120 44 22 13 0 0
0.0403 0.1897 0.1214 0.883 -0.248 -0.399 183 182 182 0 0
0.0886 0.1645 0.1060 0.672 0.062 0.738 154 122 101 0 0
0.0917 0.1659 0.0005 0.814 -0.568 0.123 60 28 8 0 0
0.1190 0.1534 -0.0682 0.312 -0.165 0.936 63 39 28 0 0
0.1295 0.1481 -0.0789 0.804 -0.474 0.360 100 77 63 0 0
0.1738 0.1254 -0.1088 0.562 -0.414 0.716 109 81 72 0 0
0.1732 0.1258 -0.1118 0.754 -0.599 0.271 115 86 79 0 0
0.1759 0.1246 -0.1172 0.705 -0.701 0.101 155 131 119 0 0
0.1762 0.1245 -0.1200 0.705 -0.701 0.101 131 101 85 0 0
0.1456 0.1442 -0.2389 0.695 -0.717 -0.058 60 41 33 0 0
0.1428 0.1465 -0.2693 0.938 -0.001 0.348 61 41 31 0 0
0.1415 0.1473 -0.2726 0.867 -0.484 0.122 61 41 30 0 0
0.1480 0.1472 -0.3888 0.850 -0.300 0.434 60 33 22 0 0
0.1491 0.1467 -0.3915 0.850 -0.300 0.434 56 28 17 0 0
0.1682 0.1369 -0.4041 0.864 -0.364 -0.347 79 46 34 0 0
0.1672 0.1375 -0.4075 0.864 -0.364 -0.347 105 79 68 0 0
0.1668 0.1378 -0.4106 0.934 -0.345 -0.092 105 82 68 0 0
0.1063 0.1732 -0.5236 0.656 -0.752 -0.064 68 37 19 0 0
0.1074 0.1729 -0.5328 0.959 -0.227 0.169 79 48 27 0 0
0.1077 0.1735 -0.5582 0.930 -0.216 0.298 85 51 31 0 0
0.1152 0.1704 -0.5904 0.797 -0.460 0.391 73 41 20 0 0
0.1076 0.1772 -0.6841 0.913 0.068 -0.401 57 28 11 0 0
0.1166 0.1731 -0.7093 0.852 -0.428 -0.301 60 31 13 0 0
0.1138 0.1747 -0.7139 0.922 -0.374 -0.100 61 32 14 0 0
0.1163 0.1735 -0.7159 0.665 -0.349 0.661 62 33 15 0 0
0.1344 0.1650 -0.7560 0.633 -0.774 0.011 55 26 12 0 0
0.1668 0.1488 -0.7910 0.910 0.023 0.413 60 31 14 0 0
0.1774 0.1464 -0.9014 0.816 -0.533 0.221 80 51 29 0 0
0.1907 0.1408 -0.9550 0.709 -0.680 0.185 77 57 43 0 0
0.2035 0.1346 -0.9759 0.860 -0.501 0.098 90 72 62 0 0
0.2359 0.1207 -1.0898 0.892 -0.452 0.013 47 25 18 0 0
0.2360 0.1207 -1.0930 0.892 -0.452 0.013 39 19 12 0 0
0.2360 0.1208 -1.0962 0.892 -0.452 0.013 40 20 11 0 0
0.0402 0.1863 0.1243 0.702 -0.438 -0.562 182 182 182 0 0
0.0892 0.1636 0.0093 0.823 -0.533 0.199 55 22 4 0 0
0.0898 0.1634 0.0064 0.823 -0.533 0.199 56 24 6 0 0
0.1258 0.1467 -0.0763 0.813 -0.545 0.205 130 110 99 0 0
0.1722 0.1230 -0.1089 0.562 -0.414 0.716 113 85 77 0 0
0.1714 0.1235 -0.1119 0.754 -0.599 0.271 115 87 80 0 0
0.1722 0.1232 -0.1147 0.754 -0.599 0.271 160 138 130 0 0
0.1737 0.1225 -0.1173 0.714 -0.666 0.216 161 137 126 0 0
0.1751 0.1218 -0.1200 0.785 -0.406 0.469 130 99 84 0 0
0.1388 0.1447 -0.2490 0.707 -0.608 0.361 59 39 31 0 0
0.1481 0.1439 -0.3915 0.822 -0.407 0.398 56 28 16 0 0
0.1671 0.1342 -0.4042 0.864 -0.364 -0.347 83 49 38 0 0
0.1656 0.1351 -0.4106 0.889 -0.399 -0.225 110 87 73 0 0
0.1811 0.1277 -0.4360 0.445 -0.430 0.786 79 54 33 0 0
0.1078 0.1684 -0.5036 0.976 -0.156 0.150 66 37 19 0 0
0.1063 0.1700 -0.5328 0.894 -0.417 0.161 72 41 20 0 0
0.1083 0.1693 -0.5448 0.877 -0.418 0.235 80 48 27 0 0
0.1101 0.1684 -0.5473 0.875 -0.320 0.364 82 50 29 0 0
0.1156 0.1701 -0.7092 0.925 -0.356 -0.131 59 30 12 0 0
0.1499 0.1537 -0.7702 0.778 -0.463 -0.425 56 26 11 0 0
0.1771 0.1430 -0.8976 0.842 -0.503 -0.193 83 55 32 0 0
0.1884 0.1386 -0.9557 0.723 -0.571 0.389 77 57 43 0 0
0.2033 0.1311 -0.9688 0.798 -0.601 0.038 89 72 63 0 0
0.2177 0.1238 -0.9787 0.669 -0.463 0.582 91 73 61 0 0
0.2363 0.1172 -1.0950 0.922 -0.347 0.172 39 18 9 0 0
0.0421 0.1819 0.1241 0.577 -0.194 -0.793 182 182 182 0 0
0.0902 0.1570 0.1058 0.467 0.012 0.884 142 111 88 0 0
0.0882 0.1609 0.0063 0.823 -0.533 0.199 54 22 5 0 0
0.1006 0.1562 -0.0579 0.754 0.169 0.635 45 21 11 0 0
0.1255 0.1435 -0.0762 0.761 -0.333 0.557 131 111 101 0 0
0.1268 0.1430 -0.0790 0.894 -0.334 0.299 101 79 66 0 0
0.1341 0.1395 -0.0929 0.749 -0.639 0.174 62 31 15 0 0
0.1706 0.1207 -0.1090 0.562 -0.414 0.716 108 79 74 0 0
0.1697 0.1212 -0.1120 0.818 -0.471 0.330 114 87 77 0 0
0.1706 0.1209 -0.1148 0.892 -0.353 0.282 149 127 119 0 0
0.1494 0.1348 -0.2111 0.848 -0.523 0.091 58 39 32 0 0
0.1443 0.1392 -0.2715 0.958 -0.249 -0.142 61 41 31 0 0
0.1352 0.1472 -0.3857 0.698 -0.337 0.632 49 23 8 0 0
0.1059 0.1666 -0.5261 0.977 -0.209 0.044 70 39 21 0 0
0.1040 0.1677 -0.5300 0.790 -0.573 0.218 72 41 21 0 0
0.1052 0.1671 -0.5327 0.799 -0.511 0.317 72 41 20 0 0
0.1075 0.1660 -0.5351 0.938 -0.315 0.146 73 41 20 0 0
0.1120 0.1648 -0.5780 0.934 -0.203 0.294 74 42 22 0 0
0.1124 0.1647 -0.5811 0.782 -0.622 0.038 73 41 21 0 0
0.1167 0.1640 -0.6370 0.983 -0.186 -0.014 69 37 16 0 0
0.1196 0.1640 -0.6906 0.971 -0.105 0.213 55 26 10 0 0
0.1739 0.1415 -0.9086 0.934 -0.340 -0.109 77 49 26 0 0
0.1871 0.1359 -0.9557 0.844 -0.252 0.473 77 56 41 0 0
0.2429 0.1092 -1.0537 0.943 -0.300 -0.144 95 67 43 0 0
0.2423 0.1097 -1.0606 0.943 -0.236 0.237 95 67 43 0 0
0.2381 0.1130 -1.0993 0.943 -0.184 0.278 49 23 13 0 0
0.0937 0.1527 0.0738 0.966 -0.242 0.089 56 24 7 0 0
0.1011 0.1526 -0.0608 0.435 0.003 0.901 46 24 13 0 0
0.1055 0.1504 -0.0633 0.276 -0.045 0.960 73 56 48 0 0
0.1191 0.1435 -0.0709 0.604 -0.194 0.773 91 67 59 0 0
0.1252 0.1405 -0.0791 0.975 -0.185 0.125 100 78 66 0 0
0.1689 0.1184 -0.1091 0.655 -0.285 0.700 108 79 75 0 0
0.1698 0.1180 -0.1119 0.918 -0.264 0.296 112 85 75 0 0
0.1707 0.1176 -0.1146 0.971 -0.078 0.227 162 140 132 0 0
0.1730 0.1164 -0.1172 0.968 0.014 0.250 159 136 126 0 0
0.1745 0.1157 -0.1199 0.952 0.009 0.307 125 96 82 0 0
0.1480 0.1331 -0.2438 0.815 -0.546 -0.194 60 40 33 0 0
0.1493 0.1325 -0.2465 0.663 -0.735 -0.139 59 39 32 0 0
0.1338 0.1431 -0.3340 0.979 0.183 -0.085 54 34 24 0 0
0.1325 0.1439 -0.3374 0.981 0.085 0.172 33 15 7 0 0
0.1720 0.1248 -0.3961 0.974 0.223 -0.040 61 27 15 0 0
0.1835 0.1195 -0.4226 0.935 -0.314 0.164 76 40 16 0 0
0.1043 0.1638 -0.5199 0.927 -0.368 0.069 65 34 16 0 0
0.1046 0.1638 -0.5230 0.927 -0.368 0.069 67 36 18 0 0
0.1048 0.1637 -0.5261 0.927 -0.368 0.069 67 36 18 0 0
0.1092 0.1630 -0.5819 0.918 -0.394 -0.045 80 48 27 0 0
0.1180 0.1590 -0.6071 0.918 -0.396 -0.006 75 43 22 0 0
0.1239 0.1569 -0.6430 0.628 -0.778 -0.031 69 36 17 0 0
0.1144 0.1637 -0.7054 0.808 -0.582 -0.096 53 24 8 0 0
0.1530 0.1457 -0.7867 0.954 -0.266 -0.135 52 23 8 0 0
0.1881 0.1319 -0.9543 0.962 0.029 0.270 74 53 37 0 0
0.2025 0.1248 -0.9710 0.903 -0.088 0.421 97 80 72 0 0
0.2345 0.1110 -1.0784 0.957 -0.220 -0.190 93 68 46 0 0
0.2343 0.1114 -1.0883 0.980 -0.196 -0.038 53 30 20 0 0
0.2367 0.1103 -1.0962 0.933 -0.058 0.356 41 20 10 0 0
0.2377 0.1099 -1.0987 0.827 -0.180 0.533 47 23 13 0 0
0.2427 0.1072 -1.0982 0.867 -0.434 0.244 52 24 11 0 0
0.2410 0.1086 -1.1157 0.909 -0.288 0.300 87 55 22 0 0
0.0338 0.1794 0.1241 0.966 -0.258 -0.015 183 183 183 0 0
0.0932 0.1489 0.1028 0.869 -0.326 0.372 90 51 22 0 0
0.0931 0.1495 0.0825 0.851 -0.523 -0.038 54 22 7 0 0
0.0908 0.1508 0.0796 0.860 -0.485 -0.158 54 22 8 0 0
