ply
format ascii 1.0
element vertex 672
property float x
property float y
property float z
property uchar diffuse_red
property uchar diffuse_green
property uchar diffuse_blue
end_header
-0.025505891464374056 0.28476157472794916 -0.40967871734744077 91 58 39
-0.02679216405761657 0.2831078555149769 -0.41318432844936037 98 66 45
-0.028003941342432573 0.28156269586600063 -0.41667073786795994 100 68 47
-0.028593603435423998 0.2809199886323541 -0.41993732167649983 96 64 43
-0.02842995508306219 0.28136955920739193 -0.42293068986702836 92 60 38
-0.029305833569590253 0.2803124181867495 -0.4263092988123273 93 58 36
-0.023095933130421215 0.28952452121244543 -0.4270471635468749 86 51 29
-0.016306940231358633 0.2995734306185284 -0.4275338641987834 85 49 28
-0.0172520686043523 0.29841430450834117 -0.4309149429852492 93 60 40
-0.018445068991730887 0.2968965120013628 -0.43439657273308235 101 73 54
-0.02226684377053298 0.2915715593525533 -0.4388961161112678 109 87 69
-0.025285078608968198 0.28741185842799377 -0.4431062774678638 119 101 89
-0.03576098614505549 0.27245408909482605 -0.4502417709302457 140 131 127
-0.04209664046084445 0.26349498337408156 -0.45580977692267205 181 180 180
-0.04774840434834336 0.25552841566924156 -0.4611429342159848 182 182 182
-0.03574041112294199 0.27312660277221235 -0.4594762311315356 181 182 184
-0.03517789553478119 0.274155084407149 -0.4623330660510502 181 182 184
-0.13027219337284612 0.1522288563711062 -0.7262983831579068 197 198 200
-0.13210239311987568 0.14984038468848693 -0.730776736839031 197 198 200
-0.13116154423802068 0.15142638375234124 -0.7336249922368779 198 199 201
-0.13285199386415172 0.1492392910600847 -0.7380346197732739 199 200 202
-0.12948202760190228 0.15430761181904765 -0.739429151083994 200 201 203
-0.09532002609908702 0.20351265988451192 -0.7223102241333366 200 201 203
-0.0721461202616802 0.23695602781692515 -0.7116317165613765 201 202 204
-0.07444277974999196 0.23389027900711287 -0.716265956775091 202 203 205
-0.11413150062352799 0.17724872302379333 -0.7436877948320877 203 204 206
-0.08555714928076474 0.21841929846418434 -0.7295654469784207 204 205 207
-0.0868364754194443 0.21681495262767156 -0.7336337010983708 205 205 207
-0.10625460193304036 0.189231808513907 -0.7489100170695624 206 206 208
-0.09982677014706325 0.19866921033089993 -0.7482646190994205 206 207 209
-0.09966290943208457 0.19913501391774235 -0.7514869174776666 207 208 210
-0.09940508762960243 0.19973533280340808 -0.7546503243781031 207 208 210
-0.04698041725429899 0.27766717661538265 -0.7632125911452211 209 209 211
-0.05232209699375291 0.27025598621626146 -0.7699542074695419 209 209 211
-0.05691825940456619 0.2639120911334286 -0.7762286735835016 209 209 211
-0.055405735152697956 0.26629655794721113 -0.7784317884613294 209 209 211
-0.061586135872714116 0.2576923418603202 -0.78580970816571 209 209 211
-0.06847509910030047 0.24807867177298892 -0.7937026051379098 208 209 211
-0.074683163757924 0.23944004967074461 -0.80117261021864 207 209 212
-0.08269065668255572 0.22823477350791116 -0.8099058816738071 206 208 210
-0.08844781034184132 0.22024519034545992 -0.8171437730510808 193 191 191
-0.09290654703158775 0.2141112373798764 -0.8235219621666445 156 151 150
-0.09823435395179676 0.2067387828949569 -0.8305263183355664 124 115 111
-0.10384509913750324 0.1989647329874479 -0.8377577777627186 113 100 95
-0.09973634885788973 0.20506048184385436 -0.8382546954579155 109 92 87
-0.10239919348342517 0.20149446042841682 -0.8434630046511671 102 83 78
-0.08266150795979602 0.2298812721172611 -0.8329646336030145 96 76 68
-0.07987743842158013 0.23408137397545276 -0.8343029516510513 94 72 62
-0.07324819137041325 0.24376362332164353 -0.8329057737315616 94 70 59
-0.07175239337895817 0.24612408781458767 -0.8351185538193114 93 69 57
-0.07210455876406768 0.24584957136502433 -0.838641648191888 92 68 55
-0.06839611110675023 0.25136324850115443 -0.8392600977921851 91 65 51
-0.0619395535311762 0.26079213944935925 -0.8378829320779763 90 64 49
-0.05806824046611703 0.26653455686239846 -0.8383357585456621 89 63 48
-0.0529695332015998 0.2740243107629394 -0.8378782422528359 90 63 48
-0.049759220333634745 0.27882188324579055 -0.8387661715514331 90 63 46
-0.047540421522391144 0.2822059197007699 -0.8403607051092256 93 62 44
-0.04613737001032474 0.2844273358516313 -0.8425414239830042 98 65 44
-0.044704427842885655 0.28669082056183526 -0.8446930101394726 102 66 41
-0.04152814866337936 0.2914360037143166 -0.845549545520222 105 68 40
-0.04117849062846806 0.2921559344002228 -0.8484848204841622 109 73 43
-0.03727590117208148 0.29793313522105136 -0.8487743552206474 115 81 47
-0.03503687833832992 0.3013412092295902 -0.8502855298918747 118 87 57
-0.04383103630460673 0.28904783903103204 -0.8600597538081037 120 91 65
-0.0465651984672677 0.2853803932835881 -0.8653224591265433 119 92 68
-0.048257540254253536 0.2831962201196665 -0.869814209939068 121 96 78
-0.050373353393103094 0.28041040718416477 -0.8746375922272343 121 100 89
-0.05273051474290442 0.2772822296484759 -0.8796575560546037 124 105 97
-0.05394682101611815 0.2757773921262443 -0.883819885165658 130 113 106
-0.05939844106021033 0.26825110352044856 -0.8912385937608358 133 121 113
-0.06471402055538347 0.2609204289134834 -0.8985843676425147 138 129 124
-0.06446479133158586 0.26150204664278903 -0.9016611268047346 143 134 128
-0.06739327993919512 0.25756726372202987 -0.9072018249862287 145 136 129
-0.06970033423558084 0.25451679268771754 -0.9122762757303713 143 133 130
-0.07377596811668395 0.24895438213822618 -0.9187463896340454 136 128 124
-0.07867316711176658 0.24222647292765181 -0.925884714428851 135 125 120
-0.08371952924774943 0.2352886786541805 -0.9331691303029784 130 119 113
-0.07167197341042322 0.25263091351042866 -0.9269824957268544 130 117 110
-0.06757736752206737 0.25867467747828043 -0.9270319107172191 134 117 110
-0.06599423814622207 0.2611508984390202 -0.9290566824380301 136 117 110
-0.063245073504813 0.26528194177929054 -0.9301423805820305 133 114 103
-0.06669645279313771 0.26061042163508946 -0.9361810194676373 127 107 93
-0.06588055028824759 0.26199679149688926 -0.9388091218695438 125 103 89
-0.057288214242598064 0.27441828435719595 -0.9351587185124418 122 100 85
-0.05475281859274049 0.2782423398605132 -0.9363646696240694 117 94 79
-0.05311925241899301 0.2807860357446291 -0.9382898002678783 113 89 76
-0.0520288142825366 0.2825587213401325 -0.9406493238936999 105 78 64
-0.052304375741374774 0.28239365135966554 -0.944121239022075 101 74 55
-0.05365385236163607 0.28070584080940747 -0.9484773960004679 97 69 52
-0.05480442975534676 0.27930064073649274 -0.9526781889995477 95 68 51
-0.05568545981404745 0.2782780901092077 -0.95666350101423 93 66 48
-0.05661532618920706 0.27718672183823745 -0.9606951933506389 91 64 45
-0.04568341842548827 0.292907407503734 -0.9548572132446278 89 62 43
-0.04241970166182708 0.2977572447300312 -0.9553638318928338 89 60 44
-0.042148965265147206 0.2983650967203942 -0.9583616011120044 89 61 44
-0.04093392489375146 0.30031069159367596 -0.9605643383829345 89 62 45
-0.03944871120424879 0.30263856034793857 -0.9625329145544393 89 61 47
-0.037841775948235276 0.30513828931883297 -0.9643907281013042 88 60 48
-0.034687507052651445 0.30982861663096795 -0.9649253400664828 86 58 46
-0.03160750812323102 0.31441258600286204 -0.9655060333363429 87 59 47
-0.02888545760447988 0.3184886368957231 -0.9663761147129143 86 60 47
-0.02540630750348216 0.3236353375210434 -0.9665815813263632 85 59 46
-0.022662255635602646 0.32774032043961987 -0.9674009840714499 85 59 43
-0.02195489582642504 0.3289621320330973 -0.9699652810505489 85 59 42
-0.01334746014149768 0.34136158375518355 -0.9656776014607965 85 59 45
-0.019666239705555782 0.33264144155231656 -0.9743239933541336 86 60 47
-0.017746693164718955 0.33557704821871986 -0.975818218841393 87 61 48
-0.0056740647433945746 0.35287152945675004 -0.9684129928460425 88 62 50
0.005680551689089514 0.3691459027004302 -0.9615699948296973 88 62 49
0.008231813643423055 0.37296865853411465 -0.9624206739593073 87 62 49
0.00866918843539237 0.3738020288218298 -0.9651264482215692 86 62 48
0.0030234398708872956 0.3660367259025286 -0.9732262414926137 86 63 49
-0.0033301264960283322 0.3572733668217766 -0.9819891181705763 87 64 50
-0.006262601995143821 0.3533469793078192 -0.9877351211691632 89 66 52
-0.014915922585090058 0.34133877799386086 -0.9986224760065024 97 73 59
-0.023125832795045223 0.32996050164686874 -1.0091619685133935 101 74 63
-0.027271918222916573 0.32432575917920115 -1.0160864646329733 108 82 71
-0.031343445454527705 0.31879803061445666 -1.0229681979566823 114 88 77
-0.021227657571981723 0.3333060449374413 -1.0170045592916261 113 86 75
-0.017275744225831904 0.3391072293566233 -1.0165926445855744 110 83 72
-0.013371900826557329 0.34483902763878516 -1.016202677607553 105 79 67
-0.0037822599920926264 0.35859488040223714 -1.0105842529173419 99 71 54
0.0005291083718355766 0.36489767048793714 -1.0097602094741036 94 61 39
0.007125391301664757 0.37442305441450885 -1.0068065532968364 91 55 26
0.005904083638685845 0.37291593894570085 -1.0110422226871518 94 54 21
0.006000676828316981 0.3732685425943232 -1.0140636651640356 96 53 21
0.006247935255068615 0.3738336772802029 -1.01694520144365 96 52 23
0.01003341691753834 0.3793887529624229 -1.016524800398309 95 51 23
0.010315943061210711 0.3800028214453731 -1.0193618608170443 98 54 27
0.007156664196551407 0.3757642065408435 -1.0254292773277798 102 59 31
0.00551975039632048 0.37367300208358367 -1.0300821133018998 105 66 34
0.007036536977114122 0.37602766850756963 -1.0317662707825574 110 72 38
0.007524263024115255 0.3769315211527354 -1.0344174663745291 112 75 41
0.00943465421763813 0.3798399166137144 -1.0357146056585722 114 77 48
0.009854346392995289 0.380647349097451 -1.038422500165128 117 82 52
0.010043387179230145 0.38112974893035756 -1.041349295678847 121 86 56
0.010155370547938969 0.38150359245401366 -1.0443496913891646 122 87 58
0.010230655750843642 0.3818257640798952 -1.0473855333739577 121 87 60
0.010086469204990192 0.3818389225499772 -1.0506334800317412 118 84 58
0.009942354504574952 0.3818522953566733 -1.05388298480437 112 80 54
0.009798117519668817 0.3818656092238082 -1.0571342361113996 110 79 52
0.006853403420649981 0.37793737576359054 -1.0631133193817173 111 79 53
0.006772873336788679 0.37804113423143204 -1.06631373244638 110 78 54
0.007352446689895348 0.37907380787181355 -1.0688689919461027 106 75 53
0.005468880383515395 0.3766409315876995 -1.0738408952408998 98 67 50
-0.015067652479915525 0.34796991267241617 -1.097198763359278 86 57 45
-0.018177385125925066 0.3438178327340081 -1.1034595198963277 75 48 39
-0.01926616629074729 0.3425091022422787 -1.1077366478778312 69 42 32
0.010472353066012186 0.3845467129234953 -1.0813862418896507 76 48 39
0.007833465643648063 0.38105348851696824 -1.0871331721571855 81 52 42
0.007579326555339799 0.3809135841479959 -1.0905125288359814 84 56 44
0.006164147139878701 0.3791420173504667 -1.0950580446375926 88 60 48
0.005212495296089609 0.3780224630477502 -1.0991465635886841 80 49 35
0.001980069920765451 0.37369868434073544 -1.1055410063340898 79 45 30
0.005526387588754858 0.3788995592816537 -1.10510064463855 80 44 28
0.007667603673350301 0.3821253484164653 -1.1060653517132824 84 48 31
0.009609924330393399 0.3850709853831872 -1.1072206933400859 95 60 41
0.005816395296957655 0.37996121151283885 -1.1142153711393694 99 64 43
0.006089876017066134 0.38056338445220517 -1.1170732569009372 98 63 41
0.006711198222259171 0.3816538254668618 -1.1195735812180265 97 62 40
0.007170518542811144 0.3825166749520107 -1.1222377294866868 101 67 43
0.006874421702666292 0.38231919565635913 -1.125679220325589 106 72 47
0.006685875495492433 0.3822728134025897 -1.1290119857283973 105 74 46
0.00531592355640205 0.38056898393561867 -1.1335721427118524 110 79 52
-0.0007544155354806958 0.37227180580548597 -1.1430305428440928 114 84 59
-0.0020835169024034234 0.3706274480376146 -1.147579329108814 113 85 61
-0.004493826107039606 0.36746734541116804 -1.1532676618246607 108 81 60
-0.00746980609470102 0.3635150653945062 -1.1595642129021428 94 73 61
-0.010260191960261567 0.359824258947492 -1.1656836954030714 102 85 71
-0.01400682519430578 0.3547941326163265 -1.1728288952251218 125 114 101
-0.014018816213566002 0.35500020255336706 -1.1760466110105947 153 144 134
-0.016271828667929852 0.3520656855851406 -1.1816420879106402 172 167 161
-0.030631363682642153 0.33216807389221537 -1.2001272387535218 182 179 177
-0.05102727863658492 0.30381919137705843 -1.225134496531831 189 187 185
-0.05895657107004371 0.29294223509139017 -1.2369301795851517 194 190 189
0.026172067562926407 0.41240780839120716 -1.1489880679614057 197 193 192
0.028722698243495257 0.41619483111437255 -1.1493382867570852 198 194 193
0.030188527708924773 0.4184619141186818 -1.1508439574428404 198 197 195
-0.0012846149796780781 0.3746133786275617 -1.1879504745459295 198 197 195
-0.018732817470490305 0.35040997340331026 -1.2100390688345564 200 199 197
-0.011804616442965307 0.3603311579589006 -1.2057359372077248 201 199 200
0.051071935064964574 0.4491752045653258 -1.1494960385751956 204 203 203
0.05347500107556774 0.45274660934254307 -1.1498759985970857 204 204 204
0.04174259033454651 0.43655019528773176 -1.1658544708881637 205 205 205
0.04225942946275914 0.43748533429634817 -1.168337978012648 205 205 205
0.04258085044567185 0.43814712641253195 -1.171036215544996 206 206 206
-0.10299058781272484 0.1401601380045277 -0.05588314637994235 181 181 183
-0.09249949555442494 0.1558781142363906 -0.058644759402526975 182 182 184
-0.08218261721708091 0.17133493463173755 -0.061358423676637124 182 182 184
-0.07212174501339859 0.18640989400981894 -0.06402911856457935 181 181 183
-0.06027832436046136 0.2041135339679989 -0.0665635635441484 178 176 177
-0.05473909626043989 0.21250440188383313 -0.06934712948756638 130 123 120
-0.049550700645846796 0.22037531620185358 -0.0721201550526019 122 107 100
-0.044384805906790434 0.22821114686854677 -0.07486745986788755 111 90 78
-0.035189962114901205 0.24199181736950184 -0.07735654025459603 102 77 59
-0.03335789605439719 0.24490308948911574 -0.08023975449427358 95 68 49
-0.02967162132436868 0.25054984641176764 -0.08299752336858797 97 70 49
-0.028525750548593645 0.25244708153932893 -0.08590258106011639 98 71 50
-0.03101819938810854 0.24897650391216458 -0.08905007647622452 103 75 56
-0.026274487186771694 0.2561807221298243 -0.09169938126253538 102 75 57
-0.02411345963392067 0.25957407880188177 -0.09451378489528665 100 74 57
-0.022839309267925337 0.2616588104780801 -0.09738488508203633 99 72 60
-0.019799483695105174 0.2663466270170156 -0.10011073701735522 107 80 68
-0.016651441378521453 0.27119291299724324 -0.1028122302817635 111 84 73
-0.007220267394833391 0.2853002943395458 -0.10496876643862377 112 84 71
-0.004598574583667803 0.2893673633008686 -0.10766689194888102 110 80 67
-0.007854151561953654 0.28477177450752605 -0.11087784192316887 111 80 69
-0.004916739165455777 0.2893033263977465 -0.11353595194985733 108 76 60
-0.00798000898511235 0.2849924502218636 -0.11674838820521061 107 74 55
0.0016130132640604228 0.29932815302762966 -0.11874321215030678 115 78 57
0.004111921542875749 0.30321053089602235 -0.12139844648783608 117 81 59
0.008808602808127758 0.3103289962878481 -0.12381479604228948 131 97 77
0.012811092243377592 0.3164234607484664 -0.1262799763825836 125 92 71
0.0178737491804061 0.3240775482502102 -0.12860959150555976 107 73 50
0.017331006624109788 0.3234770748385734 -0.1315347770118661 96 58 35
0.027627576451348695 0.3388333561651795 -0.13323165188591207 85 46 20
0.023602079595481246 0.3331050683327339 -0.1365401555511257 88 51 25
0.01715218507587557 0.3238102849490413 -0.14015953845604656 85 49 26
0.014325798825701994 0.31985007909729074 -0.14337325583680002 80 47 26
0.01047970996790916 0.3143906345936183 -0.1467297139243201 76 49 32
0.007825035954321588 0.31068543953415295 -0.14995614281256864 78 57 45
0.0053015298098135905 0.3071742281740704 -0.15318053282759156 78 58 47
0.0007530511357345393 0.30068569358560987 -0.15668743359630347 78 58 47
0.0024564834762015736 0.3033929994727273 -0.15937457402617805 78 58 47
0.0027396470646192383 0.3040113296823741 -0.1622490379620199 77 58 47
0.0034235406847474004 0.3052187704132525 -0.16506638211698105 76 58 46
0.005086041093966584 0.3078646028066983 -0.16774060691793563 76 58 48
0.0035810102839664154 0.305854038906782 -0.17086878217674453 76 58 48
0.0019500345190864854 0.3036589886750601 -0.17402449560960542 77 59 49
0.00031380023040529503 0.30145686990864934 -0.17719050841022407 78 59 48
-0.0019995324658641928 0.2982605518856015 -0.18047032470129545 78 58 47
-0.005736945238370317 0.292973014096804 -0.18398646352816145 79 59 48
-0.006445000651392974 0.29213682397873975 -0.18704064680469143 82 62 51
-0.006578803499356203 0.2921443758825893 -0.19000630005224434 82 62 51
-0.012836198937913906 0.2831592143227084 -0.19398241244724052 82 62 51
-0.01364696687559988 0.28217408012684025 -0.19708085166662384 82 62 51
-0.01490698293406248 0.2805297236891682 -0.20026084529826105 83 63 52
-0.01754103145508902 0.27686882223960063 -0.20368589769466183 84 64 53
-0.020126287390784744 0.2732805752613733 -0.2071173367070664 83 63 52
-0.02247156203264293 0.2700455474763871 -0.21052069004537935 84 64 53
-0.012438902527278556 0.28497519404727756 -0.21169744407233826 83 63 52
-0.014445971444931413 0.28223593697933747 -0.21503205809781403 84 64 53
-0.016424288747961646 0.279539662718569 -0.218372892131465 86 66 55
-0.023722194614988132 0.2690410485668049 -0.2227309444640918 86 66 55
-0.02626345021256382 0.2655217052199243 -0.22621697552994047 87 68 57
-0.02928625201600764 0.26129718183408146 -0.22981114136146358 89 70 58
-0.032015828554905326 0.25750380112621546 -0.2333645813488818 88 69 58
-0.03480745540549743 0.253620522740305 -0.23694593811847658 92 72 62
-0.03741478181100004 0.2500085150064765 -0.2405058115113699 94 73 64
-0.03943662418562274 0.24725570646752448 -0.24396034705644773 99 79 68
-0.042125377471503314 0.24352631430850497 -0.24756530521138076 101 81 69
-0.04425709538874292 0.24061424514090238 -0.2510682013254271 101 83 72
-0.046660239996481445 0.23730534000433456 -0.2546413300796958 103 84 75
-0.046452603670632725 0.23782216228272413 -0.2576639557851221 106 87 79
-0.04892506380547958 0.23441314364214447 -0.2612727409370043 111 95 88
-0.049316323539064774 0.23405326599433895 -0.2644345872055798 113 98 93
-0.052463510786328715 0.22965773080201538 -0.26821737924412187 114 100 96
-0.054397907780609156 0.22703924766229788 -0.2717427250985999 119 106 103
-0.05610205397195678 0.22475864408843824 -0.27522644279098685 118 105 103
-0.05759739050525285 0.22278440353605344 -0.2786716453416348 129 119 118
-0.0598715797409956 0.21967079096193082 -0.28230885402982914 147 140 140
-0.06313009810883244 0.21511753406844425 -0.28619328403107475 168 164 163
-0.06631118876292152 0.21067885712119988 -0.29007755455365564 180 178 177
-0.0576225593380866 0.22360815069631237 -0.2910923987332745 183 183 182
-0.05836908191105771 0.22273132679767885 -0.29438167734945964 182 182 181
-0.05818442827438149 0.22321690096883476 -0.2974442007395112 179 180 180
-0.05852455013811656 0.22293495063793622 -0.3006384276656867 181 179 179
-0.058932290216624154 0.22255429990113462 -0.303852458521911 160 153 151
-0.058595939270451244 0.2232618432051618 -0.3068783551484567 117 109 105
-0.05764348365735184 0.22487004617813558 -0.3097432688573914 107 99 94
-0.060710921633972924 0.22060169538680846 -0.3136581680083491 106 94 89
-0.06219278298904239 0.21865203934269772 -0.31717033031741804 109 95 90
-0.06203155618884552 0.21910422915976424 -0.32025141645263994 114 101 95
-0.059399882656448647 0.2231662925029841 -0.3226642410232054 119 102 96
-0.0586198699383744 0.22452207083523967 -0.32556935076489346 118 102 96
-0.057004391834816794 0.2270980963712148 -0.328240472976712 131 119 116
-0.05276324514877312 0.2335087727306691 -0.3301719680715319 155 149 147
-0.04769315949579686 0.24112854103860773 -0.33184788960865536 179 176 177
-0.07423594863969406 0.20258275040990253 -0.34247765384939716 180 180 185
-0.08215466302905307 0.19123991843417937 -0.3479113484067805 180 180 183
-0.09224467371122855 0.17673025224122432 -0.3540176964518792 180 180 182
-0.10507861116643111 0.15821910789020868 -0.3609818454031235 180 180 182
-0.06919976111685741 0.21168469186027644 -0.36625916872533326 180 180 182
-0.06815689929177046 0.21342449338057146 -0.36909234095061066 180 180 182
-0.061000890637906945 0.22407930167470613 -0.37001707400659434 179 179 181
-0.05478358922728486 0.2333626297082423 -0.37119833100572325 179 179 181
-0.048634411348950954 0.2425443301837376 -0.372367953370221 180 180 182
-0.05833778189109783 0.22861358055733086 -0.3785709445477614 179 181 180
-0.06147575110984413 0.2242564970144381 -0.3827116347745555 181 180 179
-0.08202971227616476 0.19451787108501406 -0.39253145228544434 118 112 109
-0.07168069425182105 0.20982051484570155 -0.3923347741473823 106 94 89
-0.06253623796542601 0.22336416492455818 -0.3924803727281499 117 100 93
-0.05292647676160854 0.23758228784926297 -0.3924216076293766 115 96 89
-0.04663211795727476 0.24696732834145646 -0.39342498486432953 106 87 78
-0.04245871766303225 0.2532608722267197 -0.39511311904879615 102 82 75
-0.035955319664429886 0.26294606513372903 -0.39598348615865914 101 79 70
-0.031181452748157257 0.2701104485281552 -0.3974143255414985 97 74 62
-0.02785975846681167 0.27515881994156544 -0.3993236144105392 101 78 67
-0.023938832011801317 0.2810783028369247 -0.4010058876069106 103 79 67
-0.019888688723781828 0.2871844278622966 -0.40262186717275855 96 67 51
-0.02165384013699999 0.2848257650593132 -0.4062819705692862 93 61 42
-0.017150243159066214 0.2915898680429677 -0.4077086561776486 92 59 40
-0.018539561352154704 0.2897782871153016 -0.41123688395909086 93 61 40
-0.0207105200526497 0.28683017159787577 -0.4150575707580087 100 68 47
-0.021784698765051652 0.2854783008914751 -0.4184893171811009 96 64 43
-0.021799980090909166 0.28566695228421624 -0.4215370648979096 90 58 36
-0.021254723625801344 0.286670801517999 -0.4243773159049818 89 54 32
-0.02004424061766935 0.28864174767527406 -0.42696625049569586 83 48 26
-0.011612594731026035 0.30111061793916916 -0.426825651565923 83 46 25
-0.011614282002260515 0.30131731310190024 -0.4298434641739177 86 50 29
-0.01243750725810197 0.3003299988938114 -0.43317641995285655 92 61 41
-0.016549687235796584 0.29456335578816945 -0.4377823062119413 102 77 58
-0.025969182188700105 0.28108645587672665 -0.44447176063993304 105 85 71
-0.029795130739257478 0.2757399267826186 -0.4490271406571607 130 118 112
-0.0357397441390437 0.2673171601864914 -0.45443843584287047 172 169 168
-0.03776692165351887 0.2645867655301334 -0.4583302205434247 182 182 182
-0.03307594270090797 0.27161399243940476 -0.45955210683031356 181 182 184
-0.03143972182457938 0.2742036322465698 -0.4619767677613626 181 182 184
-0.13274009378206422 0.14306525877002624 -0.7329485519336526 198 199 201
-0.13208506754158497 0.14424448033148352 -0.7359751282548166 198 199 201
-0.13119384051213812 0.14576331043806165 -0.7388579856834014 199 200 202
-0.13384857182024898 0.14218125011409435 -0.7438619823215386 200 201 203
-0.08556868808006604 0.21185611958822026 -0.7182110436932696 200 201 203
-0.05813237355212012 0.2515384135118052 -0.7048996113832721 201 202 204
-0.07758091973607101 0.2237969831126175 -0.7199302544201488 202 203 205
-0.1038241065039741 0.18629486991170574 -0.7392195808825615 203 204 206
-0.0990241599552036 0.19342612218174834 -0.7396156661481776 204 205 207
-0.1026219027595078 0.18848590260442608 -0.745160252279745 205 205 207
-0.1201448118883548 0.16353577386770896 -0.75934565932763 206 206 208
-0.10259494265554191 0.18898755947161613 -0.7518215637437288 206 207 209
-0.10765729400003533 0.18194614603021317 -0.7583238741518709 207 208 210
-0.08510673765298701 0.2145721640568898 -0.7475300576603787 207 208 210
-0.11339512306198851 0.17674551721801668 -0.805802928315761 209 209 211
-0.11309037740525266 0.17741697754988367 -0.8089830684634234 209 209 211
-0.11101094149797176 0.18063283347496578 -0.810978835188103 209 209 211
-0.10916663015567706 0.1835108719181463 -0.8131211811933741 209 209 211
-0.061715877587572826 0.2517584658804648 -0.7845823986664099 209 209 211
-0.06801267607599737 0.24295874435326703 -0.7920749337686211 209 209 211
-0.0751357668226067 0.23297749892863107 -0.8001642321641155 208 208 210
-0.0804053267096386 0.2256547796128745 -0.8070323486524479 204 202 206
-0.08648592706581795 0.21717230885928834 -0.81448569062774 178 175 177
-0.09087299759527728 0.2111180498047316 -0.8208113739455055 141 134 130
-0.09470324497398061 0.20586303937017567 -0.8267787848091223 117 108 101
-0.10048874539784396 0.19780969879280327 -0.8341223441277813 106 94 87
-0.08176456477548973 0.22485134087697894 -0.824461843818492 102 87 79
-0.07520260408695939 0.23447436728632384 -0.8231850740848029 98 80 71
-0.07117709306308183 0.24046421490528427 -0.8236495353789515 93 73 64
-0.06877973303857732 0.2441223321809628 -0.8252376505636665 92 71 60
-0.06240195540620448 0.253475553574332 -0.8240010012366512 93 70 58
-0.05966999115371708 0.25760987518402717 -0.8253150044629682 92 68 55
-0.05673113353760354 0.26203916438063707 -0.8264670148995948 91 66 53
-0.05444832769107978 0.2655289305758425 -0.8280722410999908 90 64 50
-0.05476608691359067 0.26529848434697134 -0.8315320218940784 88 61 47
-0.055033200262147565 0.26514064436089024 -0.8349579255895743 89 61 47
-0.05255410615837467 0.26890955873018546 -0.8363993682778552 88 60 46
-0.04777966308526512 0.2759590478889773 -0.8361604397677102 85 58 43
-0.04380019180744343 0.28187035861363197 -0.8364748809786646 85 58 41
-0.04187523465850288 0.2848437791829772 -0.8382714125863236 89 59 41
-0.03305701605281137 0.2983280048286453 -0.8445249725430117 103 65 36
-0.03334098358928504 0.29814280072227245 -0.8479159600579323 109 71 37
-0.031118675500179965 0.3015368565008319 -0.8494321010922883 113 77 43
-0.033510011157768166 0.29834247792271607 -0.854405269872958 115 81 51
-0.02912759272653559 0.3048197011226712 -0.8542805999081585 114 82 53
-0.030879783206331633 0.3025383391159123 -0.8587791286336227 116 88 63
-0.032722076068194494 0.3001291242532557 -0.8633569474618553 118 93 74
-0.035034313566520245 0.29705005015156205 -0.86830474460999 121 100 84
-0.038763347220767755 0.2919503625087432 -0.8743519185952285 122 102 90
-0.05282311890792169 0.27211363535540534 -0.8883649101914944 124 107 98
-0.05506473141050756 0.269140812156675 -0.8933376318629309 125 112 105
-0.05831766496005031 0.2647265080963338 -0.8991073619626369 128 118 109
-0.061857035514663296 0.2599050646829739 -0.9051191601412878 134 125 116
-0.0640746621678805 0.2569697272067961 -0.9101205505000821 132 122 114
-0.06871996090698684 0.25057423166222853 -0.9170367564184192 126 115 109
-0.07394571335502621 0.24335320198419086 -0.9244365550592566 125 111 105
-0.06275108041853353 0.2595380775041359 -0.9189129770788413 124 107 100
-0.06270865069918206 0.2598256856162352 -0.9221561378897971 123 103 97
-0.060892959588541844 0.2626400414492372 -0.923990843011862 121 101 94
-0.05887574688779948 0.26574084304686896 -0.9256553074492182 123 102 93
-0.06039599242920057 0.2638018063069898 -0.930140171770538 129 107 96
-0.06000939611619031 0.26457934138270545 -0.9331030257610594 128 104 93
-0.05883294560995098 0.2664816127901854 -0.9354278554667086 133 110 95
-0.05239323061446271 0.27587785107048923 -0.9334893974630606 133 109 92
-0.05075712158292988 0.27843268029872215 -0.9354142680900104 122 98 80
-0.0483038228201705 0.28215019286069626 -0.9366649212314263 114 88 72
-0.046692496529904 0.2846684038833146 -0.9385906517423958 103 76 59
-0.04569157424148257 0.2863173612214926 -0.9410087186321111 97 69 49
-0.046149013475247226 0.2858908596225034 -0.9446223877428634 95 66 46
-0.04304775887281934 0.2905275958867408 -0.9452998361914924 94 66 47
-0.049258733494363285 0.2819163786564102 -0.9536793871532463 93 65 46
-0.05246768856231974 0.27757750419716776 -0.9595983197349612 91 63 45
-0.05162431930642967 0.27900284183280966 -0.9621542227292327 90 61 43
-0.05331953465278303 0.2768182410986228 -0.9668322048014051 89 60 44
-0.05470765463762431 0.27507097499462374 -0.9712626577847517 88 61 44
-0.03659099710150773 0.301050775111871 -0.9592547029500252 89 62 45
-0.03300864501795721 0.3063654950496707 -0.9594412615805531 89 61 47
-0.03385748065544956 0.3053815812591564 -0.9633700570514334 88 60 48
-0.02980200568198811 0.31136671868865695 -0.9631268345770255 87 59 47
-0.02594571495731584 0.31706731321358 -0.9630314009295491 87 59 47
-0.02363141990469178 0.32057598322398245 -0.9642370350937934 86 60 47
-0.02004074838021165 0.3258966616646217 -0.964331930007732 85 59 45
-0.017817891575444084 0.32927349352851254 -0.9655878833007877 85 59 43
-0.015743708844955948 0.3324383895089715 -0.9669606567526612 85 59 42
-0.009438862026763417 0.34160891880698596 -0.9646455700593499 85 59 45
-0.005300760504229382 0.34770122887040555 -0.9641843341964538 86 60 47
-0.002460023702236608 0.35195055386371144 -0.9648350698825129 87 61 48
0.0007087697704707685 0.35666435785921385 -0.9651823349590665 86 63 50
0.00356293141346746 0.3609305119884607 -0.965789225931979 87 63 51
0.00791867703613923 0.36732593129561275 -0.9650539192949572 87 63 50
0.010768216742546424 0.3715830627199016 -0.9656293275057172 85 62 49
0.004005634574740596 0.3622059020605601 -0.9747362584894512 85 62 48
-0.0016000328576143558 0.3544721572048031 -0.9828508537389975 87 64 51
-0.0036243586337371264 0.35181881835778206 -0.9877933622949993 90 67 54
-0.012325079467388103 0.33970097608605215 -0.9987426863836466 96 73 60
-0.015960033456896436 0.33476757423599507 -1.0051800891550964 104 81 68
-0.0223871285709423 0.32587827648504086 -1.0141622465878755 110 87 74
-0.017296590123059757 0.3333136671572695 -1.0127416621451781 115 91 78
-0.00833471163165414 0.3462325244796936 -1.0077720473409866 116 90 78
-0.00531853232784571 0.3507243619465944 -1.0081755518253492 112 85 74
-0.0010262699860544566 0.3570226679185625 -1.0073946628262866 109 82 70
0.005120895519022006 0.36594648061340285 -1.0048869546301449 102 74 57
0.008802318718902968 0.37137605999514745 -1.0046152961836043 96 63 43
0.0126899298300438 0.37709617012489305 -1.00413270051356 92 55 28
0.01375760830816744 0.37882249669183277 -1.006241643779545 93 53 23
0.014010730818473191 0.379395416873313 -1.0091024027855995 94 51 20
0.012212572903308086 0.3770650390721829 -1.0138752396459503 95 50 21
0.015464203241553814 0.3818815730049213 -1.013935910604662 95 51 23
0.014924122315309651 0.38133183197077203 -1.0175361363764321 98 53 26
0.012266646487650815 0.3777868095136605 -1.0231330379988752 98 54 25
0.011309229877339386 0.3766476999920746 -1.027141195099714 99 59 26
0.010908946828317986 0.3762970024275372 -1.0306281224915577 106 67 32
0.011482718355815089 0.37732396365476534 -1.0331929871174905 111 73 39
0.011794563708382402 0.37798040376314146 -1.0360048656903909 114 76 47
0.016870819442371704 0.38537237356998794 -1.0342628287700122 114 78 48
0.016081747653678383 0.3844715362489906 -1.0381141208479125 114 79 49
0.015689940537690475 0.3841325369899525 -1.0415888459192404 112 77 48
0.015297816588043495 0.38379330233931663 -1.0450669396684498 116 82 55
0.013664811792863385 0.3817010039768499 -1.0497482739892432 122 88 61
0.013608721504617588 0.3818371679571631 -1.0529101140880317 119 88 60
0.011741373012309334 0.3794149588247205 -1.0578354184592957 116 85 58
0.011596150509351616 0.379425758640275 -1.0610917373687982 114 82 56
0.011592664155409688 0.37963682125415055 -1.0642109655912917 113 81 57
0.012131339247098624 0.38061343106454204 -1.0667987732877577 107 77 53
0.010260630673101442 0.37818849878801913 -1.0717565317291755 99 68 49
0.013777076800764912 0.3833684570154367 -1.0714061161244917 89 61 48
-0.020649024501775803 0.33499798931638675 -1.1086146697054533 73 46 35
-0.02281946345410813 0.33215799858418593 -1.113984070427979 69 44 33
0.013262006121795747 0.38328920516708287 -1.0812596573873212 66 40 32
0.013253913271911624 0.38349382620718003 -1.0843843086449998 81 54 45
0.011940984250228798 0.3818580162415998 -1.0888172929611935 81 54 42
0.011347984765930408 0.3812381165065744 -1.0925352262469266 90 63 52
0.01002404026871552 0.3795877979402633 -1.0969940910840916 80 51 38
0.007923286825409478 0.37684283891608683 -1.1022466261390136 80 46 32
0.00806517416881676 0.3772602503061335 -1.1052388979697998 82 46 30
0.01025438443211446 0.3805633732929412 -1.1061498836342623 84 48 32
0.010273473562065191 0.38080730847298694 -1.1092613425428606 91 56 36
0.010561269729631104 0.38142992721146096 -1.1120987666878699 93 58 37
0.010908024370424069 0.38213555200288485 -1.11487486648875 94 59 37
0.01111356312241693 0.3826421618810987 -1.117794951368162 95 60 38
0.011357976429445832 0.3832034990630405 -1.1206745564531146 100 66 42
0.0114640691304142 0.3835699971154999 -1.1236965718809993 106 72 47
0.010887225418217086 0.38297487090229754 -1.1274269605889464 104 73 45
0.009895405659993986 0.38179579327079405 -1.13159304879037 107 75 49
0.004416288253990333 0.3743004608365461 -1.1404451265067665 111 81 56
0.004300517575163157 0.37435623099276927 -1.1437213880581834 112 83 59
0.002415562698357382 0.3719223619855989 -1.1488543855547417 110 82 59
-0.0015460487655041405 0.36656728978032416 -1.1561829444179472 99 76 59
-0.004446410504660159 0.36270692661074333 -1.1624163815311526 94 75 61
-0.008144541784227272 0.3577255919654617 -1.1695111485858138 111 97 83
-0.011501240545973873 0.35322602771083766 -1.176266314809726 139 130 119
-0.01567891970301516 0.3475733603807716 -1.183914834746133 163 156 150
-0.02586995474967229 0.3334672594857681 -1.1979999091421056 179 175 172
-0.04579775233956006 0.30567677650631947 -1.2225550023389762 186 185 182
-0.0540111693682003 0.2943608920346083 -1.2346693843131222 189 188 186
0.03183390073612538 0.4154575330109311 -1.14880817015793 196 194 193
0.03393498955212161 0.4186235024653673 -1.1496219809229096 197 195 195
0.005492539788948467 0.3788795716185897 -1.183525364003355 198 197 195
-0.11888074606779706 0.20488750900067168 -1.3288987537863248 202 200 202
-0.11758919619879359 0.20719014483472076 -1.3345418625304506 204 202 203
-0.11177092996920397 0.21560143497855855 -1.3316625373409448 204 203 204
-0.10954470575982862 0.21896924912179513 -1.3327165062359614 204 204 204
0.05012835361930333 0.443480171295057 -1.1624742900798692 206 206 206
0.05036080015611631 0.4440169622867859 -1.1652552834639704 206 206 206
-0.09510873815651574 0.1461373694124338 -0.055800715107917176 182 180 183
-0.08313476482848563 0.16410181832670168 -0.05848897699490888 182 182 184
-0.07381044531650266 0.17813536700761884 -0.06122425041734408 182 182 184
-0.06381851873862661 0.19315473054822602 -0.06388088645836434 182 182 184
-0.05404927694447281 0.20784053979395942 -0.06649531050592565 155 150 149
-0.04764688810559653 0.21753530490534043 -0.06922531359694889 118 107 101
-0.043971374705432734 0.22318880356269158 -0.07206442546128575 120 101 91
-0.03933001952972487 0.23027138688559057 -0.07483151906884097 106 80 67
-0.02838782184491241 0.24668256026250157 -0.07721126969663752 100 72 54
-0.026555864619381808 0.24960102474587798 -0.08008277224820524 93 65 44
-0.022947562549198483 0.2551486071978781 -0.08283328083311794 96 65 44
-0.02245171645462543 0.2560877235405146 -0.08576962986563975 97 66 46
-0.021203043565563615 0.2581409316914786 -0.0886525889868401 96 66 48
-0.019160971214476963 0.261367855697327 -0.09147322342333154 96 68 50
-0.01837921662260901 0.26272920133119315 -0.09437655460767705 98 71 54
-0.017857352334852 0.2637058002705473 -0.09729628001648924 98 70 58
-0.01791211139516881 0.2638292493156873 -0.1002595375730843 104 76 64
-0.00915416141679895 0.27698789818860625 -0.10250323725594487 110 82 70
-0.005322087662723338 0.2828582596082886 -0.10511665891007052 113 84 70
-0.0026860519107115427 0.28695859952657254 -0.10781445144805124 108 79 64
-0.006215667562677871 0.2819416505600153 -0.1110525928108845 107 76 65
-0.006299470631625073 0.2820203045049907 -0.11399166452119652 107 75 60
-0.0033076603645574437 0.28664541467324467 -0.11663915075158662 106 72 55
-0.0007636855523434627 0.2906075564429112 -0.11931511825600324 112 74 55
0.006587935887308938 0.3016736873497067 -0.12149467972196132 116 79 59
0.007657117885622608 0.30345392749146394 -0.1242840926608176 133 99 79
0.010467988452349752 0.307807092360852 -0.12688396584528863 131 99 78
0.01193927543310308 0.3101803319690913 -0.1296149497916584 115 82 59
0.012857454726619005 0.31173608596147623 -0.13240030177319528 94 56 33
0.01446438510645262 0.3143087649742836 -0.13510290591451302 87 48 22
0.018198244297961436 0.3200217633480302 -0.13754937267180073 88 51 25
0.02222985534057134 0.3261730613333496 -0.13994090426346645 85 49 26
0.019179598695331243 0.3218676425613676 -0.14317598213204916 81 49 27
0.013563266021510215 0.3137754767962723 -0.1467483672695122 77 51 34
0.008037804827126446 0.30581957422945927 -0.1503401335750574 78 57 44
0.002064729720287331 0.29720519641757304 -0.15402064677275476 77 57 46
-0.00294424435321472 0.29001571859258735 -0.1576059851740234 77 57 46
0.013359716003011432 0.31427352026402416 -0.1583300956060632 77 57 46
0.008030600732720855 0.3066116234221372 -0.16195768871734237 76 58 46
0.010496071493101264 0.31044908490138623 -0.16451615331465108 76 58 46
0.009164577474465238 0.30868571132977307 -0.16760742981654186 75 57 47
0.016731277953213983 0.3200447553489344 -0.16940446610197069 75 57 47
0.007079094351846421 0.3060121220106203 -0.17372762222836297 76 58 48
0.004702246673262994 0.3027091209821321 -0.17699967226216845 76 57 47
0.003519134147890471 0.30116675016113437 -0.18010092192563837 77 57 46
-0.00010991997868262104 0.29601974719966306 -0.18359363201988796 77 57 46
-0.0005218734953700843 0.2956152992100617 -0.18659245606651234 80 60 49
-0.0026841242298189516 0.2926319096638129 -0.1898787263499109 82 62 51
-0.006995156033219055 0.2864834489475091 -0.19353248295858294 82 62 51
-0.00822968373511164 0.28486887382184556 -0.19669358757649139 82 62 51
-0.0103982919428411 0.28187892232461204 -0.2000215016494699 83 63 52
-0.011207870727464778 0.2808914103746649 -0.2031262834159612 83 63 52
-0.011789843502221481 0.2802394273679915 -0.20619610693663504 81 61 50
-0.019046713095887208 0.26975942156718524 -0.21046306952109034 80 60 49
-0.005180203587646162 0.29038084158272603 -0.21093670239392492 82 62 51
-0.007822008060820881 0.2866960307903814 -0.21437652006518637 80 60 49
-0.010327276329538851 0.28321322206231225 -0.21780586073622307 84 64 53
-0.011727289948077438 0.28135798027354986 -0.22103995254833342 85 64 53
-0.013281682900910488 0.27927614582662574 -0.22431205484668645 87 66 55
-0.015788978866089126 0.275792935358883 -0.22777915281338157 88 67 56
-0.024930098562775796 0.2625515928268922 -0.23257228424022428 88 67 56
-0.0276140372636985 0.25881177740297895 -0.23612144511409758 89 69 57
-0.02409128715143151 0.26420145092126746 -0.23842500301347516 86 66 53
-0.03176183927491032 0.2531295056977031 -0.24301451554519293 92 71 57
-0.0347533874157413 0.2489403368454655 -0.24667045876122487 95 75 61
-0.03625915479508733 0.24693670489827382 -0.25002945694691214 97 78 63
-0.037819159782881126 0.24485396120126585 -0.2534089924023965 98 79 65
-0.03796400418901735 0.24485186270958148 -0.25649105624402285 99 79 67
-0.040088714517901206 0.2419402291472092 -0.26000912607660437 99 80 70
-0.04127571107333783 0.24040734833432897 -0.2633311782339767 103 84 75
-0.044007408986115895 0.23660542866680456 -0.2670078051077767 110 90 82
-0.044317907395570524 0.2363614561224589 -0.2701489943377488 114 94 86
-0.04350090670347502 0.23777379610508695 -0.27303295731062394 113 95 85
-0.04555778919720878 0.23496507726279312 -0.27658294456998683 110 93 84
-0.04762278116671588 0.23214527565390308 -0.2801467963754902 106 90 83
-0.04884196672604542 0.23056820122776311 -0.28352094760111474 100 86 79
-0.051315034653371935 0.22715079802559174 -0.28720493018795845 100 88 81
-0.05367751340656524 0.2238967147186265 -0.2908761697028906 120 109 103
-0.05385813926773565 0.22384595782705927 -0.29402291201514885 128 117 113
-0.05390042902811485 0.22399833701557922 -0.2971369127283723 153 142 138
-0.05423817721567066 0.22371724160700257 -0.30032639617191564 156 144 140
-0.053520052641883885 0.2249854729781608 -0.3032494416396805 121 107 103
-0.052840646214583356 0.22619668830516293 -0.3061793154370165 105 89 83
-0.052092479205959843 0.22750855861318733 -0.3090883601385528 105 88 79
-0.0582545729953465 0.21868556871654588 -0.31381143802815537 99 79 70
-0.05850509882601488 0.21853378314668567 -0.31699808449534317 99 77 67
-0.05964470244837312 0.2170785537847698 -0.3204255447348291 101 78 67
-0.0613554721893536 0.21478645509026506 -0.32401488827200214 110 84 71
-0.05984744214809376 0.21721333966652517 -0.3267326976341947 114 87 76
-0.058819525272506105 0.21893602472886206 -0.329575867564427 115 93 83
-0.05508111218494153 0.22463053906989872 -0.33165697368225183 121 105 98
-0.05086938666291886 0.23101723383190292 -0.333584910548424 126 116 115
-0.0429858547239174 0.2427819446280911 -0.3344447554491917 178 174 178
-0.07169290694464689 0.20094188317920067 -0.3457844789614226 181 180 183
-0.0811245116334681 0.18734584096763934 -0.3516862755239829 180 180 182
-0.09459782483809596 0.1678342124090599 -0.35882479954289515 180 180 182
-0.10413185035705802 0.15409619349504844 -0.36487270135969707 180 180 182
-0.050165745127635566 0.23355045877076452 -0.3551265024171593 180 180 182
-0.05510139878665358 0.2265405888177836 -0.3597356573349042 180 180 182
-0.05562896908968476 0.22598424423697738 -0.36302057956340106 180 180 182
-0.061278576056684304 0.217932586608588 -0.3678942115031431 180 180 182
-0.0589802798682957 0.2215125444351887 -0.3703182797999346 180 180 182
-0.05802699791233196 0.22312390726042292 -0.3731541278547691 180 180 182
-0.06075199973552436 0.2193542675095016 -0.3771540321492883 180 180 180
-0.05983155748623519 0.22091768021398317 -0.3800015964463425 179 181 179
-0.06142035412713116 0.21881116472652895 -0.3836557785025022 161 156 155
-0.059017210363695616 0.22254255762465253 -0.386018479468583 101 90 87
-0.05624060100719234 0.22681912637250282 -0.3882460415682211 96 81 75
-0.05430024203501135 0.2298721984251568 -0.390736272109572 103 85 78
-0.04683493811870838 0.24100034802428857 -0.3913705625171439 101 83 73
-0.04089471656882014 0.24989681004731235 -0.3924784103622624 92 72 61
-0.036391676160563824 0.2566909026397558 -0.3940425112931207 99 78 68
-0.03201745823072259 0.26329511395068395 -0.39562675104929673 99 77 65
-0.027331491733157798 0.27035316080926186 -0.3970801328513047 97 74 61
-0.023802805868648275 0.27571899307244774 -0.3989111054327094 96 73 61
-0.02182674399341064 0.27881585017066823 -0.4012678169200993 97 74 62
-0.01662738578293224 0.28661918716606005 -0.40247541952311233 96 67 51
-0.01818208944069999 0.2845585115144572 -0.4060604141631984 93 61 42
-0.013427575941461031 0.2917098193625205 -0.4073905484249279 88 56 36
-0.014167566233086334 0.29083854254971886 -0.4106821911151225 90 58 37
-0.01877704997542297 0.28431968219191117 -0.41538859341152007 104 72 51
-0.01585627715074142 0.2887923665876859 -0.41735659313437157 99 68 47
-0.013908298865578247 0.2918444700587426 -0.41966908139619674 87 55 34
-0.01512150508139587 0.2902836202492447 -0.42314955487172756 88 53 31
-0.004906140938639322 0.30539574006943104 -0.4223473322696126 86 52 28
-0.005881051990191316 0.3041813317817877 -0.42572108750521626 89 53 29
-0.007699655833823177 0.30173685529858985 -0.42942232997175683 87 50 27
-0.007263122340581046 0.3025817196567701 -0.43226915470367666 90 56 34
-0.01414643117917029 0.2927535682901938 -0.43794281524288814 93 66 45
-0.018412268047184766 0.2867440724690289 -0.44263655571501803 101 79 63
-0.024198445919080033 0.27852005942777647 -0.4479504647559066 118 105 96
-0.02978571603033897 0.27058821512640086 -0.45321856620444784 156 153 150
-0.03628223520957652 0.26133349264134087 -0.45887966436889305 183 183 183
-0.03447441844366078 0.26418175411653577 -0.46125390283185735 181 182 184
-0.027798936911606856 0.27412124395937043 -0.4616573810208895 181 182 184
-0.026758753860695192 0.27584905813273153 -0.46431120381875995 181 182 184
-0.13198360564396983 0.13850582120950256 -0.7377263891875011 198 199 201
-0.13364940289405025 0.13633780421678415 -0.742145102853785 199 200 202
-0.13382733742785885 0.136317868024756 -0.7456800592039223 200 201 203
-0.06655626834242268 0.23363145386388529 -0.708500193467124 201 202 204
-0.0438095495990465 0.26667600682326453 -0.6979458167626167 201 202 204
-0.06931250353709631 0.23010304766167897 -0.7166624420990816 202 203 205
-0.08912077202631813 0.2017545510948037 -0.7320376644995692 203 204 206
-0.1099254070318451 0.171976769441501 -0.7481379238628403 204 205 207
-0.11211153438208626 0.1690567808881101 -0.7528548142218179 205 205 207
-0.10483670886698357 0.17977944470342525 -0.7517138258701672 206 206 208
-0.10640923053424768 0.17774407233374584 -0.7560478920344749 206 207 209
-0.0843923741200911 0.20971369663080955 -0.7456202218547642 207 208 210
-0.1099981874785674 0.17536738137827965 -0.7987717027261665 210 210 212
-0.10780927528609922 0.17875110772751726 -0.8007063116572692 209 209 211
-0.10634717018394076 0.18108818124227868 -0.8031111912967235 209 209 211
-0.10451269880155772 0.18396049505397485 -0.8052607641951193 209 209 211
-0.10268348464485054 0.18682458773097327 -0.8074043264711713 209 209 211
-0.10085939532476365 0.18968065253367175 -0.8095418302505171 208 208 210
-0.0670944212957323 0.23847319679043077 -0.7901351168478399 209 209 211
-0.07340882318825806 0.22961858088328013 -0.7976733090516238 209 208 210
-0.07951813152723786 0.22106137670829668 -0.8051086506304306 192 190 192
-0.08530198241382912 0.21297450059229742 -0.8123572402527287 154 149 151
-0.08833410559663532 0.20884530639126167 -0.8177530343534876 126 117 116
-0.09281387364978633 0.20263678254875084 -0.8241633655184024 110 98 92
-0.09667523068463221 0.19731873941897876 -0.8301724879421244 104 90 80
-0.07632350574871168 0.22679215642207856 -0.8193995653762971 97 81 70
-0.07384072357038463 0.23058666761679067 -0.8209644518967688 94 77 66
-0.06701055910538284 0.24062497373866917 -0.8194741811036304 93 73 62
-0.0636909515722883 0.2456186781432329 -0.8204123174572597 92 70 57
-0.05588018939061257 0.2570606060511362 -0.8181644452314049 91 69 55
-0.05466931692615985 0.25902312985487175 -0.820547255668222 91 68 54
-0.05519136681131465 0.2584973730721295 -0.8241562294880004 91 66 52
-0.05659816288923777 0.2567018696608195 -0.8284006137416113 88 62 47
-0.05196872621308093 0.2635704963126567 -0.8283273739765789 88 61 45
-0.05386259536822979 0.26107604866742656 -0.8329227300542408 87 60 43
-0.05196819003915176 0.2640180459364263 -0.8347929132607571 86 58 42
-0.050488525174177255 0.26636434255728375 -0.8369539459488752 84 56 42
-0.04637684233428913 0.2724856579794158 -0.8371909693976328 83 55 41
-0.04355496430064368 0.2767554844951244 -0.8383482173618736 83 56 39
-0.03778792540698 0.2852478368324158 -0.8373290486953783 86 57 41
-0.04842343614516705 0.27021873127396184 -0.848360836316134 90 59 40
-0.050828901723097536 0.2669931231638495 -0.8533678826649895 93 61 38
-0.052065436878688545 0.26544416131023985 -0.8575216969182484 96 62 37
-0.03544921149200269 0.28948387604862885 -0.8483796055322075 100 64 36
-0.03495517425368138 0.29041255362517326 -0.8512037508024608 103 67 35
-0.02838045445094068 0.3000540628838971 -0.8494599524153316 109 72 39
-0.026391107158368163 0.3031235912876571 -0.8511356769321381 113 76 46
-0.024643359098720202 0.3058463008523164 -0.8529836572698445 113 77 47
-0.02342776375066878 0.3078061736670052 -0.8552266159843476 112 80 52
-0.02359774011534052 0.30778133824929754 -0.8585196633166893 113 85 62
-0.029776162515066977 0.2991530823632387 -0.866411856224427 114 88 69
-0.026211425198201993 0.3044767076368128 -0.8668573198133508 116 92 77
-0.02712733097374219 0.30338488042255807 -0.8707371895214172 115 95 84
-0.038998860787864915 0.2866125057282985 -0.8830996336431169 118 101 94
