ply
format ascii 1.0
element vertex 853
property float x
property float y
property float z
property float nx
property float ny
property float nz
property uchar diffuse_red
property uchar diffuse_green
property uchar diffuse_blue
property uchar class
property uchar detection
end_header
-0.0362 0.1040 -0.3483 -0.986 -0.162 0.044 44 31 22 0 0
-0.0557 0.1025 -0.3732 -0.984 0.176 0.030 75 53 45 0 0
-0.0942 0.0857 -0.8751 -0.971 -0.205 -0.122 80 58 40 0 0
-0.0823 0.0849 -0.9165 -0.857 -0.507 0.086 64 44 33 0 0
-0.1601 0.0746 -1.1549 -0.909 -0.188 -0.373 77 56 41 0 0
-0.1583 0.0746 -1.1592 -0.909 -0.188 -0.373 69 52 40 0 0
-0.1584 0.0745 -1.1625 -0.964 -0.194 -0.180 81 71 59 0 0
-0.1574 0.0744 -1.1663 -0.969 -0.070 -0.236 114 107 95 0 0
0.0221 0.1236 0.1191 -0.389 -0.359 0.848 184 184 184 0 0
0.0069 0.1227 0.1090 -0.783 -0.073 0.617 117 100 91 0 0
-0.0498 0.1184 0.0434 -0.944 0.307 0.119 47 20 9 0 0
-0.0422 0.1158 -0.0524 -0.813 0.412 0.412 15 10 9 0 0
-0.1113 0.1112 -0.1097 -0.873 -0.311 0.376 72 52 41 0 0
-0.1127 0.1111 -0.1126 -0.825 -0.372 0.425 74 54 44 0 0
-0.1265 0.1096 -0.1440 -0.965 0.133 -0.225 44 21 11 0 0
-0.1268 0.1094 -0.1469 -0.990 0.028 0.140 48 29 22 0 0
-0.1107 0.1095 -0.1657 -0.971 -0.238 0.034 51 42 37 0 0
-0.0647 0.1095 -0.2300 -0.889 -0.078 0.451 51 40 36 0 0
-0.0750 0.1086 -0.2472 -0.512 -0.553 0.657 53 40 34 0 0
-0.0620 0.1083 -0.2732 -0.850 0.527 0.008 47 32 25 0 0
-0.0582 0.1082 -0.2830 -0.982 0.179 0.064 48 33 26 0 0
-0.0593 0.1080 -0.2859 -0.994 -0.104 -0.022 45 30 23 0 0
-0.0592 0.1080 -0.2890 -0.994 -0.104 -0.022 45 30 23 0 0
-0.0627 0.1077 -0.2916 -0.831 -0.540 -0.134 42 27 20 0 0
-0.0390 0.1069 -0.3511 -0.998 -0.026 -0.052 46 30 20 0 0
-0.0592 0.1054 -0.3727 -0.999 0.030 -0.011 70 53 43 0 0
-0.0580 0.1054 -0.3760 -0.896 -0.167 0.411 70 49 38 0 0
-0.1089 0.1018 -0.4249 -0.955 -0.283 -0.089 60 31 13 0 0
-0.0065 0.1046 -0.4721 -0.647 -0.009 -0.762 66 49 35 0 0
-0.0091 0.1044 -0.4748 -0.696 -0.700 -0.156 68 47 34 0 0
-0.0489 0.0939 -0.7692 -0.833 -0.416 -0.366 80 53 32 0 0
-0.0937 0.0886 -0.8820 -0.965 -0.149 0.218 78 55 39 0 0
-0.0832 0.0879 -0.9228 -0.828 -0.509 0.234 73 51 38 0 0
-0.0746 0.0872 -0.9567 -0.623 -0.596 0.506 73 47 29 0 0
-0.0752 0.0871 -0.9597 -0.610 -0.692 0.385 80 54 38 0 0
-0.1677 0.0815 -1.0178 -0.935 -0.256 0.247 67 34 14 0 0
-0.1756 0.0807 -1.0328 -0.952 -0.298 0.068 75 43 24 0 0
-0.1602 0.0777 -1.1550 -0.885 -0.344 -0.312 79 57 42 0 0
-0.1599 0.0776 -1.1585 -0.914 -0.252 -0.319 68 50 37 0 0
-0.1591 0.0775 -1.1622 -0.986 -0.133 -0.095 79 67 57 0 0
-0.1581 0.0774 -1.1661 -0.977 -0.066 -0.205 107 98 89 0 0
-0.0487 0.1213 0.0404 -0.990 -0.117 0.082 46 19 7 0 0
-0.0523 0.1202 0.0076 -0.997 0.068 -0.033 49 26 13 0 0
-0.0469 0.1187 -0.0493 -0.948 -0.245 -0.203 18 8 5 0 0
-0.1119 0.1141 -0.1097 -0.882 -0.249 0.401 75 55 44 0 0
-0.1140 0.1140 -0.1126 -0.825 -0.372 0.425 73 53 44 0 0
-0.1151 0.1138 -0.1155 -0.841 -0.290 0.457 89 71 64 0 0
-0.1282 0.1124 -0.1440 -0.981 -0.166 -0.096 44 20 10 0 0
-0.1102 0.1123 -0.1747 -0.901 -0.207 0.380 53 42 38 0 0
-0.0780 0.1123 -0.2196 -0.697 -0.574 -0.430 50 39 35 0 0
-0.0699 0.1124 -0.2265 -0.970 -0.068 -0.234 50 39 35 0 0
-0.0660 0.1125 -0.2300 -0.879 -0.335 0.340 49 38 34 0 0
-0.0780 0.1116 -0.2439 -0.531 -0.490 0.691 51 38 32 0 0
-0.0602 0.1114 -0.2736 -0.965 0.232 -0.125 47 32 25 0 0
-0.0582 0.1114 -0.2769 -0.964 0.204 -0.173 46 31 25 0 0
-0.0577 0.1113 -0.2801 -0.964 0.204 -0.173 42 27 21 0 0
-0.0593 0.1111 -0.2860 -0.941 -0.311 0.129 44 29 23 0 0
-0.0404 0.1099 -0.3542 -0.996 -0.071 0.058 38 25 19 0 0
-0.0588 0.1085 -0.3729 -0.987 0.016 0.157 70 53 43 0 0
-0.0586 0.1084 -0.3760 -0.896 -0.167 0.411 63 44 35 0 0
-0.0913 0.1060 -0.4102 -0.835 -0.186 -0.518 104 88 78 0 0
-0.0902 0.1060 -0.4135 -0.914 -0.070 -0.400 115 98 85 0 0
-0.1107 0.1049 -0.4185 -0.826 -0.305 0.474 64 33 12 0 0
-0.0141 0.1073 -0.4770 -0.740 -0.392 0.547 63 40 28 0 0
-0.0114 0.1058 -0.5327 -0.829 -0.545 0.126 70 44 28 0 0
0.0020 0.0982 -0.8053 -0.386 0.894 -0.227 69 42 25 0 0
-0.1394 0.0869 -0.9777 -0.947 0.186 0.263 112 98 89 0 0
-0.1398 0.0868 -0.9808 -0.774 -0.143 0.616 108 94 85 0 0
-0.1620 0.0847 -1.0210 -0.738 0.606 0.297 64 32 12 0 0
-0.1769 0.0837 -1.0323 -0.910 -0.168 0.378 74 41 22 0 0
-0.1780 0.0836 -1.0349 -0.910 -0.168 0.378 76 50 34 0 0
-0.1593 0.0806 -1.1623 -0.947 -0.199 -0.254 75 62 50 0 0
-0.1583 0.0805 -1.1663 -0.947 -0.199 -0.254 102 93 82 0 0
0.0064 0.1288 0.1089 -0.914 -0.209 0.349 117 95 85 0 0
0.0035 0.1286 0.1057 -0.514 -0.710 0.481 113 85 74 0 0
-0.0521 0.1233 0.0105 -0.988 0.135 -0.073 53 30 14 0 0
-0.1125 0.1170 -0.1098 -0.980 -0.009 0.198 82 62 51 0 0
-0.1143 0.1169 -0.1126 -0.853 -0.119 0.508 75 55 45 0 0
-0.1267 0.1163 -0.1150 -0.697 0.090 0.712 93 76 68 0 0
-0.1258 0.1162 -0.1179 -0.821 -0.279 0.499 155 142 135 0 0
-0.1272 0.1161 -0.1208 -0.913 -0.278 0.300 129 116 109 0 0
-0.1278 0.1160 -0.1237 -0.903 -0.421 0.088 128 112 104 0 0
-0.1101 0.1152 -0.1749 -0.977 -0.019 0.214 53 42 38 0 0
-0.0709 0.1144 -0.2601 -0.916 -0.393 -0.075 50 35 28 0 0
-0.0692 0.1144 -0.2633 -0.933 -0.226 -0.279 50 35 28 0 0
-0.0686 0.1141 -0.2726 -0.982 -0.171 -0.083 47 32 25 0 0
-0.0638 0.1130 -0.3194 -0.965 0.175 0.193 45 21 11 0 0
-0.0437 0.1116 -0.3945 -0.400 -0.900 -0.176 62 41 34 0 0
-0.0909 0.1091 -0.4073 -0.882 -0.110 0.458 77 57 46 0 0
-0.0922 0.1090 -0.4101 -0.949 -0.114 0.293 102 84 74 0 0
-0.0934 0.1089 -0.4129 -0.913 -0.221 0.342 113 97 84 0 0
-0.0159 0.1104 -0.4767 -0.677 -0.577 0.457 63 39 27 0 0
-0.0184 0.1102 -0.4794 -0.522 -0.848 -0.096 62 38 26 0 0
-0.0178 0.1045 -0.6717 -0.515 -0.841 0.165 74 42 21 0 0
-0.0236 0.1036 -0.6929 -0.585 -0.798 -0.145 73 38 18 0 0
-0.0330 0.1027 -0.7095 -0.754 -0.649 0.097 76 44 23 0 0
-0.1192 0.0912 -0.9685 -0.835 -0.181 0.519 107 90 82 0 0
-0.1386 0.0900 -0.9784 -0.934 0.249 0.257 112 98 89 0 0
-0.1397 0.0899 -0.9811 -0.962 0.105 0.251 111 97 88 0 0
-0.1643 0.0879 -1.0136 -0.992 0.017 -0.122 56 27 11 0 0
-0.1639 0.0878 -1.0170 -0.992 0.017 -0.122 58 29 11 0 0
-0.1582 0.0878 -1.0232 -0.901 0.406 -0.155 61 30 11 0 0
-0.1765 0.0867 -1.0328 -1.000 0.002 0.002 73 40 23 0 0
-0.1768 0.0866 -1.0358 -0.994 0.042 0.103 74 48 31 0 0
0.0004 0.1316 0.1084 -0.737 -0.610 0.293 116 90 80 0 0
-0.0534 0.1280 0.0697 -0.757 -0.517 -0.399 48 23 11 0 0
-0.0483 0.1274 0.0403 -0.989 0.109 0.096 49 23 10 0 0
-0.0484 0.1244 -0.0615 -0.737 0.114 0.666 29 17 13 0 0
-0.0511 0.1241 -0.0645 -0.737 0.114 0.666 53 36 33 0 0
-0.0625 0.1234 -0.0732 -0.685 -0.001 0.728 73 56 48 0 0
-0.1111 0.1201 -0.1100 -0.934 0.106 0.342 74 53 44 0 0
-0.1143 0.1198 -0.1127 -0.781 -0.019 0.624 72 52 42 0 0
-0.1270 0.1191 -0.1179 -0.886 -0.447 0.125 142 129 124 0 0
-0.1281 0.1190 -0.1208 -0.913 -0.278 0.300 122 109 103 0 0
-0.1290 0.1188 -0.1237 -0.913 -0.278 0.300 131 116 110 0 0
-0.0753 0.1183 -0.2262 -0.860 -0.510 0.034 48 37 33 0 0
-0.0737 0.1181 -0.2324 -0.931 -0.319 -0.179 47 36 32 0 0
-0.0735 0.1173 -0.2599 -0.721 -0.673 0.167 48 35 28 0 0
-0.0725 0.1173 -0.2630 -0.825 -0.522 0.219 48 34 28 0 0
-0.0685 0.1172 -0.2727 -0.962 0.025 0.273 46 32 26 0 0
-0.0703 0.1169 -0.2786 -0.984 -0.121 0.131 47 32 27 0 0
-0.0708 0.1168 -0.2816 -0.989 -0.128 0.073 44 29 24 0 0
-0.0608 0.1171 -0.2860 -0.966 -0.254 0.054 43 28 23 0 0
-0.0619 0.1169 -0.2920 -0.951 -0.161 0.265 41 26 22 0 0
-0.0633 0.1161 -0.3165 -0.927 0.321 -0.193 46 21 11 0 0
-0.0137 0.1138 -0.4709 -0.634 -0.692 0.344 63 41 30 0 0
-0.0155 0.1137 -0.4737 -0.665 -0.681 0.305 60 36 24 0 0
-0.0181 0.1135 -0.4764 -0.671 -0.587 0.452 61 38 24 0 0
-0.0205 0.1133 -0.4791 -0.633 -0.747 -0.202 61 37 24 0 0
-0.0103 0.1105 -0.5887 -0.952 -0.297 0.074 67 40 23 0 0
-0.0214 0.1076 -0.6707 -0.502 -0.855 0.129 74 40 20 0 0
-0.0266 0.1072 -0.6756 -0.994 0.081 0.071 73 39 19 0 0
-0.0265 0.1070 -0.6822 -0.803 -0.551 0.225 73 38 18 0 0
-0.0379 0.1043 -0.7540 -0.789 -0.416 0.453 60 30 12 0 0
-0.0379 0.1043 -0.7573 -0.892 -0.391 0.227 60 32 13 0 0
-0.0375 0.1042 -0.7608 -0.973 0.231 0.023 57 30 11 0 0
-0.1221 0.0940 -0.9738 -0.807 -0.467 0.361 108 93 84 0 0
-0.1512 0.0920 -0.9948 -0.611 -0.299 0.733 83 69 62 0 0
-0.1551 0.0918 -0.9960 -0.413 -0.148 0.899 72 55 45 0 0
-0.1643 0.0910 -1.0106 -0.898 0.283 0.336 56 27 13 0 0
-0.1644 0.0909 -1.0138 -0.892 -0.406 -0.198 56 27 11 0 0
-0.1764 0.0898 -1.0330 -0.994 0.042 0.103 71 38 20 0 0
-0.1767 0.0897 -1.0360 -0.994 0.042 0.103 72 46 31 0 0
-0.1749 0.0888 -1.0692 -0.951 -0.066 -0.303 69 50 42 0 0
-0.1736 0.0887 -1.0731 -0.951 -0.066 -0.303 67 49 40 0 0
-0.0531 0.1279 -0.0375 -0.994 -0.000 0.112 51 29 16 0 0
-0.0508 0.1276 -0.0495 -0.850 -0.527 0.010 31 15 9 0 0
-0.1116 0.1230 -0.1100 -0.791 -0.409 0.456 79 59 52 0 0
-0.1138 0.1228 -0.1128 -0.660 -0.503 0.559 92 72 65 0 0
-0.0628 0.1198 -0.2951 -0.947 -0.102 -0.304 39 24 19 0 0
-0.0173 0.1168 -0.4735 -0.778 -0.429 0.460 53 30 17 0 0
-0.0205 0.1165 -0.4760 -0.605 -0.686 0.404 57 34 21 0 0
-0.0213 0.1151 -0.5241 -0.939 -0.342 0.033 60 35 19 0 0
-0.0219 0.1149 -0.5304 -0.954 -0.298 0.029 62 36 19 0 0
-0.0103 0.1141 -0.5758 -0.996 0.012 0.088 65 37 23 0 0
-0.0089 0.1140 -0.5794 -0.988 0.152 0.023 66 38 24 0 0
-0.0090 0.1139 -0.5827 -0.988 0.152 0.023 66 38 24 0 0
-0.0087 0.1138 -0.5860 -0.986 -0.148 -0.081 67 40 23 0 0
-0.0379 0.1087 -0.7147 -0.933 -0.330 0.144 66 33 13 0 0
-0.0383 0.1086 -0.7179 -0.933 -0.330 0.144 64 32 13 0 0
-0.0802 0.1038 -0.8134 -0.546 -0.230 0.805 59 32 13 0 0
-0.1051 0.1007 -0.8778 -0.972 -0.231 -0.041 79 56 41 0 0
-0.0892 0.0992 -0.9539 -0.764 0.253 0.594 67 44 25 0 0
-0.1261 0.0968 -0.9785 -0.802 -0.357 0.479 108 94 85 0 0
-0.1457 0.0956 -0.9881 -0.714 -0.167 0.680 103 88 80 0 0
-0.1558 0.0949 -0.9959 -0.413 -0.148 0.899 74 57 48 0 0
-0.1641 0.0939 -1.0141 -0.907 -0.345 -0.241 56 27 12 0 0
-0.1630 0.0939 -1.0179 -0.864 -0.385 -0.325 57 28 12 0 0
-0.1738 0.0917 -1.0733 -0.951 -0.066 -0.303 70 52 43 0 0
-0.1791 0.0899 -1.1284 -0.969 0.242 0.055 83 59 40 0 0
-0.1797 0.0897 -1.1345 -0.919 -0.132 0.371 84 61 43 0 0
-0.0395 0.1353 0.0910 -0.875 -0.074 0.479 109 82 63 0 0
-0.0506 0.1309 -0.0406 -0.999 -0.025 -0.041 46 22 11 0 0
-0.1125 0.1259 -0.1101 -0.848 -0.343 0.404 91 72 65 0 0
-0.1154 0.1257 -0.1128 -0.692 -0.380 0.614 91 71 65 0 0
-0.1365 0.1240 -0.1351 -0.979 -0.091 0.180 51 26 12 0 0
-0.1379 0.1237 -0.1408 -0.973 0.068 0.220 47 25 13 0 0
-0.0665 0.1227 -0.2947 -0.874 -0.372 -0.313 35 20 15 0 0
-0.0500 0.1216 -0.3593 -0.997 0.067 -0.050 28 17 13 0 0
-0.0616 0.1206 -0.3760 -0.826 -0.082 0.558 56 39 29 0 0
-0.0886 0.1186 -0.3988 -0.567 0.039 0.823 49 25 15 0 0
-0.0238 0.1183 -0.5172 -0.870 -0.303 0.389 55 31 19 0 0
-0.0219 0.1182 -0.5241 -0.970 0.108 0.217 55 31 18 0 0
-0.0233 0.1174 -0.5497 -0.989 -0.147 0.030 59 33 19 0 0
-0.0234 0.1173 -0.5529 -0.989 -0.147 0.030 62 36 21 0 0
-0.0235 0.1172 -0.5561 -0.989 -0.147 0.030 62 36 21 0 0
-0.0265 0.1143 -0.6498 -0.963 -0.172 0.205 82 47 25 0 0
-0.0266 0.1142 -0.6530 -0.983 -0.104 0.151 82 47 25 0 0
-0.0287 0.1135 -0.6753 -0.960 -0.140 0.243 70 35 15 0 0
-0.0307 0.1133 -0.6779 -0.897 0.059 0.439 69 35 15 0 0
-0.0382 0.1114 -0.7312 -0.987 0.085 -0.135 60 31 13 0 0
-0.0393 0.1111 -0.7374 -0.977 -0.211 -0.040 58 29 11 0 0
-0.0410 0.1110 -0.7401 -0.948 -0.229 0.223 55 26 8 0 0
-0.0604 0.1087 -0.7854 -0.982 0.174 0.080 56 28 13 0 0
-0.1123 0.1040 -0.8586 -0.898 0.304 0.317 73 42 21 0 0
-0.1133 0.1039 -0.8614 -0.898 0.304 0.317 75 49 30 0 0
-0.1066 0.1038 -0.8773 -0.919 -0.392 -0.040 77 54 40 0 0
-0.1190 0.1004 -0.9725 -0.993 -0.070 -0.093 104 90 82 0 0
-0.1653 0.0969 -1.0137 -0.907 -0.345 -0.241 56 27 12 0 0
-0.1642 0.0969 -1.0175 -0.962 -0.248 -0.115 57 28 12 0 0
-0.0394 0.1383 0.0910 -0.923 0.144 0.357 91 60 36 0 0
-0.0454 0.1371 0.0580 -0.988 0.138 0.070 48 25 11 0 0
-0.0396 0.1373 0.0553 -0.993 0.054 0.109 48 25 11 0 0
-0.0400 0.1372 0.0523 -0.985 0.085 0.150 47 24 10 0 0
-0.0404 0.1371 0.0493 -0.988 0.020 0.152 46 23 9 0 0
-0.0406 0.1370 0.0463 -0.995 -0.028 0.098 46 21 8 0 0
-0.0518 0.1337 -0.0467 -0.915 0.322 0.242 39 19 10 0 0
-0.0673 0.1322 -0.0733 -0.669 -0.520 0.531 84 67 62 0 0
-0.1125 0.1288 -0.1101 -0.858 -0.383 0.342 99 81 73 0 0
-0.1368 0.1269 -0.1351 -0.979 -0.091 0.180 49 25 10 0 0
-0.1423 0.1261 -0.1522 -0.914 -0.348 -0.209 47 38 33 0 0
-0.0739 0.1258 -0.2815 -0.864 -0.426 -0.268 42 28 23 0 0
-0.0683 0.1257 -0.2946 -0.815 -0.419 -0.401 37 22 17 0 0
-0.0660 0.1246 -0.3350 -0.708 -0.571 -0.416 41 29 23 0 0
-0.0842 0.1218 -0.3998 -0.447 -0.512 0.734 48 24 14 0 0
-0.1139 0.1195 -0.4276 -0.983 -0.136 0.126 53 24 10 0 0
-0.0256 0.1226 -0.4751 -0.610 -0.723 0.326 50 28 17 0 0
-0.0206 0.1215 -0.5214 -0.968 0.042 0.246 51 29 18 0 0
-0.0214 0.1214 -0.5244 -0.966 0.102 0.238 51 29 17 0 0
-0.0271 0.1175 -0.6497 -0.963 -0.172 0.205 80 46 23 0 0
-0.0269 0.1174 -0.6531 -0.983 -0.104 0.151 78 44 22 0 0
-0.0275 0.1173 -0.6562 -0.974 -0.160 0.161 75 40 18 0 0
-0.0280 0.1171 -0.6593 -0.974 -0.160 0.161 73 38 16 0 0
-0.0290 0.1166 -0.6754 -0.925 -0.251 0.286 66 31 11 0 0
-0.0301 0.1165 -0.6783 -0.880 -0.048 0.473 65 32 12 0 0
-0.0357 0.1151 -0.7158 -0.971 0.067 0.230 59 30 9 0 0
-0.0361 0.1150 -0.7190 -0.999 0.035 -0.027 59 31 11 0 0
-0.0402 0.1143 -0.7373 -0.924 -0.366 0.106 57 28 10 0 0
-0.0577 0.1127 -0.7604 -0.982 -0.154 0.108 55 28 9 0 0
-0.0606 0.1124 -0.7659 -0.891 -0.427 -0.154 52 24 9 0 0
-0.0544 0.1122 -0.7847 -0.855 -0.492 -0.162 54 27 12 0 0
-0.0570 0.1120 -0.7869 -0.934 -0.356 0.018 54 26 12 0 0
-0.0642 0.1116 -0.7874 -0.975 -0.016 0.222 53 25 11 0 0
-0.1146 0.1068 -0.8642 -0.943 -0.165 0.289 77 54 37 0 0
-0.1047 0.1069 -0.8783 -0.953 -0.228 0.198 76 53 39 0 0
-0.1079 0.1067 -0.8802 -0.956 -0.275 -0.099 71 48 34 0 0
-0.1064 0.1067 -0.8841 -0.972 -0.220 0.084 71 48 37 0 0
-0.1066 0.1065 -0.8905 -0.992 -0.122 0.024 66 44 33 0 0
-0.0927 0.1056 -0.9460 -0.872 -0.483 -0.083 59 36 20 0 0
-0.1559 0.1009 -0.9962 -0.497 -0.463 0.734 78 61 57 0 0
-0.1660 0.0998 -1.0167 -0.913 -0.390 -0.115 57 28 12 0 0
-0.1833 0.0964 -1.1070 -0.997 0.000 -0.071 61 33 14 0 0
-0.1778 0.0960 -1.1296 -0.983 -0.173 -0.067 83 59 40 0 0
-0.0420 0.1413 0.0938 -0.823 0.019 0.567 108 73 48 0 0
-0.0847 0.1339 -0.0848 -0.977 0.186 0.100 65 44 33 0 0
-0.0728 0.1345 -0.0882 -0.979 -0.191 -0.078 42 20 12 0 0
-0.0730 0.1344 -0.0911 -0.968 -0.238 -0.077 38 19 13 0 0
-0.1134 0.1317 -0.1102 -0.705 -0.530 0.472 87 71 64 0 0
-0.1407 0.1293 -0.1437 -0.905 -0.125 0.408 47 25 12 0 0
-0.1415 0.1292 -0.1466 -0.905 -0.281 0.319 48 31 21 0 0
-0.0754 0.1291 -0.2692 -0.910 -0.286 0.301 45 32 26 0 0
-0.0722 0.1286 -0.2911 -0.976 -0.219 -0.022 38 23 18 0 0
-0.0756 0.1275 -0.3243 -0.967 -0.256 0.008 39 20 13 0 0
-0.0662 0.1277 -0.3351 -0.824 -0.512 -0.244 38 28 22 0 0
-0.0607 0.1264 -0.3889 -0.951 -0.185 -0.247 42 25 17 0 0
-0.1160 0.1225 -0.4243 -0.999 -0.042 0.011 53 24 10 0 0
-0.0305 0.1255 -0.4741 -0.675 -0.727 0.130 47 27 16 0 0
-0.0298 0.1255 -0.4775 -0.770 -0.615 -0.170 47 27 16 0 0
-0.0273 0.1255 -0.4813 -0.776 -0.553 0.303 48 28 17 0 0
-0.0286 0.1249 -0.5002 -0.877 -0.456 -0.151 52 30 17 0 0
-0.0261 0.1243 -0.5234 -0.885 0.447 0.131 50 26 14 0 0
-0.0253 0.1213 -0.6308 -0.966 -0.212 0.147 68 36 13 0 0
-0.0253 0.1212 -0.6341 -0.976 -0.165 -0.146 65 31 9 0 0
-0.0279 0.1199 -0.6759 -0.931 -0.140 0.336 64 31 11 0 0
-0.0600 0.1156 -0.7663 -0.995 0.005 0.095 50 22 8 0 0
-0.1083 0.1108 -0.8446 -0.737 -0.622 -0.265 61 29 9 0 0
-0.1068 0.1107 -0.8517 -0.922 -0.059 0.383 66 33 13 0 0
-0.1151 0.1099 -0.8643 -0.895 -0.160 0.416 77 54 37 0 0
-0.1066 0.1099 -0.8809 -0.995 -0.050 0.085 70 46 34 0 0
-0.1072 0.1098 -0.8839 -0.973 0.136 0.188 70 47 35 0 0
-0.1066 0.1097 -0.8874 -0.997 -0.021 0.071 69 47 37 0 0
-0.1068 0.1096 -0.8906 -0.997 -0.021 0.071 67 45 35 0 0
-0.1053 0.1095 -0.8945 -0.900 -0.058 -0.431 63 40 31 0 0
-0.1003 0.1094 -0.9098 -0.915 -0.112 -0.387 48 28 17 0 0
-0.0931 0.1090 -0.9361 -0.822 -0.454 -0.343 62 39 23 0 0
-0.0970 0.1087 -0.9376 -0.989 0.032 -0.147 60 37 21 0 0
-0.0933 0.1087 -0.9459 -0.989 -0.104 0.104 60 34 17 0 0
-0.0942 0.1084 -0.9554 -0.992 0.123 0.026 57 34 16 0 0
-0.1562 0.1040 -0.9963 -0.872 -0.105 0.477 75 59 53 0 0
-0.1563 0.1038 -1.0027 -0.906 0.027 0.422 64 41 27 0 0
-0.1575 0.1037 -1.0053 -0.906 0.027 0.422 57 29 16 0 0
-0.1649 0.0986 -1.1669 -0.967 -0.233 0.106 109 101 90 0 0
-0.0417 0.1443 0.0937 -0.871 -0.037 0.490 96 57 33 0 0
-0.0500 0.1399 -0.0468 -0.895 0.174 0.411 38 15 7 0 0
-0.0844 0.1369 -0.0849 -0.842 0.323 0.433 54 33 22 0 0
-0.0730 0.1375 -0.0882 -0.989 -0.029 0.148 43 22 13 0 0
-0.1150 0.1346 -0.1102 -0.832 -0.110 0.544 114 98 91 0 0
-0.1386 0.1324 -0.1410 -0.927 -0.138 0.348 48 26 14 0 0
-0.1391 0.1323 -0.1439 -0.981 -0.047 0.191 47 25 12 0 0
-0.1396 0.1322 -0.1468 -0.930 -0.365 -0.048 47 29 19 0 0
-0.0747 0.1321 -0.2725 -0.957 -0.161 -0.242 45 32 26 0 0
-0.0719 0.1319 -0.2851 -0.979 0.099 0.179 45 32 26 0 0
-0.0735 0.1317 -0.2879 -0.998 0.019 -0.068 40 25 20 0 0
-0.0783 0.1306 -0.3179 -0.813 0.475 -0.337 42 22 13 0 0
-0.0764 0.1305 -0.3243 -0.967 -0.256 0.008 41 22 15 0 0
-0.0703 0.1307 -0.3284 -0.992 -0.027 -0.124 45 26 19 0 0
-0.0702 0.1306 -0.3346 -0.769 -0.559 -0.309 40 28 23 0 0
-0.0667 0.1306 -0.3382 -0.775 -0.225 -0.590 19 11 7 0 0
-0.0897 0.1277 -0.3990 -0.552 -0.389 0.737 49 25 15 0 0
-0.0279 0.1288 -0.4748 -0.545 -0.740 0.395 46 26 15 0 0
-0.0293 0.1286 -0.4777 -0.757 -0.640 0.134 46 26 15 0 0
-0.0342 0.1276 -0.5054 -0.969 -0.242 0.052 51 29 16 0 0
-0.0335 0.1275 -0.5088 -0.835 -0.528 -0.154 51 29 16 0 0
-0.0328 0.1275 -0.5122 -0.819 -0.479 -0.316 51 29 16 0 0
-0.0315 0.1274 -0.5157 -0.819 -0.479 -0.316 51 28 15 0 0
-0.0307 0.1274 -0.5191 -0.818 -0.522 -0.243 50 26 14 0 0
-0.0353 0.1269 -0.5277 -0.765 -0.594 0.249 51 27 15 0 0
-0.0213 0.1250 -0.6191 -0.909 -0.416 0.032 63 33 15 0 0
-0.0222 0.1249 -0.6221 -0.875 -0.387 0.292 65 34 15 0 0
-0.0584 0.1189 -0.7638 -0.989 0.046 0.137 54 26 12 0 0
-0.0586 0.1188 -0.7670 -0.954 0.088 0.286 51 23 9 0 0
-0.0595 0.1187 -0.7699 -0.954 0.088 0.286 49 21 7 0 0
-0.1060 0.1131 -0.8781 -0.972 -0.142 -0.187 74 51 36 0 0
-0.1070 0.1130 -0.8810 -0.982 -0.054 -0.183 71 48 35 0 0
-0.1048 0.1127 -0.8950 -0.961 0.030 -0.275 63 41 30 0 0
-0.0931 0.1118 -0.9462 -0.984 0.074 0.160 60 34 17 0 0
-0.0912 0.1117 -0.9537 -0.972 0.177 -0.154 61 36 19 0 0
-0.1351 0.1086 -0.9814 -0.791 0.311 0.526 107 93 86 0 0
-0.1361 0.1085 -0.9841 -0.780 0.218 0.587 110 97 89 0 0
-0.1596 0.1067 -1.0012 -0.959 -0.282 0.041 63 39 26 0 0
-0.1704 0.1038 -1.0825 -0.993 0.115 -0.037 48 34 28 0 0
-0.1556 0.1043 -1.0941 -0.974 0.039 0.225 43 30 22 0 0
-0.1653 0.1017 -1.1669 -0.947 0.087 0.308 104 96 85 0 0
-0.0307 0.1484 0.1092 -0.676 -0.550 0.490 112 86 70 0 0
-0.0381 0.1478 0.1028 -0.659 -0.460 0.595 148 118 106 0 0
-0.0399 0.1474 0.0938 -0.922 0.247 0.299 92 53 26 0 0
-0.0393 0.1474 0.0908 -0.994 0.075 0.083 71 35 13 0 0
-0.0407 0.1444 -0.0109 -0.974 0.185 -0.128 43 20 7 0 0
-0.0375 0.1433 -0.0562 -0.954 -0.295 0.052 41 21 10 0 0
-0.0734 0.1404 -0.0883 -0.985 -0.015 0.172 46 24 16 0 0
-0.0748 0.1403 -0.0912 -0.952 -0.234 0.197 38 19 12 0 0
-0.1354 0.1359 -0.1297 -0.994 -0.073 0.077 68 34 17 0 0
-0.1371 0.1356 -0.1354 -0.963 -0.098 0.251 47 23 9 0 0
-0.1381 0.1355 -0.1382 -0.927 0.068 0.369 45 23 12 0 0
-0.1395 0.1352 -0.1440 -0.992 -0.036 0.120 44 22 9 0 0
-0.0842 0.1351 -0.2562 -0.987 -0.146 -0.069 47 34 28 0 0
-0.0755 0.1352 -0.2694 -0.966 0.147 0.213 43 30 24 0 0
-0.0751 0.1351 -0.2725 -0.985 0.170 -0.012 44 31 25 0 0
-0.0775 0.1348 -0.2783 -0.972 -0.205 0.114 43 30 24 0 0
-0.0734 0.1348 -0.2881 -0.997 -0.059 -0.040 44 29 24 0 0
-0.0732 0.1347 -0.2911 -0.983 -0.081 -0.168 36 21 16 0 0
-0.0645 0.1331 -0.3635 -0.821 -0.525 0.224 25 15 12 0 0
-0.1184 0.1283 -0.4301 -0.685 -0.285 0.670 55 27 13 0 0
-0.0260 0.1320 -0.4754 -0.381 -0.643 0.665 43 23 13 0 0
-0.0308 0.1317 -0.4775 -0.791 -0.519 0.325 43 23 14 0 0
-0.0348 0.1291 -0.5601 -0.973 -0.068 0.221 54 28 13 0 0
-0.0359 0.1290 -0.5631 -0.970 -0.213 0.116 53 27 12 0 0
-0.0348 0.1283 -0.5893 -0.956 0.026 -0.291 60 32 17 0 0
-0.0254 0.1280 -0.6180 -0.892 -0.212 0.400 62 31 13 0 0
-0.0258 0.1279 -0.6212 -0.912 -0.315 0.263 64 32 14 0 0
-0.0282 0.1277 -0.6237 -0.890 -0.418 0.184 68 35 15 0 0
-0.0287 0.1276 -0.6268 -0.890 -0.418 0.184 70 38 17 0 0
-0.0917 0.1186 -0.8194 -0.895 -0.414 0.168 56 27 11 0 0
-0.1057 0.1171 -0.8460 -0.917 -0.385 0.108 64 31 12 0 0
-0.1085 0.1168 -0.8513 -0.895 -0.304 0.326 67 35 14 0 0
-0.1330 0.1117 -0.9826 -0.856 0.343 0.386 105 90 83 0 0
-0.1606 0.1097 -1.0009 -0.969 -0.168 0.181 62 39 25 0 0
-0.1697 0.1069 -1.0831 -0.959 0.269 0.088 51 37 30 0 0
-0.1805 0.1055 -1.1093 -0.904 -0.124 0.410 61 33 12 0 0
-0.1822 0.1052 -1.1180 -0.982 -0.146 0.119 80 56 32 0 0
-0.1698 0.1046 -1.1644 -0.989 -0.108 0.105 101 93 82 0 0
-0.0272 0.1517 0.1123 -0.839 -0.187 0.510 139 115 101 0 0
-0.0325 0.1513 0.1090 -0.993 -0.042 -0.114 112 85 68 0 0
-0.0385 0.1508 0.1027 -0.906 -0.217 0.365 137 108 96 0 0
-0.0396 0.1506 0.0967 -0.924 0.349 0.158 107 73 42 0 0
-0.1301 0.1393 -0.1213 -0.848 0.348 0.399 136 124 118 0 0
-0.1352 0.1389 -0.1268 -0.894 0.025 0.448 73 45 29 0 0
-0.1359 0.1388 -0.1297 -0.955 0.032 0.294 65 31 13 0 0
-0.1383 0.1384 -0.1383 -0.950 -0.112 0.293 45 23 13 0 0
-0.1395 0.1381 -0.1440 -0.989 -0.142 0.045 43 21 9 0 0
-0.0740 0.1379 -0.2850 -0.934 -0.182 0.308 41 28 22 0 0
-0.0732 0.1377 -0.2913 -0.998 0.019 -0.068 37 24 18 0 0
-0.0940 0.1335 -0.3984 -0.722 -0.170 0.671 47 23 13 0 0
-0.1188 0.1311 -0.4332 -0.956 -0.100 0.275 58 31 19 0 0
-0.1156 0.1312 -0.4370 -0.822 -0.151 -0.549 70 47 36 0 0
-0.0363 0.1348 -0.4700 -0.188 -0.918 0.348 44 26 16 0 0
-0.0341 0.1347 -0.4769 -0.853 -0.413 0.319 43 22 12 0 0
-0.0290 0.1347 -0.4877 -0.906 -0.419 -0.056 43 23 13 0 0
-0.0279 0.1346 -0.4912 -0.924 -0.184 0.336 43 23 12 0 0
-0.0289 0.1345 -0.4941 -0.903 -0.165 0.396 43 23 11 0 0
-0.0335 0.1342 -0.4963 -0.703 -0.579 0.414 45 25 12 0 0
-0.0310 0.1333 -0.5322 -0.944 0.330 0.002 48 24 13 0 0
-0.0352 0.1323 -0.5602 -0.926 -0.244 0.288 53 27 12 0 0
-0.0361 0.1321 -0.5632 -0.912 -0.365 0.186 52 26 12 0 0
-0.0414 0.1283 -0.6883 -0.903 -0.398 0.163 58 27 9 0 0
-0.0942 0.1216 -0.8218 -0.755 -0.592 0.283 54 24 9 0 0
-0.0976 0.1210 -0.8367 -0.995 0.015 0.103 55 26 8 0 0
-0.1109 0.1198 -0.8505 -0.858 -0.369 0.357 67 33 11 0 0
-0.1146 0.1196 -0.8521 -0.963 -0.156 -0.220 70 36 12 0 0
-0.1146 0.1195 -0.8554 -0.983 -0.087 -0.164 71 37 13 0 0
-0.1083 0.1174 -0.9394 -0.962 0.122 0.242 63 37 20 0 0
-0.1089 0.1171 -0.9522 -0.936 -0.312 0.165 67 40 22 0 0
-0.1611 0.1127 -1.0008 -0.969 -0.168 0.181 63 38 26 0 0
-0.1751 0.1116 -1.0128 -0.952 -0.044 -0.302 60 30 13 0 0
-0.1755 0.1115 -1.0158 -0.908 0.418 -0.016 63 32 13 0 0
-0.1797 0.1109 -1.0295 -0.995 -0.090 0.042 72 41 22 0 0
-0.1691 0.1099 -1.0837 -0.984 -0.049 -0.173 49 36 29 0 0
-0.1648 0.1100 -1.0894 -0.758 -0.576 -0.307 43 30 22 0 0
-0.1787 0.1087 -1.1106 -0.897 0.139 0.419 61 34 13 0 0
-0.1803 0.1085 -1.1129 -0.964 -0.075 0.256 69 38 17 0 0
-0.1802 0.1084 -1.1162 -0.894 -0.360 0.267 76 48 25 0 0
-0.1810 0.1083 -1.1189 -0.894 -0.360 0.267 77 52 29 0 0
-0.1812 0.1075 -1.1480 -0.821 0.392 -0.415 74 55 39 0 0
-0.1776 0.1075 -1.1534 -0.838 0.459 -0.296 62 45 33 0 0
-0.0321 0.1544 0.1090 -0.980 0.096 -0.173 118 90 72 0 0
-0.0372 0.1494 -0.0594 -0.878 -0.402 0.260 43 24 10 0 0
-0.0359 0.1493 -0.0624 -0.900 -0.312 -0.304 41 24 14 0 0
-0.0890 0.1451 -0.1028 -0.686 -0.364 0.630 84 66 55 0 0
-0.1245 0.1426 -0.1187 -0.807 0.379 0.453 147 136 128 0 0
-0.1373 0.1418 -0.1239 -0.958 -0.264 0.113 109 91 80 0 0
-0.1376 0.1417 -0.1268 -0.958 -0.264 0.113 70 43 28 0 0
-0.1380 0.1416 -0.1297 -0.958 -0.264 0.113 66 32 14 0 0
-0.1361 0.1409 -0.1560 -0.904 -0.150 -0.400 49 40 35 0 0
-0.0751 0.1405 -0.2972 -0.906 0.423 0.015 36 21 16 0 0
-0.0677 0.1386 -0.3787 -0.978 -0.132 0.161 35 19 11 0 0
-0.0947 0.1365 -0.3984 -0.722 -0.170 0.671 47 23 13 0 0
-0.1214 0.1340 -0.4328 -0.860 0.031 0.509 61 33 21 0 0
-0.0381 0.1378 -0.4698 -0.514 -0.769 0.381 44 26 15 0 0
-0.0329 0.1379 -0.4773 -0.665 -0.592 -0.455 45 23 12 0 0
-0.0367 0.1353 -0.5599 -0.912 -0.365 0.186 53 27 13 0 0
-0.0373 0.1352 -0.5630 -0.912 -0.365 0.186 52 26 13 0 0
-0.0379 0.1351 -0.5661 -0.912 -0.365 0.186 52 26 13 0 0
-0.0540 0.1299 -0.7201 -0.924 -0.047 0.380 55 27 10 0 0
-0.0530 0.1298 -0.7237 -0.881 -0.338 0.330 55 26 10 0 0
-0.0895 0.1252 -0.8142 -0.960 0.246 0.132 48 18 7 0 0
-0.0901 0.1250 -0.8172 -0.962 0.269 -0.038 50 21 7 0 0
-0.0915 0.1249 -0.8199 -0.932 0.300 0.206 52 23 9 0 0
-0.0981 0.1241 -0.8334 -0.915 0.087 0.395 55 26 8 0 0
-0.1168 0.1225 -0.8514 -0.875 -0.350 -0.335 71 37 12 0 0
-0.1001 0.1221 -0.9009 -0.926 0.265 -0.268 53 33 22 0 0
-0.1087 0.1202 -0.9525 -0.804 -0.017 0.595 71 44 25 0 0
-0.1222 0.1191 -0.9624 -0.321 0.012 0.947 101 87 78 0 0
-0.1313 0.1180 -0.9839 -0.953 0.071 -0.294 109 96 88 0 0
-0.1618 0.1158 -1.0007 -0.936 -0.252 0.246 63 37 27 0 0
-0.1724 0.1147 -1.0176 -0.995 0.096 -0.029 63 30 11 0 0
-0.1713 0.1129 -1.0826 -0.875 -0.402 -0.270 50 37 30 0 0
-0.1820 0.1113 -1.1185 -0.894 -0.360 0.267 80 54 32 0 0
-0.1770 0.1107 -1.1507 -0.829 -0.308 -0.466 74 55 39 0 0
-0.1779 0.1105 -1.1535 -0.895 -0.380 -0.233 61 45 33 0 0
-0.0058 0.1592 0.1166 -0.445 -0.031 0.895 132 114 104 0 0
-0.0338 0.1552 0.0341 -0.974 0.188 -0.124 63 32 12 0 0
-0.0529 0.1513 -0.0651 -0.474 0.416 0.776 83 68 61 0 0
-0.0566 0.1510 -0.0681 -0.457 0.016 0.889 84 69 61 0 0
-0.0861 0.1485 -0.0940 -0.963 0.112 0.244 35 17 11 0 0
-0.1046 0.1471 -0.1081 -0.553 0.278 0.786 90 71 64 0 0
-0.1292 0.1453 -0.1186 -0.988 0.104 -0.113 145 135 126 0 0
-0.0736 0.1442 -0.2761 -0.964 0.119 -0.239 42 29 23 0 0
-0.0765 0.1440 -0.2788 -0.998 0.064 0.002 40 27 21 0 0
-0.0700 0.1413 -0.3878 -0.661 0.110 0.742 40 23 13 0 0
-0.0950 0.1395 -0.3985 -0.752 -0.049 0.657 50 26 16 0 0
-0.0972 0.1393 -0.4011 -0.532 -0.115 0.839 49 25 15 0 0
-0.0563 0.1329 -0.7195 -0.908 -0.348 0.233 55 26 10 0 0
-0.0570 0.1328 -0.7225 -0.867 -0.478 0.140 55 26 10 0 0
-0.0593 0.1325 -0.7282 -0.980 0.113 -0.164 54 26 10 0 0
-0.0586 0.1324 -0.7317 -0.982 0.092 0.165 54 27 10 0 0
-0.0606 0.1320 -0.7408 -0.998 -0.010 0.065 55 28 11 0 0
-0.0587 0.1320 -0.7448 -0.953 0.011 0.303 52 25 8 0 0
-0.0613 0.1318 -0.7471 -0.982 -0.188 0.033 52 24 10 0 0
-0.1000 0.1272 -0.8295 -0.678 -0.476 0.560 55 26 11 0 0
-0.1019 0.1271 -0.8320 -0.678 -0.476 0.560 55 26 9 0 0
-0.1113 0.1262 -0.8442 -0.546 -0.406 0.733 67 32 12 0 0
-0.1066 0.1248 -0.9047 -0.940 -0.158 0.302 50 30 19 0 0
-0.1056 0.1247 -0.9084 -0.977 -0.154 0.147 47 28 16 0 0
-0.1109 0.1240 -0.9223 -0.943 0.039 0.331 65 42 27 0 0
-0.1063 0.1237 -0.9440 -0.953 0.291 -0.088 63 36 18 0 0
-0.1082 0.1233 -0.9530 -0.804 -0.493 0.331 68 41 22 0 0
-0.1091 0.1232 -0.9558 -0.959 0.086 0.269 76 51 32 0 0
-0.1144 0.1227 -0.9631 -0.863 -0.253 0.437 99 84 75 0 0
-0.1173 0.1224 -0.9649 -0.889 -0.095 0.447 102 88 79 0 0
-0.1626 0.1188 -1.0005 -0.936 -0.252 0.246 65 38 28 0 0
-0.1721 0.1159 -1.0824 -0.846 -0.464 -0.264 50 37 30 0 0
-0.0084 0.1621 0.1164 -0.507 0.068 0.859 133 113 103 0 0
-0.0345 0.1590 0.0640 -0.975 -0.191 -0.117 72 40 19 0 0
-0.0503 0.1545 -0.0653 -0.468 0.520 0.714 72 57 50 0 0
-0.1033 0.1501 -0.1082 -0.553 0.278 0.786 88 69 62 0 0
-0.1262 0.1484 -0.1188 -0.783 -0.057 0.620 155 144 135 0 0
-0.0996 0.1472 -0.2216 -0.994 -0.097 -0.040 46 35 31 0 0
-0.0994 0.1470 -0.2276 -0.943 -0.282 -0.175 46 35 31 0 0
-0.0952 0.1426 -0.3986 -0.752 -0.049 0.657 51 27 17 0 0
-0.0981 0.1423 -0.4011 -0.606 0.195 0.771 50 27 16 0 0
-0.0401 0.1404 -0.5981 -0.954 0.222 0.200 55 26 12 0 0
-0.0593 0.1359 -0.7186 -0.994 -0.056 0.095 55 26 10 0 0
-0.0596 0.1356 -0.7283 -0.997 -0.076 0.007 53 25 11 0 0
-0.0598 0.1355 -0.7315 -0.972 -0.175 0.159 53 25 10 0 0
-0.0615 0.1350 -0.7472 -0.900 -0.092 0.425 51 23 9 0 0
-0.0921 0.1314 -0.8070 -0.981 -0.186 0.064 50 22 10 0 0
-0.0962 0.1310 -0.8151 -0.817 -0.317 0.482 52 23 9 0 0
-0.1067 0.1300 -0.8270 -0.743 0.316 0.591 56 27 12 0 0
-0.1067 0.1299 -0.8302 -0.849 0.321 0.420 56 27 10 0 0
-0.1086 0.1291 -0.8552 -0.950 -0.016 0.313 71 37 12 0 0
-0.1072 0.1277 -0.9079 -0.991 0.035 0.132 48 28 16 0 0
-0.1089 0.1263 -0.9561 -0.959 0.086 0.269 74 49 30 0 0
-0.1144 0.1258 -0.9633 -0.853 -0.259 0.454 102 87 77 0 0
-0.1155 0.1256 -0.9660 -0.821 0.152 0.551 105 91 82 0 0
-0.1568 0.1223 -0.9940 -0.865 -0.312 0.392 98 84 81 0 0
-0.1830 0.1197 -1.0315 -0.960 -0.276 0.036 70 41 22 0 0
-0.1786 0.1198 -1.0372 -0.924 -0.216 0.316 72 45 28 0 0
-0.1802 0.1190 -1.0620 -0.764 0.641 -0.070 68 48 37 0 0
-0.0084 0.1651 0.1163 -0.530 0.131 0.838 129 109 99 0 0
-0.0139 0.1647 0.1129 -0.835 0.249 0.491 126 94 79 0 0
-0.0172 0.1644 0.1097 -0.675 0.099 0.731 142 110 91 0 0
-0.0298 0.1634 0.1030 -0.993 0.118 -0.001 102 78 67 0 0
-0.0298 0.1634 0.1000 -0.993 0.118 -0.001 107 81 62 0 0
-0.0325 0.1629 0.0909 -0.937 -0.220 0.272 63 29 12 0 0
-0.0335 0.1627 0.0849 -0.942 0.266 0.204 65 33 12 0 0
-0.0587 0.1569 -0.0682 -0.436 0.097 0.895 87 71 63 0 0
-0.1026 0.1531 -0.1083 -0.602 -0.046 0.797 90 71 65 0 0
-0.1072 0.1527 -0.1111 -0.938 -0.183 0.294 98 83 76 0 0
-0.1320 0.1511 -0.1157 -0.933 0.269 -0.239 110 96 88 0 0
-0.1318 0.1510 -0.1186 -0.902 0.405 -0.149 158 147 138 0 0
-0.1380 0.1501 -0.1358 -0.990 0.116 0.086 50 26 12 0 0
-0.1413 0.1494 -0.1559 -0.987 -0.110 0.115 50 41 36 0 0
-0.1010 0.1500 -0.2246 -0.824 -0.561 -0.075 46 35 31 0 0
-0.0814 0.1506 -0.2479 -0.460 -0.614 -0.642 43 32 28 0 0
-0.0853 0.1484 -0.3175 -0.847 -0.106 -0.521 42 24 13 0 0
-0.0809 0.1486 -0.3213 -0.939 -0.146 -0.310 42 23 16 0 0
-0.0659 0.1479 -0.3825 -0.927 -0.201 0.317 32 18 15 0 0
-0.0676 0.1477 -0.3853 -0.999 -0.048 0.008 33 18 13 0 0
-0.0676 0.1476 -0.3884 -0.999 -0.048 0.008 39 23 15 0 0
-0.0926 0.1457 -0.3992 -0.574 -0.002 0.819 47 23 13 0 0
-0.0409 0.1444 -0.5657 -0.979 0.103 0.175 54 28 15 0 0
-0.0383 0.1442 -0.5793 -0.873 -0.480 -0.090 51 25 12 0 0
-0.0386 0.1441 -0.5825 -0.933 -0.341 -0.117 49 23 10 0 0
-0.0400 0.1435 -0.5983 -0.928 0.107 0.357 51 23 11 0 0
-0.0410 0.1418 -0.6597 -0.972 -0.195 0.130 60 29 9 0 0
-0.0403 0.1417 -0.6665 -0.923 -0.216 0.318 61 30 10 0 0
-0.0530 0.1400 -0.6982 -0.998 -0.037 -0.055 55 26 10 0 0
-0.0508 0.1394 -0.7250 -0.977 -0.194 0.095 53 24 10 0 0
-0.0509 0.1393 -0.7283 -0.945 -0.299 0.130 53 24 10 0 0
-0.0924 0.1345 -0.8103 -0.975 0.086 0.205 51 22 8 0 0
-0.0931 0.1343 -0.8133 -0.975 0.086 0.205 52 23 9 0 0
-0.0995 0.1339 -0.8139 -0.912 -0.028 0.409 54 25 9 0 0
-0.1071 0.1330 -0.8302 -0.923 -0.149 0.355 58 27 9 0 0
-0.1083 0.1328 -0.8329 -0.909 0.018 0.416 59 28 10 0 0
-0.1559 0.1256 -0.9883 -0.926 0.265 0.268 105 92 84 0 0
-0.1563 0.1255 -0.9913 -0.992 0.129 -0.009 102 89 82 0 0
-0.1614 0.1249 -1.0015 -0.885 0.364 0.289 64 38 28 0 0
-0.1711 0.1239 -1.0157 -0.790 -0.116 -0.602 61 30 12 0 0
-0.1841 0.1196 -1.1439 -0.942 -0.120 -0.312 79 57 36 0 0
-0.0123 0.1679 0.1130 -0.794 0.387 0.469 130 98 83 0 0
-0.0291 0.1665 0.1030 -0.893 0.324 0.312 93 71 58 0 0
-0.0307 0.1663 0.0969 -0.982 0.077 0.171 76 45 20 0 0
-0.0618 0.1597 -0.0712 -0.377 0.061 0.924 66 47 38 0 0
-0.0786 0.1583 -0.0826 -0.942 -0.316 0.116 80 61 54 0 0
-0.0811 0.1580 -0.0885 -0.838 -0.454 0.303 43 19 12 0 0
-0.0856 0.1575 -0.0943 -0.940 -0.309 0.142 33 14 8 0 0
-0.1061 0.1558 -0.1082 -0.596 -0.750 0.286 88 69 63 0 0
-0.1270 0.1542 -0.1190 -0.970 0.128 0.208 156 145 136 0 0
-0.1038 0.1530 -0.2184 -0.947 -0.236 -0.218 47 36 32 0 0
-0.1031 0.1530 -0.2215 -0.947 -0.236 -0.218 46 35 31 0 0
-0.1009 0.1530 -0.2247 -0.962 -0.241 -0.131 46 35 31 0 0
-0.0687 0.1507 -0.3852 -0.926 -0.281 0.252 32 18 13 0 0
-0.0695 0.1505 -0.3882 -0.926 -0.281 0.252 35 19 11 0 0
-0.0389 0.1502 -0.4733 -0.988 0.146 -0.055 46 24 14 0 0
-0.0349 0.1490 -0.5256 -0.915 -0.358 -0.185 46 22 12 0 0
-0.0269 0.1489 -0.5470 -0.840 -0.418 0.346 48 21 10 0 0
-0.0396 0.1475 -0.5695 -0.880 -0.263 0.395 52 26 13 0 0
-0.0377 0.1451 -0.6642 -0.992 -0.112 0.061 59 28 8 0 0
-0.0477 0.1432 -0.7099 -0.936 -0.141 0.323 53 24 9 0 0
-0.0567 0.1415 -0.7493 -0.924 -0.053 0.380 49 21 7 0 0
-0.1071 0.1362 -0.8272 -0.651 -0.568 0.504 57 27 10 0 0
-0.1081 0.1360 -0.8300 -0.819 -0.526 0.230 58 27 9 0 0
-0.1121 0.1353 -0.8477 -0.991 -0.128 -0.048 70 34 10 0 0
-0.1126 0.1351 -0.8539 -0.974 -0.216 0.067 71 35 9 0 0
-0.1126 0.1350 -0.8572 -0.976 -0.152 0.154 73 37 12 0 0
-0.1146 0.1347 -0.8628 -0.976 -0.067 0.206 74 43 23 0 0
-0.1039 0.1344 -0.9000 -0.986 0.091 0.140 52 32 21 0 0
-0.1007 0.1334 -0.9441 -0.961 0.179 0.209 59 32 15 0 0
-0.1538 0.1288 -0.9895 -0.946 0.101 0.309 99 86 78 0 0
-0.1801 0.1264 -1.0144 -0.990 -0.124 0.070 63 30 11 0 0
-0.1824 0.1256 -1.0387 -0.965 -0.198 0.173 66 39 23 0 0
-0.1821 0.1252 -1.0549 -0.950 -0.311 0.039 70 46 34 0 0
-0.1848 0.1250 -1.0567 -0.932 -0.170 0.320 70 47 34 0 0
-0.0098 0.1711 0.1131 -0.745 0.525 0.412 133 101 85 0 0
-0.1039 0.1590 -0.1084 -0.455 -0.239 0.858 91 72 66 0 0
-0.1097 0.1585 -0.1111 -0.683 -0.564 0.464 106 91 83 0 0
-0.1027 0.1558 -0.2276 -0.960 -0.169 -0.225 44 33 29 0 0
-0.0664 0.1541 -0.3796 -0.947 -0.145 0.287 36 20 14 0 0
-0.1127 0.1495 -0.4353 -0.914 -0.070 0.399 59 31 19 0 0
-0.0934 0.1503 -0.4518 -0.467 0.285 -0.837 66 41 27 0 0
-0.0353 0.1534 -0.4775 -0.731 -0.669 0.136 46 24 13 0 0
-0.0313 0.1526 -0.5169 -0.964 0.011 -0.264 43 19 10 0 0
-0.0341 0.1524 -0.5195 -0.909 -0.400 0.117 44 20 10 0 0
-0.0354 0.1522 -0.5224 -0.901 -0.245 0.357 44 20 10 0 0
-0.0322 0.1514 -0.5619 -0.944 -0.281 0.174 52 26 13 0 0
-0.0338 0.1500 -0.6069 -0.959 0.245 0.146 51 23 11 0 0
-0.0427 0.1477 -0.6725 -0.987 -0.117 0.112 59 28 10 0 0
-0.0403 0.1474 -0.6897 -0.931 -0.364 -0.006 53 24 10 0 0
-0.0571 0.1447 -0.7493 -0.945 -0.188 0.268 50 22 8 0 0
-0.1072 0.1392 -0.8305 -0.985 0.091 0.148 59 28 10 0 0
-0.1124 0.1386 -0.8380 -0.929 0.338 0.153 63 28 9 0 0
-0.1044 0.1373 -0.9065 -0.974 0.211 -0.080 50 30 19 0 0
-0.1040 0.1372 -0.9099 -0.961 0.119 -0.250 48 28 17 0 0
-0.1019 0.1364 -0.9470 -0.902 -0.153 0.403 61 33 15 0 0
-0.1132 0.1353 -0.9612 -0.855 -0.512 0.086 90 74 62 0 0
-0.1136 0.1351 -0.9643 -0.939 -0.256 -0.231 97 83 73 0 0
-0.1137 0.1350 -0.9675 -0.987 -0.120 -0.104 103 88 81 0 0
-0.1815 0.1291 -1.0234 -0.846 -0.487 -0.217 64 32 11 0 0
-0.1811 0.1289 -1.0300 -0.893 -0.390 0.225 66 35 15 0 0
-0.1833 0.1281 -1.0545 -0.918 -0.380 -0.110 70 46 34 0 0
-0.0040 0.1746 0.1134 -0.593 0.476 0.649 138 106 89 0 0
-0.0114 0.1739 0.1069 -0.607 0.510 0.610 109 87 77 0 0
-0.0980 0.1625 -0.1029 -0.494 -0.210 0.844 77 61 54 0 0
-0.1054 0.1618 -0.1084 -0.455 -0.239 0.858 84 66 59 0 0
-0.1131 0.1612 -0.1110 -0.761 -0.483 0.432 102 87 80 0 0
-0.1369 0.1590 -0.1332 -0.998 0.064 -0.002 52 24 11 0 0
-0.0734 0.1591 -0.2889 -0.873 0.184 0.451 36 23 17 0 0
-0.1194 0.1523 -0.4279 -0.995 -0.096 0.020 53 25 9 0 0
-0.1139 0.1526 -0.4321 -0.905 -0.304 0.297 54 25 8 0 0
-0.1145 0.1524 -0.4350 -0.910 -0.345 0.231 60 33 20 0 0
-0.0964 0.1534 -0.4451 -0.374 0.868 -0.327 69 49 35 0 0
-0.0837 0.1540 -0.4541 -0.428 0.572 -0.699 66 40 27 0 0
-0.0759 0.1544 -0.4590 -0.402 0.624 -0.670 61 37 24 0 0
-0.0386 0.1560 -0.4928 -0.998 0.047 0.051 45 23 12 0 0
-0.0309 0.1558 -0.5172 -0.955 -0.283 -0.092 42 19 11 0 0
-0.0407 0.1510 -0.6701 -0.840 -0.543 -0.006 61 30 12 0 0
-0.0440 0.1508 -0.6723 -0.991 0.118 0.065 60 29 12 0 0
-0.0449 0.1506 -0.6753 -0.927 0.300 0.224 54 25 9 0 0
-0.0842 0.1447 -0.7979 -0.799 0.143 -0.584 48 22 9 0 0
-0.1082 0.1422 -0.8303 -0.987 -0.133 0.088 60 29 11 0 0
-0.1085 0.1421 -0.8334 -0.987 -0.133 0.088 61 29 10 0 0
-0.1088 0.1420 -0.8365 -0.987 -0.133 0.088 63 29 10 0 0
-0.1119 0.1417 -0.8417 -0.929 0.338 0.153 70 34 12 0 0
-0.1132 0.1413 -0.8508 -0.981 -0.096 0.171 72 36 10 0 0
-0.1129 0.1412 -0.8574 -0.967 -0.210 0.146 78 42 16 0 0
-0.1197 0.1407 -0.8577 -0.968 -0.157 0.197 77 43 19 0 0
-0.1203 0.1406 -0.8606 -0.966 -0.212 0.151 76 46 26 0 0
-0.1037 0.1405 -0.9070 -0.974 0.211 -0.080 50 30 19 0 0
-0.1024 0.1401 -0.9240 -0.986 0.168 -0.007 65 42 28 0 0
-0.1149 0.1383 -0.9606 -0.866 -0.485 0.125 92 76 64 0 0
-0.1243 0.1376 -0.9625 -0.966 -0.008 0.257 102 87 79 0 0
-0.1252 0.1375 -0.9654 -0.910 -0.032 0.414 109 95 88 0 0
-0.1395 0.1362 -0.9778 -0.864 0.148 0.480 122 108 101 0 0
-0.1726 0.1330 -1.0124 -0.989 0.049 0.139 58 26 10 0 0
-0.1782 0.1325 -1.0190 -0.988 0.047 0.149 63 30 11 0 0
-0.1793 0.1323 -1.0216 -0.990 -0.058 0.130 63 30 11 0 0
-0.1821 0.1321 -1.0233 -0.951 -0.296 -0.092 65 32 12 0 0
-0.1830 0.1317 -1.0356 -0.955 -0.199 0.220 70 41 23 0 0
-0.1753 0.1307 -1.0914 -0.955 -0.178 0.238 35 20 14 0 0
-0.1727 0.1308 -1.0962 -0.988 0.110 -0.110 38 21 15 0 0
-0.1723 0.1307 -1.0996 -0.988 0.110 -0.110 40 22 15 0 0
-0.1758 0.1304 -1.1008 -0.879 -0.048 0.475 47 28 19 0 0
-0.1883 0.1289 -1.1259 -0.989 -0.016 0.149 77 52 34 0 0
-0.1847 0.1285 -1.1507 -0.933 0.004 -0.359 58 42 31 0 0
-0.0256 0.1744 0.0490 -0.986 0.166 -0.003 63 31 10 0 0
-0.0777 0.1677 -0.0710 -0.871 0.486 0.066 77 59 47 0 0
-0.1340 0.1622 -0.1305 -0.996 0.054 0.078 53 23 9 0 0
-0.0695 0.1611 -0.3389 -0.914 -0.107 -0.392 17 9 5 0 0
-0.0657 0.1612 -0.3457 -0.862 -0.435 -0.261 33 23 20 0 0
-0.0634 0.1607 -0.3679 -0.825 -0.075 0.560 18 9 5 0 0
-0.0374 0.1596 -0.4773 -0.961 -0.222 0.165 51 27 16 0 0
-0.0343 0.1586 -0.5229 -0.969 -0.090 0.229 44 22 11 0 0
-0.0553 0.1517 -0.7274 -0.992 -0.093 -0.089 53 24 10 0 0
-0.0620 0.1512 -0.7283 -0.974 0.093 0.206 52 23 9 0 0
-0.0627 0.1511 -0.7313 -0.982 -0.179 0.055 50 22 8 0 0
-0.0777 0.1485 -0.7909 -0.528 -0.759 0.382 46 20 7 0 0
-0.0721 0.1485 -0.8029 -0.555 -0.695 -0.457 47 21 8 0 0
-0.1017 0.1460 -0.8203 -0.935 0.319 0.154 55 23 10 0 0
-0.1092 0.1453 -0.8301 -1.000 0.004 -0.028 59 28 10 0 0
-0.1095 0.1452 -0.8332 -0.973 0.218 0.082 60 27 8 0 0
-0.1108 0.1450 -0.8358 -0.971 0.200 -0.128 64 30 10 0 0
-0.1109 0.1448 -0.8423 -0.958 0.243 0.151 69 34 11 0 0
-0.1124 0.1444 -0.8546 -0.983 0.057 0.174 74 38 12 0 0
-0.1194 0.1439 -0.8548 -0.994 -0.066 0.084 76 41 14 0 0
-0.1079 0.1435 -0.8988 -0.917 -0.296 -0.270 56 34 23 0 0
-0.1027 0.1436 -0.9109 -0.828 -0.550 0.112 47 27 16 0 0
-0.1021 0.1432 -0.9243 -0.976 -0.127 0.179 64 41 29 0 0
-0.1076 0.1421 -0.9512 -0.794 -0.135 0.592 67 39 18 0 0
-0.1158 0.1415 -0.9538 -0.904 -0.086 0.419 72 45 27 0 0
-0.1608 0.1372 -0.9995 -0.884 0.006 0.467 73 54 44 0 0
-0.1723 0.1362 -1.0095 -0.908 -0.353 -0.224 57 25 10 0 0
-0.1843 0.1346 -1.0384 -0.955 -0.199 0.220 70 43 26 0 0
-0.1830 0.1341 -1.0583 -1.000 -0.009 -0.018 68 46 33 0 0
-0.1734 0.1338 -1.0960 -0.961 -0.252 -0.111 38 21 15 0 0
-0.1716 0.1338 -1.1003 -0.805 -0.336 0.490 42 24 16 0 0
-0.1802 0.1331 -1.1050 -0.934 0.092 0.346 51 27 16 0 0
-0.1818 0.1328 -1.1105 -0.999 0.021 0.027 59 32 13 0 0
-0.1884 0.1319 -1.1260 -0.989 -0.016 0.149 78 55 36 0 0
-0.0237 0.1764 0.0006 -0.999 -0.052 0.008 69 37 15 0 0
-0.0759 0.1708 -0.0711 -0.887 0.455 0.078 71 51 40 0 0
-0.1022 0.1681 -0.1029 -0.439 0.135 0.888 76 59 53 0 0
-0.1158 0.1670 -0.1081 -0.927 -0.205 0.314 92 75 66 0 0
-0.1359 0.1650 -0.1305 -0.949 -0.230 0.214 52 22 8 0 0
-0.1363 0.1649 -0.1334 -0.999 0.020 0.045 49 22 10 0 0
-0.0991 0.1655 -0.2103 -0.544 0.277 0.792 47 36 32 0 0
-0.1009 0.1653 -0.2131 -0.495 0.100 0.863 46 35 31 0 0
-0.0706 0.1641 -0.3389 -0.806 -0.061 -0.589 18 9 5 0 0
-0.0537 0.1649 -0.3510 -0.968 0.249 -0.016 26 16 10 0 0
-0.0651 0.1636 -0.3708 -0.788 -0.091 0.609 32 19 13 0 0
-0.0672 0.1634 -0.3736 -0.788 -0.091 0.609 44 27 20 0 0
-0.1188 0.1583 -0.4313 -0.996 -0.045 -0.071 53 24 8 0 0
-0.0388 0.1627 -0.4739 -0.946 -0.269 -0.181 49 25 13 0 0
-0.0349 0.1626 -0.4876 -0.970 -0.141 -0.198 45 23 12 0 0
-0.0340 0.1626 -0.4910 -0.960 -0.273 -0.062 46 24 13 0 0
-0.0400 0.1613 -0.5248 -0.996 0.084 0.008 45 23 12 0 0
-0.0417 0.1606 -0.5469 -0.879 0.355 0.317 53 27 14 0 0
-0.0413 0.1605 -0.5502 -0.918 -0.396 -0.020 52 26 13 0 0
-0.0388 0.1592 -0.6059 -0.975 -0.083 -0.208 51 23 11 0 0
-0.0378 0.1588 -0.6257 -0.993 0.019 0.118 59 29 11 0 0
-0.0475 0.1563 -0.6943 -0.981 -0.060 0.184 53 24 10 0 0
-0.0482 0.1561 -0.6974 -0.956 -0.212 0.203 52 23 9 0 0
-0.0630 0.1542 -0.7314 -0.989 0.063 0.134 51 23 9 0 0
-0.1092 0.1483 -0.8335 -0.985 0.150 0.082 58 25 6 0 0
-0.1097 0.1481 -0.8397 -0.971 0.200 -0.128 65 31 11 0 0
-0.1152 0.1476 -0.8439 -0.922 -0.285 -0.262 68 32 9 0 0
-0.1150 0.1475 -0.8472 -0.923 -0.159 0.351 69 33 9 0 0
-0.1138 0.1475 -0.8509 -0.981 -0.096 0.171 70 34 9 0 0
-0.1123 0.1475 -0.8548 -0.983 0.057 0.174 72 36 10 0 0
-0.1128 0.1474 -0.8578 -0.983 0.057 0.174 73 38 11 0 0
-0.1220 0.1462 -0.8764 -0.944 -0.262 0.199 72 46 33 0 0
-0.1090 0.1466 -0.8985 -0.917 -0.296 -0.270 56 34 23 0 0
-0.1061 0.1464 -0.9128 -0.967 -0.254 0.015 51 31 19 0 0
-0.1018 0.1463 -0.9279 -0.767 -0.541 0.344 64 41 27 0 0
-0.1161 0.1443 -0.9637 -0.799 -0.434 -0.417 92 77 66 0 0
-0.1340 0.1427 -0.9777 -0.992 0.010 -0.127 110 95 88 0 0
-0.1716 0.1393 -1.0069 -0.783 -0.385 0.488 56 24 11 0 0
-0.1821 0.1380 -1.0301 -0.965 -0.141 0.222 62 31 11 0 0
-0.1857 0.1376 -1.0346 -0.938 -0.030 0.344 64 35 16 0 0
-0.1850 0.1376 -1.0382 -0.970 -0.146 0.193 67 40 23 0 0
-0.1836 0.1371 -1.0582 -0.996 -0.083 0.030 68 46 33 0 0
-0.1849 0.1366 -1.0735 -0.902 0.044 -0.430 59 40 33 0 0
-0.1831 0.1366 -1.0778 -0.914 -0.067 -0.399 51 36 28 0 0
-0.1793 0.1362 -1.1025 -0.983 -0.079 0.163 48 27 16 0 0
-0.1810 0.1361 -1.1048 -0.972 -0.227 0.063 52 28 16 0 0
-0.1814 0.1359 -1.1110 -0.972 -0.227 0.063 62 35 14 0 0
-0.0240 0.1789 -0.0177 -0.998 -0.056 0.037 68 36 15 0 0
-0.0189 0.1787 -0.0391 -0.990 -0.096 0.099 55 26 11 0 0
-0.0192 0.1786 -0.0421 -0.990 -0.096 0.099 49 23 8 0 0
-0.0805 0.1731 -0.0860 -0.879 -0.088 0.468 41 18 10 0 0
-0.0835 0.1728 -0.0888 -0.869 0.088 0.487 35 15 8 0 0
-0.0847 0.1726 -0.0918 -0.961 0.093 0.261 33 16 10 0 0
-0.1139 0.1700 -0.1112 -0.765 0.258 0.589 115 100 94 0 0
-0.1362 0.1679 -0.1335 -0.984 -0.163 0.064 51 24 12 0 0
-0.1370 0.1677 -0.1363 -0.978 -0.004 0.209 47 21 9 0 0
-0.0774 0.1687 -0.2612 -0.908 0.417 0.044 43 30 24 0 0
-0.0778 0.1685 -0.2672 -0.908 0.417 0.044 39 26 18 0 0
-0.0759 0.1673 -0.3196 -0.985 0.014 0.172 39 20 13 0 0
-0.0655 0.1663 -0.3833 -0.932 -0.159 0.324 33 18 15 0 0
-0.0425 0.1635 -0.5533 -0.980 0.139 0.141 52 26 11 0 0
-0.0371 0.1621 -0.6228 -0.999 -0.007 -0.033 52 23 12 0 0
-0.0369 0.1620 -0.6261 -0.989 0.101 0.112 56 25 10 0 0
-0.0418 0.1613 -0.6409 -0.966 -0.011 0.257 76 42 18 0 0
-0.0453 0.1598 -0.6854 -0.988 0.008 0.156 52 24 10 0 0
-0.0492 0.1592 -0.7005 -0.960 -0.111 0.256 53 24 8 0 0
-0.0592 0.1575 -0.7362 -0.987 -0.102 -0.128 51 23 9 0 0
-0.1142 0.1507 -0.8445 -0.857 -0.158 0.490 66 32 10 0 0
-0.1141 0.1505 -0.8542 -0.996 0.065 0.068 72 36 10 0 0
-0.1229 0.1493 -0.8762 -0.944 -0.262 0.199 72 44 32 0 0
-0.1097 0.1497 -0.8951 -0.928 -0.372 0.012 61 37 25 0 0
-0.1097 0.1496 -0.8983 -0.991 -0.120 -0.065 57 36 25 0 0
-0.1132 0.1480 -0.9522 -0.974 -0.167 0.156 66 37 19 0 0
-0.1203 0.1475 -0.9521 -0.750 -0.599 0.280 72 46 29 0 0
-0.1353 0.1459 -0.9708 -0.828 -0.085 0.555 112 97 89 0 0
-0.1374 0.1455 -0.9795 -1.000 -0.002 0.028 118 103 97 0 0
-0.1575 0.1436 -0.9984 -0.783 -0.388 0.486 84 67 59 0 0
-0.1742 0.1418 -1.0217 -0.950 -0.198 0.243 62 29 10 0 0
-0.1819 0.1408 -1.0369 -0.962 0.185 0.199 63 34 16 0 0
-0.1855 0.1405 -1.0381 -0.970 -0.146 0.193 65 38 21 0 0
-0.1830 0.1402 -1.0587 -0.996 -0.025 -0.086 67 45 32 0 0
-0.1818 0.1391 -1.1045 -0.959 -0.231 0.162 51 27 15 0 0
-0.1880 0.1380 -1.1268 -0.986 -0.038 0.160 77 54 36 0 0
-0.0170 0.1857 0.1033 -0.949 0.314 0.003 92 70 63 0 0
-0.0192 0.1818 -0.0391 -0.990 -0.096 0.099 54 25 9 0 0
-0.0211 0.1814 -0.0483 -0.959 -0.034 0.281 56 28 13 0 0
-0.0753 0.1769 -0.0713 -0.964 0.013 0.265 69 47 36 0 0
-0.0767 0.1765 -0.0802 -0.991 -0.118 -0.066 116 100 92 0 0
-0.0811 0.1761 -0.0830 -0.935 0.035 0.353 62 40 32 0 0
-0.0808 0.1761 -0.0860 -0.879 -0.088 0.468 44 19 13 0 0
-0.0835 0.1758 -0.0889 -0.914 -0.050 0.404 39 17 11 0 0
-0.0844 0.1757 -0.0919 -0.999 0.021 0.046 36 16 10 0 0
-0.1098 0.1734 -0.1086 -0.518 0.006 0.855 89 71 61 0 0
-0.1130 0.1731 -0.1114 -0.765 0.258 0.589 98 82 74 0 0
-0.1356 0.1710 -0.1278 -0.945 -0.297 0.139 61 34 22 0 0
-0.1013 0.1710 -0.2222 -0.984 -0.099 -0.146 45 34 30 0 0
-0.0814 0.1715 -0.2608 -0.705 0.684 0.189 42 29 22 0 0
-0.0817 0.1714 -0.2638 -0.858 0.512 0.023 41 28 20 0 0
-0.0795 0.1714 -0.2702 -0.977 0.091 0.191 39 26 18 0 0
-0.0801 0.1712 -0.2732 -0.977 0.091 0.191 39 26 18 0 0
-0.0710 0.1714 -0.2928 -0.934 -0.196 0.300 31 16 12 0 0
-0.0697 0.1713 -0.2991 -0.957 0.011 0.291 37 24 18 0 0
-0.0503 0.1714 -0.3518 -0.886 0.463 0.014 28 18 13 0 0
-0.0670 0.1696 -0.3739 -0.785 0.595 0.173 39 23 15 0 0
-0.0894 0.1674 -0.3945 -0.467 -0.284 0.838 49 24 17 0 0
-0.1212 0.1641 -0.4311 -0.988 0.129 -0.083 60 30 13 0 0
-0.0820 0.1664 -0.4519 -0.363 -0.362 -0.859 67 44 30 0 0
-0.0641 0.1675 -0.4621 -0.450 0.215 -0.867 64 39 26 0 0
-0.0402 0.1683 -0.4962 -0.944 -0.146 0.297 51 28 15 0 0
-0.0351 0.1666 -0.5781 -0.910 0.346 0.230 46 19 8 0 0
-0.0404 0.1646 -0.6382 -0.990 -0.068 0.123 79 44 21 0 0
-0.0441 0.1634 -0.6729 -0.983 -0.183 -0.028 56 25 8 0 0
-0.0551 0.1614 -0.7182 -0.986 0.117 0.115 52 23 9 0 0
-0.0942 0.1557 -0.8304 -0.938 -0.256 -0.234 57 25 10 0 0
-0.1051 0.1548 -0.8323 -0.937 -0.023 0.349 59 26 9 0 0
-0.1149 0.1536 -0.8508 -0.973 0.146 0.177 72 36 11 0 0
-0.1101 0.1527 -0.8984 -0.892 -0.452 -0.014 59 37 24 0 0
-0.1078 0.1522 -0.9255 -0.927 -0.374 0.001 66 42 26 0 0
-0.0996 0.1524 -0.9392 -0.816 -0.403 0.415 68 40 25 0 0
-0.1380 0.1484 -0.9859 -0.969 -0.116 0.217 113 100 91 0 0
-0.1587 0.1466 -0.9980 -0.808 -0.364 0.463 86 68 57 0 0
-0.1630 0.1462 -0.9990 -0.640 -0.280 0.716 74 54 42 0 0
-0.1731 0.1451 -1.0162 -0.879 0.151 0.452 62 29 11 0 0
-0.1748 0.1448 -1.0217 -0.977 0.016 0.213 62 29 10 0 0
-0.1814 0.1441 -1.0310 -0.989 -0.032 0.148 64 33 13 0 0
-0.1820 0.1439 -1.0338 -0.963 -0.077 0.257 65 35 15 0 0
-0.1827 0.1431 -1.0656 -0.973 -0.222 0.064 66 44 32 0 0
-0.1815 0.1430 -1.0694 -0.961 0.275 -0.026 64 42 31 0 0
-0.1916 0.1407 -1.1313 -0.990 0.138 0.037 72 49 33 0 0
-0.0237 0.1870 0.0548 -0.992 -0.001 0.123 68 36 15 0 0
-0.0245 0.1868 0.0518 -0.983 -0.173 0.063 68 36 15 0 0
-0.0232 0.1847 -0.0331 -0.968 -0.247 0.049 53 24 8 0 0
-0.0204 0.1847 -0.0422 -0.999 -0.025 -0.032 53 24 10 0 0
-0.0206 0.1845 -0.0484 -0.995 0.099 -0.013 58 29 15 0 0
-0.1156 0.1758 -0.1113 -0.812 0.286 0.508 101 84 76 0 0
-0.1368 0.1738 -0.1278 -0.957 -0.290 -0.009 57 30 18 0 0
-0.1374 0.1736 -0.1365 -0.959 -0.209 0.192 50 27 13 0 0
-0.1405 0.1730 -0.1509 -0.975 0.032 0.219 45 35 29 0 0
-0.0821 0.1743 -0.2669 -0.958 0.026 -0.285 37 23 16 0 0
-0.0788 0.1741 -0.2826 -0.996 0.088 0.017 42 29 21 0 0
-0.0785 0.1741 -0.2857 -0.989 0.145 0.032 45 31 23 0 0
-0.0725 0.1742 -0.2988 -0.914 -0.138 0.381 36 23 17 0 0
-0.0849 0.1727 -0.3216 -0.995 0.086 -0.046 42 24 12 0 0
-0.1148 0.1680 -0.4142 -0.646 0.100 0.757 76 51 31 0 0
-0.0723 0.1701 -0.4573 -0.445 -0.020 -0.895 66 39 26 0 0
-0.0629 0.1706 -0.4625 -0.453 -0.130 -0.882 66 41 27 0 0
-0.0370 0.1695 -0.5809 -0.950 0.259 0.172 49 21 10 0 0
-0.0368 0.1694 -0.5842 -0.892 0.298 0.341 50 22 10 0 0
-0.0406 0.1677 -0.6383 -0.990 -0.068 0.123 80 45 23 0 0
-0.0426 0.1669 -0.6638 -0.966 -0.115 0.233 60 27 10 0 0
-0.0417 0.1667 -0.6739 -1.000 -0.005 0.011 56 24 9 0 0
-0.0453 0.1662 -0.6858 -0.988 0.008 0.156 51 22 8 0 0
-0.0464 0.1660 -0.6887 -0.999 0.046 -0.016 50 22 8 0 0
-0.0666 0.1631 -0.7436 -0.892 0.237 0.384 55 26 12 0 0
-0.0783 0.1618 -0.7588 -0.865 0.221 0.450 51 22 8 0 0
-0.0862 0.1602 -0.7980 -0.837 0.298 0.459 45 17 5 0 0
-0.0853 0.1602 -0.8016 -0.998 -0.036 -0.058 45 17 5 0 0
-0.1014 0.1582 -0.8341 -0.897 -0.215 0.385 60 27 10 0 0
-0.1104 0.1564 -0.8756 -0.902 -0.247 0.353 75 49 34 0 0
-0.1119 0.1558 -0.8945 -0.950 -0.245 -0.196 62 39 25 0 0
-0.1106 0.1558 -0.8983 -0.971 0.130 -0.199 59 37 24 0 0
-0.1086 0.1558 -0.9025 -0.997 0.060 0.045 57 35 22 0 0
-0.1092 0.1557 -0.9055 -0.995 -0.099 -0.019 55 33 20 0 0
-0.1104 0.1556 -0.9082 -0.929 -0.230 0.291 54 32 19 0 0
-0.1124 0.1554 -0.9105 -0.933 -0.251 0.257 59 37 24 0 0
-0.1123 0.1550 -0.9236 -0.994 0.030 0.105 67 43 27 0 0
-0.1184 0.1535 -0.9632 -0.935 -0.235 0.265 97 83 74 0 0
-0.1407 0.1513 -0.9847 -0.838 -0.159 0.522 110 96 87 0 0
-0.1608 0.1495 -0.9971 -0.720 -0.389 0.575 90 72 62 0 0
-0.1639 0.1492 -0.9987 -0.640 -0.280 0.716 75 55 43 0 0
-0.1662 0.1490 -1.0007 -0.592 -0.304 0.746 66 39 25 0 0
-0.1749 0.1460 -1.0928 -0.951 -0.268 0.156 33 18 14 0 0
-0.1754 0.1459 -1.0957 -0.951 -0.268 0.156 37 22 14 0 0
-0.1861 0.1446 -1.1121 -0.976 -0.183 0.118 67 38 15 0 0
-0.1914 0.1436 -1.1381 -0.995 -0.095 0.038 72 50 36 0 0
