ply
format ascii 1.0
element vertex 871
property float x
property float y
property float z
property float nx
property float ny
property float nz
property uchar diffuse_red
property uchar diffuse_green
property uchar diffuse_blue
property uchar class
property uchar detection
end_header
-0.0308 0.2195 -0.7244 -0.839 0.385 0.385 59 26 9 0 0
-0.0331 0.2238 -0.7291 -0.584 0.568 0.580 65 30 10 0 0
-0.0340 0.2254 -0.7317 -0.584 0.568 0.580 65 30 10 0 0
-0.0386 0.2344 -0.7342 -0.670 0.700 0.246 63 30 11 0 0
-0.0390 0.2351 -0.7372 -0.670 0.700 0.246 62 30 11 0 0
-0.0592 0.2655 -0.9023 0.134 0.990 0.037 63 37 22 0 0
-0.0586 0.2642 -0.9063 -0.339 0.898 0.281 62 34 20 0 0
-0.0591 0.2650 -0.9092 -0.339 0.898 0.281 68 41 25 0 0
-0.0593 0.2648 -0.9192 -0.661 0.713 -0.234 72 45 27 0 0
-0.0676 0.2795 -0.9505 -0.508 0.858 0.071 84 54 31 0 0
-0.0700 0.2832 -0.9648 -0.486 0.626 0.609 108 87 74 0 0
-0.0816 0.3051 -0.9845 -0.109 0.816 0.568 105 82 68 0 0
-0.0832 0.3083 -0.9858 0.155 0.972 0.174 104 81 66 0 0
-0.0973 0.3330 -1.0388 -0.313 0.907 0.281 99 63 31 0 0
-0.0987 0.3355 -1.0437 -0.497 0.787 0.366 95 60 30 0 0
-0.0983 0.3345 -1.0476 -0.688 0.725 -0.003 94 59 30 0 0
-0.0947 0.3259 -1.0763 -0.669 0.744 0.008 77 51 33 0 0
-0.1030 0.3393 -1.1264 -0.324 0.943 0.075 99 68 41 0 0
-0.1044 0.3421 -1.1277 -0.233 0.941 0.248 95 63 38 0 0
-0.1049 0.3428 -1.1305 -0.346 0.870 0.351 91 61 37 0 0
-0.0001 0.2123 0.0966 -0.788 0.598 0.143 123 86 59 0 0
-0.0008 0.2135 0.0908 -0.606 0.783 0.138 100 65 39 0 0
-0.0067 0.2225 0.0449 -0.853 0.509 0.113 92 58 33 0 0
-0.0066 0.2221 0.0420 -0.832 0.544 0.104 91 57 32 0 0
-0.0079 0.2245 0.0391 -0.280 0.930 -0.239 86 52 27 0 0
-0.0076 0.2239 0.0362 -0.280 0.930 -0.239 83 48 24 0 0
-0.0236 0.2493 -0.0694 -0.412 0.817 0.404 102 76 65 0 0
-0.0241 0.2503 -0.0723 -0.372 0.875 0.309 125 100 88 0 0
-0.0246 0.2510 -0.0751 -0.341 0.936 0.092 132 110 99 0 0
-0.0366 0.2662 -0.2247 -0.854 0.511 0.102 61 39 28 0 0
-0.0316 0.2522 -0.2982 -0.350 0.929 0.120 63 37 22 0 0
-0.0322 0.2520 -0.3223 -0.617 0.687 0.384 61 28 11 0 0
-0.0328 0.2531 -0.3251 -0.617 0.783 -0.074 69 37 19 0 0
-0.0237 0.2331 -0.3597 -0.581 0.808 0.095 53 28 18 0 0
-0.0245 0.2345 -0.3625 -0.535 0.845 0.010 36 18 9 0 0
-0.0454 0.2734 -0.4017 -0.595 0.801 -0.066 76 32 9 0 0
-0.0167 0.2133 -0.4672 -0.382 0.908 -0.171 86 57 37 0 0
-0.0170 0.2131 -0.4798 -0.219 0.976 0.011 77 45 22 0 0
-0.0167 0.2091 -0.5414 -0.608 0.794 -0.013 75 40 18 0 0
-0.0169 0.2093 -0.5445 -0.601 0.797 -0.066 72 37 15 0 0
-0.0176 0.2100 -0.5571 -0.583 0.789 -0.191 79 44 22 0 0
-0.0186 0.2100 -0.5892 -0.505 0.846 0.170 78 42 14 0 0
-0.0189 0.2104 -0.5923 -0.505 0.846 0.170 79 43 14 0 0
-0.0194 0.2113 -0.5952 -0.568 0.817 0.098 79 42 13 0 0
-0.0196 0.2116 -0.5983 -0.568 0.817 0.098 82 45 16 0 0
-0.0200 0.2095 -0.6509 -0.183 0.982 0.040 78 39 11 0 0
-0.0317 0.2277 -0.7346 -0.689 0.710 0.145 63 28 9 0 0
-0.0394 0.2403 -0.7813 -0.017 0.917 0.399 56 20 6 0 0
-0.0424 0.2454 -0.7919 -0.846 0.321 0.425 56 20 5 0 0
-0.0515 0.2622 -0.8164 -0.486 0.856 0.176 61 26 7 0 0
-0.0605 0.2765 -0.8742 -0.572 0.802 -0.170 79 52 31 0 0
-0.0558 0.2656 -0.9031 -0.130 0.975 0.178 63 37 22 0 0
-0.0558 0.2654 -0.9065 -0.339 0.898 0.281 62 34 20 0 0
-0.0562 0.2661 -0.9094 -0.339 0.898 0.281 67 39 24 0 0
-0.0567 0.2669 -0.9123 -0.339 0.898 0.281 76 49 33 0 0
-0.0560 0.2647 -0.9268 -0.469 0.826 0.312 70 43 24 0 0
-0.0565 0.2655 -0.9296 -0.403 0.869 0.287 73 45 28 0 0
-0.0569 0.2661 -0.9326 -0.422 0.859 0.291 79 48 29 0 0
-0.0768 0.3023 -0.9872 -0.496 0.827 0.266 104 81 67 0 0
-0.0778 0.3042 -0.9893 -0.250 0.846 0.471 103 81 65 0 0
-0.0839 0.3156 -0.9986 -0.491 0.861 0.133 93 56 31 0 0
-0.0935 0.3328 -1.0302 -0.517 0.770 0.374 96 53 18 0 0
-0.0945 0.3346 -1.0322 -0.713 0.699 0.062 94 53 18 0 0
-0.1000 0.3414 -1.1029 -0.659 0.732 0.175 89 47 16 0 0
0.0004 0.2178 0.0935 -0.275 0.916 0.292 112 73 42 0 0
-0.0020 0.2210 0.0677 -0.599 0.782 0.172 76 41 19 0 0
-0.0025 0.2218 0.0649 -0.591 0.803 0.075 79 44 22 0 0
-0.0079 0.2317 0.0504 -0.646 0.739 0.189 83 47 21 0 0
-0.0178 0.2446 -0.0670 -0.538 0.765 0.354 118 97 90 0 0
-0.0266 0.2607 -0.0861 -0.296 0.947 0.126 63 28 8 0 0
-0.0470 0.2988 -0.1201 -0.102 0.888 0.449 153 122 109 0 0
-0.0514 0.3072 -0.1250 -0.284 0.951 0.126 97 56 19 0 0
-0.0504 0.3050 -0.1309 -0.493 0.854 0.165 88 42 11 0 0
-0.0508 0.3052 -0.1393 -0.533 0.841 0.090 79 41 17 0 0
-0.0250 0.2468 -0.2816 -0.734 0.646 0.211 59 36 22 0 0
-0.0301 0.2544 -0.3221 -0.430 0.901 0.062 66 33 16 0 0
-0.0301 0.2540 -0.3282 -0.261 0.948 -0.182 71 42 24 0 0
-0.0427 0.2748 -0.4017 -0.349 0.937 -0.027 78 34 11 0 0
-0.0133 0.2133 -0.4676 -0.924 0.364 0.113 87 59 38 0 0
-0.0137 0.2134 -0.4802 -0.575 0.817 0.052 84 53 30 0 0
-0.0143 0.2114 -0.5380 -0.455 0.887 0.071 69 34 12 0 0
-0.0143 0.2111 -0.5413 -0.513 0.858 -0.032 64 29 7 0 0
-0.0140 0.2093 -0.5643 -0.394 0.897 0.197 77 41 16 0 0
-0.0144 0.2098 -0.5673 -0.394 0.897 0.197 77 41 15 0 0
-0.0150 0.2103 -0.5800 -0.622 0.750 0.225 80 45 17 0 0
-0.0152 0.2105 -0.5832 -0.528 0.778 0.340 82 46 17 0 0
-0.0151 0.2102 -0.5865 -0.233 0.966 0.107 79 42 13 0 0
-0.0165 0.2127 -0.5920 -0.356 0.909 0.219 80 42 13 0 0
-0.0173 0.2138 -0.5981 -0.393 0.880 0.266 86 47 18 0 0
-0.0158 0.2098 -0.6189 -0.443 0.896 0.032 91 51 25 0 0
-0.0340 0.2368 -0.7738 -0.558 0.814 -0.163 54 21 6 0 0
-0.0369 0.2419 -0.7845 -0.599 0.784 0.164 55 19 5 0 0
-0.0498 0.2659 -0.8088 -0.563 0.579 0.590 61 25 10 0 0
-0.0596 0.2832 -0.8422 -0.296 0.952 -0.074 74 32 8 0 0
-0.0594 0.2827 -0.8457 -0.491 0.871 0.009 77 33 7 0 0
-0.0596 0.2829 -0.8489 -0.505 0.860 -0.067 79 35 7 0 0
-0.0521 0.2651 -0.9042 -0.443 0.889 0.120 64 38 23 0 0
-0.0592 0.2764 -0.9507 -0.209 0.837 0.506 74 37 18 0 0
-0.0600 0.2778 -0.9532 -0.478 0.753 0.452 79 45 27 0 0
-0.0643 0.2859 -0.9617 -0.635 0.677 0.371 95 76 65 0 0
-0.0647 0.2865 -0.9647 -0.508 0.825 0.250 103 83 73 0 0
-0.0737 0.3035 -0.9775 -0.792 0.353 0.498 115 92 78 0 0
-0.0735 0.3024 -0.9880 -0.835 0.449 0.317 106 83 69 0 0
-0.0775 0.3102 -0.9898 -0.082 0.902 0.425 104 83 65 0 0
-0.0782 0.3115 -0.9923 0.036 0.997 0.072 107 83 65 0 0
-0.0913 0.3350 -1.0330 -0.659 0.700 0.277 96 55 19 0 0
-0.0928 0.3363 -1.0615 -0.485 0.857 -0.172 91 60 34 0 0
-0.0974 0.3429 -1.1029 -0.392 0.920 0.006 88 44 14 0 0
-0.0978 0.3428 -1.1228 -0.530 0.839 0.122 92 61 33 0 0
-0.1019 0.3498 -1.1408 -0.774 0.603 -0.194 74 50 35 0 0
0.0115 0.2032 0.1084 -0.487 0.296 0.821 114 86 72 0 0
-0.0043 0.2317 0.0618 -0.610 0.756 0.238 84 49 27 0 0
-0.0047 0.2323 0.0589 -0.610 0.756 0.238 87 52 30 0 0
-0.0050 0.2327 0.0561 -0.603 0.753 0.264 87 52 29 0 0
-0.0054 0.2332 0.0532 -0.278 0.890 0.360 86 52 26 0 0
-0.0057 0.2337 0.0504 -0.646 0.739 0.189 88 54 26 0 0
-0.0051 0.2325 0.0475 -0.527 0.834 0.162 89 55 27 0 0
-0.0048 0.2317 0.0447 -0.672 0.737 0.071 92 58 30 0 0
-0.0046 0.2311 0.0418 -0.591 0.799 0.112 93 59 31 0 0
-0.0042 0.2301 0.0390 -0.794 0.595 0.124 92 58 31 0 0
-0.0070 0.2336 0.0017 -0.094 0.961 0.259 83 45 22 0 0
-0.0076 0.2346 -0.0012 -0.306 0.850 0.428 77 40 16 0 0
-0.0172 0.2498 -0.0668 -0.646 0.763 -0.006 103 82 75 0 0
-0.0238 0.2617 -0.0833 -0.290 0.946 0.146 67 30 12 0 0
-0.0246 0.2628 -0.0919 -0.176 0.937 0.302 61 27 8 0 0
-0.0266 0.2664 -0.0974 -0.419 0.461 0.782 107 81 69 0 0
-0.0284 0.2698 -0.1000 -0.005 0.462 0.887 96 68 53 0 0
-0.0440 0.2993 -0.1203 -0.072 0.882 0.466 157 126 112 0 0
-0.0469 0.3044 -0.1311 -0.419 0.892 0.170 85 40 12 0 0
-0.0422 0.2927 -0.1751 -0.665 0.706 -0.243 66 48 36 0 0
-0.0315 0.2695 -0.2159 0.140 0.897 -0.419 62 40 29 0 0
-0.0307 0.2677 -0.2191 0.227 0.896 -0.382 62 40 29 0 0
-0.0237 0.2507 -0.2812 -0.512 0.817 0.264 61 35 22 0 0
-0.0238 0.2506 -0.2842 -0.325 0.765 0.556 65 39 26 0 0
-0.0260 0.2543 -0.2985 -0.381 0.896 0.226 58 34 21 0 0
-0.0253 0.2518 -0.3170 -0.495 0.840 0.222 56 24 8 0 0
-0.0271 0.2548 -0.3284 -0.261 0.948 -0.182 73 45 26 0 0
-0.0397 0.2753 -0.4020 -0.457 0.890 0.006 77 35 12 0 0
-0.0470 0.2886 -0.4196 -0.473 0.874 0.114 73 32 12 0 0
-0.0112 0.2159 -0.4674 -0.755 0.647 0.109 82 54 31 0 0
-0.0112 0.2141 -0.5027 -0.608 0.789 0.084 63 31 11 0 0
-0.0117 0.2112 -0.5738 -0.528 0.823 0.210 83 48 21 0 0
-0.0121 0.2117 -0.5769 -0.528 0.823 0.210 82 48 20 0 0
-0.0128 0.2129 -0.5797 -0.626 0.768 0.137 86 53 22 0 0
-0.0144 0.2151 -0.5982 -0.596 0.769 0.230 88 51 22 0 0
-0.0163 0.2155 -0.6563 -0.287 0.933 0.217 78 41 13 0 0
-0.0242 0.2288 -0.6964 -0.299 0.945 0.131 59 26 9 0 0
-0.0317 0.2404 -0.7533 -0.573 0.788 0.225 59 23 7 0 0
-0.0328 0.2423 -0.7589 -0.681 0.665 0.307 55 22 6 0 0
-0.0493 0.2665 -0.9043 -0.443 0.889 0.120 64 38 23 0 0
-0.0496 0.2668 -0.9074 -0.443 0.889 0.120 62 36 21 0 0
-0.0498 0.2671 -0.9106 -0.443 0.889 0.120 60 36 21 0 0
-0.0501 0.2675 -0.9137 -0.455 0.891 -0.003 63 38 23 0 0
-0.0535 0.2725 -0.9440 -0.683 0.726 -0.076 79 45 20 0 0
-0.0618 0.2877 -0.9616 -0.629 0.609 0.484 88 68 59 0 0
-0.0726 0.3075 -0.9892 -0.313 0.753 0.578 108 84 69 0 0
-0.0918 0.3403 -1.0730 -0.631 0.769 -0.103 76 49 34 0 0
-0.0946 0.3441 -1.1032 -0.390 0.920 0.040 87 44 11 0 0
-0.0952 0.3443 -1.1228 -0.512 0.848 0.134 93 62 35 0 0
-0.0949 0.3434 -1.1267 -0.412 0.905 0.109 91 60 35 0 0
0.0156 0.2019 0.1113 -0.435 0.210 0.876 122 94 76 0 0
0.0125 0.2077 0.1082 -0.308 0.442 0.842 123 95 81 0 0
0.0002 0.2295 0.0675 -0.425 0.814 0.395 83 49 27 0 0
-0.0026 0.2339 0.0475 -0.727 0.681 0.087 87 53 25 0 0
-0.0028 0.2341 0.0446 -0.727 0.681 0.087 86 52 24 0 0
-0.0035 0.2335 0.0074 -0.610 0.777 0.155 79 41 15 0 0
-0.0038 0.2339 0.0045 -0.610 0.777 0.155 78 40 16 0 0
-0.0042 0.2345 0.0016 -0.232 0.858 0.458 73 35 12 0 0
-0.0050 0.2358 -0.0012 -0.232 0.858 0.458 73 36 12 0 0
-0.0036 0.2315 -0.0331 -0.724 0.572 0.386 82 48 23 0 0
-0.0199 0.2604 -0.0836 -0.557 0.773 0.303 75 39 21 0 0
-0.0217 0.2638 -0.0862 -0.607 0.773 0.185 68 36 14 0 0
-0.0221 0.2643 -0.0919 -0.621 0.725 0.297 58 24 5 0 0
-0.0444 0.3056 -0.1312 -0.419 0.892 0.170 86 41 14 0 0
-0.0459 0.3079 -0.1451 -0.574 0.815 0.080 66 36 19 0 0
-0.0419 0.2988 -0.1689 -0.876 0.447 0.182 67 49 36 0 0
-0.0301 0.2730 -0.2186 -0.635 0.708 -0.310 61 39 28 0 0
-0.0212 0.2523 -0.2812 -0.512 0.817 0.264 61 35 22 0 0
-0.0210 0.2518 -0.2843 -0.273 0.764 0.584 63 37 24 0 0
-0.0227 0.2543 -0.2988 -0.196 0.901 0.388 57 33 20 0 0
-0.0224 0.2530 -0.3111 -0.402 0.902 -0.160 60 32 21 0 0
-0.0195 0.2441 -0.3706 -0.819 0.573 0.036 50 28 19 0 0
-0.0379 0.2781 -0.4047 -0.412 0.894 0.176 110 77 62 0 0
-0.0443 0.2898 -0.4197 -0.657 0.744 0.122 72 31 11 0 0
-0.0444 0.2898 -0.4227 -0.673 0.733 0.103 74 33 13 0 0
-0.0440 0.2884 -0.4351 -0.626 0.749 -0.216 80 50 31 0 0
-0.0090 0.2184 -0.4671 -0.755 0.647 0.109 83 55 32 0 0
-0.0090 0.2143 -0.5413 -0.513 0.858 -0.032 74 39 17 0 0
-0.0091 0.2144 -0.5445 -0.427 0.904 0.018 72 37 15 0 0
-0.0091 0.2142 -0.5477 -0.395 0.918 0.036 73 38 16 0 0
-0.0098 0.2155 -0.5505 -0.521 0.836 0.174 79 44 22 0 0
-0.0101 0.2159 -0.5536 -0.521 0.836 0.174 77 42 20 0 0
-0.0095 0.2135 -0.5768 -0.358 0.912 0.201 87 52 24 0 0
-0.0108 0.2156 -0.5858 -0.666 0.734 0.133 84 48 19 0 0
-0.0112 0.2161 -0.5888 -0.591 0.780 0.204 84 48 19 0 0
-0.0123 0.2180 -0.5945 -0.617 0.786 0.027 85 48 19 0 0
-0.0122 0.2167 -0.6143 -0.607 0.781 0.148 79 42 13 0 0
-0.0125 0.2171 -0.6174 -0.607 0.781 0.148 76 39 10 0 0
-0.0128 0.2175 -0.6205 -0.607 0.781 0.148 76 39 10 0 0
-0.0138 0.2180 -0.6462 -0.333 0.930 0.154 87 48 17 0 0
-0.0137 0.2173 -0.6562 -0.483 0.864 0.140 75 38 10 0 0
-0.0206 0.2270 -0.7240 -0.863 0.487 0.134 57 24 7 0 0
-0.0275 0.2390 -0.7513 -0.541 0.685 0.487 59 23 7 0 0
-0.0318 0.2469 -0.7608 -0.303 0.808 0.506 57 26 7 0 0
-0.0325 0.2481 -0.7635 -0.231 0.864 0.447 56 25 6 0 0
-0.0321 0.2472 -0.7672 -0.769 0.627 0.122 54 21 6 0 0
-0.0326 0.2480 -0.7701 -0.609 0.767 -0.204 54 21 6 0 0
-0.0324 0.2473 -0.7736 -0.549 0.780 -0.298 54 21 6 0 0
-0.0369 0.2541 -0.8096 -0.669 0.701 0.246 59 23 7 0 0
-0.0585 0.2923 -0.8845 -0.252 0.936 -0.247 68 42 27 0 0
-0.0580 0.2872 -0.9595 -0.495 0.398 0.772 91 70 60 0 0
-0.0588 0.2887 -0.9619 -0.632 0.567 0.528 92 72 62 0 0
-0.0697 0.3083 -0.9896 -0.660 0.750 0.037 122 99 83 0 0
-0.0708 0.3104 -0.9916 -0.441 0.799 0.408 113 90 76 0 0
-0.0714 0.3114 -0.9943 -0.441 0.799 0.408 109 82 67 0 0
-0.0799 0.3278 -1.0004 -0.407 0.702 0.585 90 46 15 0 0
-0.0885 0.3418 -1.0501 -0.514 0.851 0.111 92 57 29 0 0
-0.0897 0.3432 -1.0655 -0.420 0.903 0.090 89 58 37 0 0
-0.0897 0.3417 -1.0927 -0.743 0.668 -0.040 52 24 11 0 0
-0.0924 0.3451 -1.1265 -0.485 0.862 0.144 88 58 33 0 0
-0.0005 0.2362 0.0474 -0.727 0.681 0.087 87 53 25 0 0
-0.0015 0.2359 0.0073 -0.645 0.764 0.026 82 45 19 0 0
-0.0015 0.2357 0.0044 -0.610 0.777 0.155 82 45 21 0 0
-0.0014 0.2354 0.0015 -0.306 0.850 0.428 80 44 20 0 0
-0.0001 0.2308 -0.0362 -0.177 0.953 0.246 81 46 23 0 0
-0.0012 0.2328 -0.0390 -0.250 0.967 0.045 81 46 24 0 0
-0.0187 0.2644 -0.0835 -0.124 0.984 0.126 68 32 14 0 0
-0.0189 0.2647 -0.0863 -0.334 0.894 0.299 69 37 15 0 0
-0.0189 0.2645 -0.0892 -0.506 0.862 0.021 58 24 4 0 0
-0.0195 0.2657 -0.0920 -0.509 0.837 0.204 61 27 8 0 0
-0.0348 0.2943 -0.1126 -0.257 0.934 0.249 124 88 69 0 0
-0.0429 0.3081 -0.1453 -0.573 0.817 0.063 67 36 19 0 0
-0.0316 0.2826 -0.2116 -0.837 0.360 0.411 63 41 30 0 0
-0.0219 0.2616 -0.2531 0.105 0.994 -0.020 60 38 27 0 0
-0.0187 0.2539 -0.2812 -0.512 0.817 0.264 62 36 23 0 0
-0.0194 0.2548 -0.2901 -0.157 0.914 0.375 61 35 21 0 0
-0.0238 0.2615 -0.3247 -0.327 0.945 0.016 74 44 22 0 0
-0.0141 0.2409 -0.3564 -0.358 0.843 0.401 50 25 10 0 0
-0.0195 0.2497 -0.3880 -0.146 0.920 0.364 60 33 19 0 0
-0.0423 0.2924 -0.4194 -0.509 0.835 0.207 71 30 10 0 0
-0.0419 0.2914 -0.4227 -0.474 0.881 0.013 72 31 11 0 0
-0.0080 0.2206 -0.5176 -0.603 0.763 0.234 72 40 19 0 0
-0.0066 0.2164 -0.5412 -0.688 0.713 0.132 77 42 20 0 0
-0.0072 0.2175 -0.5440 -0.505 0.753 0.422 77 42 20 0 0
-0.0075 0.2180 -0.5470 -0.494 0.769 0.406 78 43 21 0 0
-0.0080 0.2188 -0.5500 -0.476 0.841 0.257 78 43 21 0 0
-0.0081 0.2188 -0.5532 -0.426 0.878 0.220 74 39 17 0 0
-0.0063 0.2143 -0.5707 -0.443 0.896 0.025 86 50 24 0 0
-0.0064 0.2143 -0.5739 -0.495 0.867 0.064 88 52 26 0 0
-0.0089 0.2184 -0.5918 -0.552 0.819 0.159 85 50 20 0 0
-0.0097 0.2196 -0.5946 -0.521 0.842 0.139 85 48 19 0 0
-0.0099 0.2199 -0.5976 -0.521 0.842 0.139 86 49 20 0 0
-0.0089 0.2169 -0.6181 -0.333 0.943 0.019 85 48 19 0 0
-0.0091 0.2169 -0.6246 -0.333 0.943 0.019 85 48 19 0 0
-0.0091 0.2168 -0.6279 -0.328 0.944 -0.010 84 47 19 0 0
-0.0104 0.2188 -0.6368 -0.355 0.932 0.070 88 52 20 0 0
-0.0109 0.2190 -0.6530 -0.436 0.900 -0.002 82 43 14 0 0
-0.0106 0.2180 -0.6566 -0.440 0.887 0.141 75 38 11 0 0
-0.0108 0.2184 -0.6597 -0.440 0.887 0.141 74 37 10 0 0
-0.0112 0.2189 -0.6628 -0.474 0.864 0.171 71 34 8 0 0
-0.0116 0.2196 -0.6657 -0.412 0.838 0.356 67 29 6 0 0
-0.0130 0.2218 -0.6746 -0.460 0.824 0.332 66 30 8 0 0
-0.0295 0.2491 -0.7638 -0.227 0.866 0.446 56 26 6 0 0
-0.0298 0.2495 -0.7669 -0.322 0.928 0.189 54 23 8 0 0
-0.0495 0.2838 -0.8411 -0.405 0.807 0.429 72 33 9 0 0
-0.0518 0.2876 -0.8521 -0.539 0.837 0.092 88 44 17 0 0
-0.0557 0.2940 -0.8747 -0.626 0.416 0.660 75 47 33 0 0
-0.0570 0.2964 -0.8799 -0.288 0.789 0.543 71 43 31 0 0
-0.0536 0.2893 -0.8870 0.225 0.967 -0.121 67 40 26 0 0
-0.0575 0.2928 -0.9637 -0.567 0.684 0.459 95 75 68 0 0
-0.0743 0.3240 -0.9907 -0.221 0.711 0.667 107 82 63 0 0
-0.0815 0.3364 -1.0187 -0.549 0.835 0.033 94 50 12 0 0
-0.0851 0.3423 -1.0409 -0.516 0.815 0.263 89 51 20 0 0
-0.0875 0.3443 -1.0887 -0.760 0.630 0.162 41 20 12 0 0
-0.0879 0.3448 -1.0916 -0.766 0.546 0.340 54 26 14 0 0
-0.0884 0.3452 -1.1045 -0.374 0.875 0.306 85 42 9 0 0
-0.0900 0.3473 -1.1228 -0.640 0.765 0.077 92 61 34 0 0
-0.0952 0.3565 -1.1393 -0.438 0.898 0.046 80 55 38 0 0
0.0159 0.2141 0.1108 -0.372 0.244 0.896 120 92 74 0 0
0.0143 0.2170 0.1078 -0.244 0.417 0.876 118 90 74 0 0
0.0005 0.2394 0.0273 -0.768 0.614 0.180 85 50 23 0 0
0.0006 0.2391 0.0245 -0.710 0.704 0.004 82 47 19 0 0
0.0006 0.2391 0.0216 -0.710 0.704 0.004 82 47 19 0 0
0.0027 0.2340 0.0043 -0.032 0.980 0.198 81 45 20 0 0
0.0023 0.2345 0.0014 -0.032 0.980 0.198 83 47 23 0 0
0.0021 0.2332 -0.0333 -0.300 0.891 0.342 82 46 22 0 0
-0.0157 0.2650 -0.0836 -0.369 0.848 0.380 70 34 15 0 0
-0.0171 0.2672 -0.0921 -0.592 0.791 0.153 63 29 10 0 0
-0.0394 0.3082 -0.1342 -0.320 0.947 -0.023 86 45 20 0 0
-0.0302 0.2862 -0.2114 -0.374 0.827 0.420 63 41 30 0 0
-0.0173 0.2568 -0.2960 -0.630 0.732 0.258 58 32 17 0 0
-0.0170 0.2562 -0.2991 -0.589 0.788 0.178 57 33 19 0 0
-0.0346 0.2847 -0.4039 -0.197 0.803 0.563 92 58 44 0 0
-0.0398 0.2932 -0.4317 -0.597 0.749 -0.289 80 48 28 0 0
-0.0062 0.2265 -0.4658 -0.299 0.912 -0.280 83 56 33 0 0
-0.0056 0.2242 -0.4885 -0.464 0.857 0.224 65 32 13 0 0
-0.0041 0.2166 -0.5737 -0.667 0.712 0.219 85 48 22 0 0
-0.0044 0.2170 -0.5767 -0.537 0.832 0.137 84 47 20 0 0
-0.0052 0.2185 -0.5794 -0.613 0.775 0.153 83 46 18 0 0
-0.0066 0.2198 -0.6047 -0.432 0.899 -0.072 84 48 19 0 0
-0.0066 0.2186 -0.6278 -0.310 0.925 0.218 85 48 20 0 0
-0.0079 0.2201 -0.6467 -0.436 0.900 0.017 85 48 16 0 0
-0.0075 0.2191 -0.6503 -0.468 0.883 0.044 86 47 17 0 0
-0.0076 0.2192 -0.6535 -0.468 0.883 0.044 84 45 15 0 0
-0.0078 0.2194 -0.6567 -0.440 0.887 0.141 79 41 13 0 0
-0.0080 0.2198 -0.6598 -0.433 0.871 0.231 73 36 8 0 0
-0.0084 0.2204 -0.6628 -0.474 0.864 0.171 71 34 8 0 0
-0.0115 0.2256 -0.6770 -0.542 0.803 0.248 62 26 7 0 0
-0.0284 0.2535 -0.7657 -0.162 0.819 0.551 53 24 7 0 0
-0.0315 0.2582 -0.7929 -0.572 0.600 0.559 60 24 8 0 0
-0.0332 0.2612 -0.7979 -0.602 0.534 0.593 62 27 10 0 0
-0.0341 0.2628 -0.8004 -0.602 0.534 0.593 63 28 11 0 0
-0.0363 0.2668 -0.8049 -0.554 0.774 0.306 57 21 6 0 0
-0.0462 0.2841 -0.8385 -0.465 0.774 0.429 64 27 9 0 0
-0.0468 0.2852 -0.8412 -0.405 0.807 0.429 71 31 10 0 0
-0.0484 0.2879 -0.8495 -0.556 0.790 0.258 86 43 14 0 0
-0.0488 0.2885 -0.8524 -0.556 0.790 0.258 89 48 19 0 0
-0.0465 0.2810 -0.9088 -0.149 0.912 0.383 59 35 19 0 0
-0.0476 0.2823 -0.9278 -0.476 0.857 0.199 76 45 26 0 0
-0.0543 0.2933 -0.9610 -0.588 0.626 0.513 91 71 63 0 0
-0.0551 0.2947 -0.9635 -0.466 0.774 0.429 101 82 74 0 0
-0.0666 0.3155 -0.9936 -0.439 0.848 0.297 112 87 72 0 0
-0.0733 0.3283 -0.9955 -0.152 0.772 0.617 101 67 44 0 0
-0.0789 0.3380 -1.0186 -0.549 0.835 0.033 95 51 13 0 0
-0.0791 0.3383 -1.0217 -0.673 0.733 0.097 97 53 18 0 0
-0.0844 0.3461 -1.0655 -0.837 0.544 0.057 87 55 35 0 0
-0.0849 0.3461 -1.0852 -0.513 0.840 0.174 37 17 10 0 0
-0.0868 0.3483 -1.1133 -0.465 0.880 0.097 98 61 29 0 0
-0.0871 0.3486 -1.1163 -0.476 0.879 -0.014 99 64 36 0 0
-0.0877 0.3498 -1.1188 -0.509 0.855 0.104 100 68 40 0 0
-0.0880 0.3501 -1.1219 -0.586 0.801 0.126 98 67 41 0 0
-0.0922 0.3573 -1.1397 -0.312 0.816 0.487 81 57 39 0 0
-0.0930 0.3588 -1.1420 -0.377 0.872 0.311 67 49 34 0 0
-0.0931 0.3588 -1.1453 -0.410 0.903 -0.129 79 67 53 0 0
-0.0916 0.3554 -1.1543 -0.296 0.920 -0.258 157 152 146 0 0
0.0198 0.2129 0.1108 -0.222 0.387 0.895 121 93 73 0 0
0.0145 0.2228 0.1047 -0.375 0.549 0.747 129 100 82 0 0
0.0136 0.2244 0.1018 -0.143 0.742 0.655 142 114 96 0 0
0.0122 0.2269 0.0988 -0.237 0.674 0.700 130 103 88 0 0
0.0028 0.2413 0.0244 -0.710 0.704 0.004 94 60 32 0 0
0.0027 0.2412 0.0215 -0.710 0.704 0.004 94 60 32 0 0
0.0024 0.2406 -0.0014 -0.684 0.727 -0.054 82 46 21 0 0
0.0022 0.2406 -0.0100 -0.721 0.691 -0.043 81 44 19 0 0
-0.0147 0.2690 -0.0921 -0.592 0.791 0.153 64 27 8 0 0
-0.0290 0.2958 -0.1043 -0.704 0.485 0.519 111 77 58 0 0
-0.0276 0.2931 -0.1074 -0.351 0.319 0.880 119 88 68 0 0
-0.0374 0.3106 -0.1341 -0.492 0.869 0.048 82 42 15 0 0
-0.0135 0.2563 -0.2904 -0.256 0.892 0.371 63 37 22 0 0
-0.0163 0.2604 -0.3136 -0.400 0.912 0.093 56 27 11 0 0
-0.0380 0.2966 -0.4222 -0.498 0.866 -0.037 72 33 13 0 0
-0.0383 0.2970 -0.4251 -0.605 0.794 0.064 77 37 17 0 0
-0.0030 0.2257 -0.4885 -0.354 0.876 0.327 65 33 14 0 0
-0.0033 0.2262 -0.4915 -0.502 0.829 0.245 69 39 20 0 0
-0.0010 0.2191 -0.5414 -0.477 0.861 0.176 76 42 17 0 0
-0.0014 0.2198 -0.5443 -0.411 0.826 0.386 79 45 20 0 0
-0.0009 0.2175 -0.5707 -0.426 0.895 -0.133 81 45 22 0 0
-0.0006 0.2166 -0.5743 -0.452 0.874 0.177 82 45 19 0 0
-0.0004 0.2160 -0.5777 -0.361 0.932 -0.032 83 46 20 0 0
-0.0050 0.2227 -0.6204 -0.345 0.923 0.168 85 48 21 0 0
-0.0054 0.2221 -0.6465 -0.574 0.809 0.127 83 47 15 0 0
-0.0056 0.2224 -0.6496 -0.574 0.809 0.127 85 47 16 0 0
-0.0095 0.2283 -0.6798 -0.681 0.730 0.050 60 25 6 0 0
-0.0120 0.2311 -0.7210 -0.485 0.845 0.226 55 23 8 0 0
-0.0124 0.2317 -0.7241 -0.485 0.845 0.226 54 22 7 0 0
-0.0128 0.2322 -0.7271 -0.485 0.845 0.226 54 22 6 0 0
-0.0195 0.2440 -0.7480 -0.435 0.773 0.462 60 26 9 0 0
-0.0202 0.2453 -0.7507 -0.306 0.844 0.440 62 26 10 0 0
-0.0259 0.2546 -0.7823 -0.240 0.887 0.395 59 22 6 0 0
-0.0264 0.2555 -0.7851 -0.244 0.942 0.230 59 22 6 0 0
-0.0258 0.2541 -0.7890 -0.372 0.783 0.499 58 22 6 0 0
-0.0291 0.2603 -0.7926 -0.511 0.696 0.504 59 23 7 0 0
-0.0329 0.2671 -0.7991 -0.769 0.559 0.311 62 27 8 0 0
-0.0471 0.2915 -0.8582 -0.575 0.812 0.099 86 52 25 0 0
-0.0464 0.2897 -0.8656 -0.507 0.809 0.298 87 55 31 0 0
-0.0423 0.2788 -0.9241 -0.272 0.960 0.060 71 42 26 0 0
-0.0426 0.2790 -0.9306 -0.294 0.956 0.012 75 44 25 0 0
-0.0427 0.2790 -0.9339 -0.294 0.956 0.012 75 42 23 0 0
-0.0429 0.2793 -0.9370 -0.626 0.688 0.366 77 43 24 0 0
-0.0434 0.2800 -0.9433 -0.583 0.809 -0.066 75 40 20 0 0
-0.0518 0.2952 -0.9608 -0.326 0.720 0.613 105 86 80 0 0
-0.0525 0.2964 -0.9634 -0.464 0.749 0.473 98 80 69 0 0
-0.0532 0.2976 -0.9660 -0.464 0.749 0.473 98 80 68 0 0
-0.0546 0.3003 -0.9677 -0.470 0.612 0.636 96 76 65 0 0
-0.0692 0.3273 -0.9905 -0.398 0.667 0.630 105 79 64 0 0
-0.0764 0.3395 -1.0219 -0.356 0.873 0.334 97 53 17 0 0
-0.0769 0.3403 -1.0246 -0.356 0.873 0.334 100 58 22 0 0
-0.0797 0.3455 -1.0278 -0.417 0.898 0.142 99 59 23 0 0
-0.0797 0.3454 -1.0311 -0.379 0.922 0.076 97 57 22 0 0
-0.0799 0.3456 -1.0343 -0.379 0.922 0.076 96 57 24 0 0
-0.0804 0.3464 -1.0370 -0.313 0.946 0.084 93 56 26 0 0
-0.0807 0.3468 -1.0399 -0.274 0.920 0.280 91 54 25 0 0
-0.0797 0.3430 -1.0785 -0.414 0.871 0.265 67 40 33 0 0
-0.0801 0.3436 -1.0813 -0.414 0.871 0.265 56 34 27 0 0
-0.0821 0.3472 -1.0854 -0.322 0.944 0.067 37 16 10 0 0
-0.0819 0.3464 -1.0926 -0.440 0.892 0.107 46 19 7 0 0
-0.0821 0.3466 -1.0957 -0.582 0.811 0.058 61 26 11 0 0
-0.0825 0.3474 -1.0985 -0.597 0.767 0.236 67 30 11 0 0
-0.0826 0.3473 -1.1018 -0.476 0.823 0.310 76 36 11 0 0
-0.0826 0.3471 -1.1052 -0.464 0.745 0.479 88 45 14 0 0
-0.0846 0.3504 -1.1161 -0.171 0.984 0.047 99 67 39 0 0
-0.0896 0.3588 -1.1397 -0.373 0.793 0.482 77 54 35 0 0
-0.0903 0.3600 -1.1422 -0.373 0.793 0.482 66 48 32 0 0
-0.0908 0.3609 -1.1448 -0.497 0.865 -0.065 79 66 52 0 0
0.0227 0.2137 0.1108 -0.180 0.324 0.929 121 92 75 0 0
0.0173 0.2237 0.1046 -0.280 0.705 0.652 137 107 89 0 0
0.0161 0.2259 0.1017 -0.267 0.735 0.624 141 112 94 0 0
0.0039 0.2479 0.0726 -0.390 0.853 0.348 109 74 46 0 0
0.0028 0.2498 0.0697 -0.436 0.883 0.175 93 52 20 0 0
0.0011 0.2524 0.0556 0.021 0.986 0.168 83 47 19 0 0
0.0007 0.2529 0.0527 0.021 0.986 0.168 87 53 24 0 0
0.0048 0.2437 0.0272 -0.831 0.555 -0.031 88 53 25 0 0
0.0049 0.2434 0.0243 -0.710 0.704 0.004 87 52 24 0 0
0.0049 0.2434 0.0215 -0.710 0.704 0.004 84 49 21 0 0
0.0047 0.2433 0.0129 -0.649 0.760 -0.029 85 49 21 0 0
0.0045 0.2433 0.0072 -0.691 0.720 0.064 83 47 21 0 0
0.0044 0.2434 0.0043 -0.691 0.720 0.064 86 50 23 0 0
-0.0273 0.2987 -0.1042 -0.210 0.686 0.696 109 76 58 0 0
-0.0256 0.2953 -0.1074 -0.426 0.364 0.828 131 99 81 0 0
-0.0195 0.2784 -0.2101 0.230 0.955 -0.186 62 40 29 0 0
-0.0129 0.2617 -0.2868 -0.431 0.899 0.082 62 36 21 0 0
-0.0156 0.2653 -0.3190 -0.549 0.773 0.318 67 34 16 0 0
-0.0138 0.2583 -0.3871 -0.769 0.306 0.561 62 36 23 0 0
-0.0340 0.2955 -0.4199 -0.343 0.872 0.348 71 30 10 0 0
-0.0355 0.2980 -0.4253 -0.404 0.913 -0.062 77 37 17 0 0
-0.0002 0.2269 -0.4887 -0.354 0.876 0.327 60 30 12 0 0
-0.0006 0.2276 -0.4916 -0.403 0.869 0.285 57 29 11 0 0
0.0015 0.2220 -0.5219 -0.268 0.956 0.116 68 36 16 0 0
0.0020 0.2202 -0.5384 -0.460 0.887 -0.042 71 36 14 0 0
0.0016 0.2209 -0.5413 -0.339 0.903 0.263 76 41 19 0 0
0.0011 0.2216 -0.5443 -0.340 0.881 0.328 83 48 26 0 0
0.0005 0.2226 -0.5472 -0.501 0.864 0.056 74 39 17 0 0
0.0023 0.2179 -0.5744 -0.395 0.917 0.060 78 40 17 0 0
0.0018 0.2183 -0.5839 -0.373 0.921 0.114 81 44 17 0 0
-0.0009 0.2228 -0.5984 -0.487 0.807 0.334 81 44 15 0 0
-0.0049 0.2270 -0.6647 -0.307 0.950 -0.058 75 38 13 0 0
-0.0051 0.2272 -0.6679 -0.436 0.900 -0.010 72 34 11 0 0
-0.0091 0.2331 -0.7013 -0.283 0.934 0.216 57 25 6 0 0
-0.0093 0.2325 -0.7211 -0.663 0.676 0.323 52 20 5 0 0
-0.0098 0.2334 -0.7240 -0.663 0.676 0.323 54 22 7 0 0
-0.0125 0.2383 -0.7317 -0.463 0.809 0.362 55 24 6 0 0
-0.0173 0.2465 -0.7509 -0.244 0.891 0.383 60 25 8 0 0
-0.0271 0.2637 -0.7820 0.226 0.853 0.471 59 23 7 0 0
-0.0354 0.2777 -0.8206 -0.266 0.864 0.427 57 23 6 0 0
-0.0349 0.2765 -0.8245 -0.531 0.732 0.427 59 23 7 0 0
-0.0368 0.2799 -0.8260 -0.130 0.984 0.121 59 23 7 0 0
-0.0440 0.2918 -0.8654 -0.745 0.625 0.235 84 52 28 0 0
-0.0489 0.2964 -0.9610 -0.272 0.734 0.622 96 76 69 0 0
-0.0499 0.2981 -0.9633 -0.272 0.734 0.622 99 81 70 0 0
-0.0508 0.2997 -0.9657 -0.272 0.734 0.622 99 80 68 0 0
-0.0521 0.3021 -0.9675 -0.374 0.615 0.694 91 71 60 0 0
-0.0611 0.3186 -0.9838 -0.606 0.796 -0.006 103 79 67 0 0
-0.0681 0.3316 -0.9920 -0.610 0.498 0.616 100 73 57 0 0
-0.0684 0.3321 -0.9950 -0.620 0.637 0.459 100 66 45 0 0
-0.0691 0.3333 -0.9975 -0.620 0.637 0.459 94 57 30 0 0
-0.0723 0.3387 -1.0103 -0.358 0.933 0.045 91 45 9 0 0
-0.0730 0.3400 -1.0128 -0.497 0.862 0.103 92 46 10 0 0
-0.0769 0.3465 -1.0313 -0.379 0.922 0.076 98 58 23 0 0
-0.0773 0.3471 -1.0342 -0.313 0.946 0.084 95 56 23 0 0
-0.0770 0.3444 -1.0786 -0.493 0.805 0.331 69 41 31 0 0
-0.0775 0.3451 -1.0814 -0.474 0.880 0.016 58 35 27 0 0
-0.0793 0.3484 -1.0857 -0.404 0.903 -0.147 35 15 9 0 0
-0.0784 0.3463 -1.0937 -0.438 0.895 -0.082 44 17 8 0 0
-0.0797 0.3486 -1.0954 -0.631 0.737 0.244 58 23 12 0 0
-0.0801 0.3492 -1.0983 -0.631 0.737 0.244 65 26 10 0 0
-0.0828 0.3532 -1.1218 -0.530 0.830 0.173 96 66 39 0 0
-0.0831 0.3536 -1.1248 -0.460 0.882 0.100 94 64 39 0 0
-0.0832 0.3533 -1.1349 -0.634 0.773 0.007 89 61 37 0 0
-0.0882 0.3624 -1.1448 -0.497 0.865 -0.065 79 65 52 0 0
-0.0856 0.3570 -1.1554 -0.453 0.698 -0.554 154 151 143 0 0
0.0410 0.1855 0.1179 -0.598 0.787 0.154 146 138 130 0 0
0.0199 0.2251 0.1046 -0.046 0.767 0.641 135 104 85 0 0
0.0195 0.2258 0.1017 -0.163 0.744 0.649 145 115 97 0 0
0.0150 0.2339 0.0928 -0.133 0.889 0.438 121 93 78 0 0
0.0070 0.2482 0.0754 -0.390 0.853 0.348 113 79 55 0 0
0.0065 0.2491 0.0725 -0.390 0.853 0.348 102 64 37 0 0
0.0062 0.2496 0.0697 -0.347 0.937 -0.026 86 46 18 0 0
0.0029 0.2550 0.0498 -0.062 0.887 0.458 106 72 44 0 0
-0.0353 0.3181 -0.1450 -0.234 0.967 0.097 68 37 20 0 0
-0.0264 0.3000 -0.1670 -0.206 0.938 -0.280 66 46 35 0 0
-0.0120 0.2705 -0.2056 -0.588 0.802 0.108 64 41 33 0 0
-0.0122 0.2707 -0.2085 -0.544 0.837 0.059 63 40 32 0 0
-0.0108 0.2678 -0.2119 -0.747 0.345 0.568 62 40 29 0 0
-0.0092 0.2624 -0.2571 -0.762 0.644 -0.066 61 39 28 0 0
-0.0101 0.2630 -0.2809 -0.496 0.866 -0.066 60 34 19 0 0
-0.0096 0.2618 -0.2871 -0.125 0.921 0.368 60 34 19 0 0
-0.0068 0.2528 -0.3614 -0.411 0.864 0.291 35 15 6 0 0
-0.0270 0.2891 -0.4070 -0.331 0.815 0.476 109 88 75 0 0
-0.0258 0.2851 -0.4414 -0.325 0.355 -0.877 93 64 45 0 0
0.0045 0.2229 -0.5221 -0.385 0.873 0.299 69 38 18 0 0
0.0007 0.2251 -0.6240 -0.513 0.849 -0.125 89 52 23 0 0
0.0008 0.2247 -0.6273 -0.480 0.866 -0.139 90 52 23 0 0
-0.0020 0.2285 -0.6583 -0.512 0.858 0.041 86 47 18 0 0
-0.0021 0.2286 -0.6615 -0.512 0.858 0.041 80 43 15 0 0
-0.0023 0.2287 -0.6647 -0.512 0.858 0.041 77 40 14 0 0
-0.0024 0.2287 -0.6679 -0.512 0.858 0.041 76 38 13 0 0
-0.0102 0.2405 -0.7314 -0.507 0.660 0.554 54 23 5 0 0
-0.0232 0.2628 -0.7831 0.013 0.588 0.809 59 26 9 0 0
-0.0244 0.2646 -0.7921 -0.138 0.933 0.334 59 23 7 0 0
-0.0255 0.2666 -0.7943 -0.221 0.951 -0.218 61 26 8 0 0
-0.0319 0.2777 -0.8182 -0.456 0.805 0.379 52 22 6 0 0
-0.0326 0.2789 -0.8208 -0.300 0.822 0.484 55 20 5 0 0
-0.0331 0.2797 -0.8237 -0.456 0.805 0.379 56 19 6 0 0
-0.0336 0.2806 -0.8265 -0.432 0.869 0.242 56 20 6 0 0
-0.0344 0.2819 -0.8291 -0.351 0.865 0.358 56 20 6 0 0
-0.0369 0.2861 -0.8399 -0.180 0.974 0.135 65 27 8 0 0
-0.0372 0.2866 -0.8429 -0.140 0.977 0.163 70 30 9 0 0
-0.0417 0.2939 -0.8683 -0.824 0.556 0.108 81 49 27 0 0
-0.0400 0.2891 -0.8970 -0.637 0.683 -0.359 63 37 22 0 0
-0.0346 0.2774 -0.9233 -0.666 0.742 -0.079 70 40 20 0 0
-0.0461 0.2976 -0.9612 -0.235 0.691 0.684 95 73 65 0 0
-0.0671 0.3360 -0.9967 -0.300 0.838 0.456 93 55 29 0 0
-0.0679 0.3374 -0.9991 -0.299 0.764 0.572 92 50 17 0 0
-0.0687 0.3385 -1.0082 -0.659 0.744 0.107 91 45 9 0 0
-0.0695 0.3398 -1.0106 -0.358 0.933 0.045 90 44 8 0 0
-0.0704 0.3415 -1.0128 -0.497 0.862 0.103 91 45 9 0 0
-0.0756 0.3503 -1.0364 -0.543 0.840 0.002 94 56 27 0 0
-0.0749 0.3468 -1.0779 -0.275 0.961 -0.038 71 43 32 0 0
-0.0749 0.3467 -1.0813 -0.275 0.961 -0.038 59 35 26 0 0
-0.0751 0.3470 -1.0844 -0.414 0.871 0.265 47 28 17 0 0
-0.0767 0.3499 -1.0857 -0.460 0.883 0.096 37 15 8 0 0
-0.0760 0.3478 -1.1003 -0.300 0.845 0.443 65 25 9 0 0
-0.0791 0.3531 -1.1130 -0.536 0.831 0.150 93 56 24 0 0
-0.0794 0.3535 -1.1161 -0.536 0.831 0.150 96 64 36 0 0
-0.0800 0.3538 -1.1323 -0.639 0.696 0.328 90 60 36 0 0
-0.0855 0.3637 -1.1450 -0.464 0.848 0.256 78 65 51 0 0
0.0231 0.2253 0.1045 -0.046 0.767 0.641 131 98 81 0 0
0.0222 0.2269 0.1016 -0.112 0.822 0.558 146 113 95 0 0
0.0183 0.2339 0.0928 0.077 0.901 0.426 124 96 76 0 0
0.0098 0.2492 0.0753 -0.543 0.807 0.230 99 60 38 0 0
0.0065 0.2540 0.0469 -0.690 0.698 -0.193 118 75 42 0 0
-0.0332 0.3212 -0.1252 -0.378 0.923 0.079 88 42 17 0 0
-0.0329 0.3206 -0.1281 -0.397 0.902 0.168 83 35 11 0 0
-0.0252 0.3038 -0.1668 -0.655 0.736 0.173 66 48 36 0 0
-0.0101 0.2731 -0.2055 -0.771 0.620 0.145 63 42 33 0 0
-0.0106 0.2741 -0.2083 -0.836 0.540 0.101 62 41 32 0 0
-0.0066 0.2637 -0.2602 -0.266 0.939 0.219 61 39 28 0 0
-0.0066 0.2579 -0.3789 -0.372 0.804 0.463 44 18 10 0 0
-0.0088 0.2618 -0.3840 -0.581 0.778 0.239 53 25 11 0 0
0.0070 0.2249 -0.5220 -0.292 0.928 0.232 63 32 12 0 0
0.0068 0.2249 -0.5284 -0.549 0.831 -0.092 59 28 8 0 0
0.0008 0.2299 -0.6584 -0.460 0.888 -0.007 76 38 11 0 0
0.0007 0.2298 -0.6617 -0.530 0.846 0.056 74 36 10 0 0
0.0003 0.2304 -0.6679 -0.543 0.834 0.099 71 33 9 0 0
-0.0021 0.2334 -0.6993 -0.269 0.928 0.259 67 32 13 0 0
-0.0038 0.2362 -0.7046 -0.319 0.910 0.266 61 27 9 0 0
-0.0054 0.2389 -0.7132 -0.716 0.698 0.036 52 21 4 0 0
-0.0072 0.2414 -0.7317 -0.452 0.694 0.561 53 22 3 0 0
-0.0139 0.2526 -0.7659 -0.555 0.819 0.143 54 22 7 0 0
-0.0283 0.2774 -0.8158 -0.865 0.441 0.239 55 23 8 0 0
-0.0309 0.2820 -0.8266 -0.432 0.869 0.242 61 25 8 0 0
-0.0316 0.2831 -0.8292 -0.351 0.865 0.358 59 23 7 0 0
-0.0341 0.2873 -0.8433 -0.150 0.950 0.273 71 31 9 0 0
-0.0352 0.2891 -0.8489 -0.641 0.665 0.383 79 37 11 0 0
-0.0315 0.2781 -0.9271 -0.604 0.781 -0.158 67 38 20 0 0
-0.0324 0.2788 -0.9467 -0.436 0.835 0.336 77 42 21 0 0
-0.0422 0.2970 -0.9592 -0.235 0.691 0.684 84 62 52 0 0
-0.0480 0.3074 -0.9695 -0.404 0.828 0.388 93 73 62 0 0
-0.0616 0.3323 -0.9902 -0.375 0.663 0.648 101 77 65 0 0
-0.0636 0.3360 -0.9945 -0.260 0.838 0.479 95 63 41 0 0
-0.0643 0.3372 -0.9970 -0.300 0.838 0.456 93 53 26 0 0
-0.0678 0.3430 -1.0128 -0.497 0.862 0.103 89 43 7 0 0
-0.0682 0.3437 -1.0156 -0.365 0.894 0.259 93 48 12 0 0
-0.0717 0.3496 -1.0313 -0.490 0.846 0.210 95 55 20 0 0
-0.0721 0.3501 -1.0342 -0.303 0.952 0.040 92 53 20 0 0
-0.0749 0.3546 -1.0508 -0.464 0.872 0.154 91 57 32 0 0
-0.0757 0.3562 -1.0530 -0.306 0.948 0.083 88 56 31 0 0
-0.0738 0.3515 -1.0725 -0.416 0.894 -0.165 82 54 37 0 0
-0.0811 0.3620 -1.1407 -0.504 0.725 0.469 83 57 37 0 0
-0.0807 0.3606 -1.1549 -0.488 0.706 -0.513 155 152 144 0 0
-0.0790 0.3570 -1.1609 -0.492 0.680 -0.544 176 174 169 0 0
0.0256 0.2266 0.1016 0.056 0.989 0.140 142 108 90 0 0
0.0082 0.2570 0.0440 -0.452 0.765 0.459 122 79 44 0 0
0.0077 0.2575 0.0384 -0.321 0.834 0.450 108 64 37 0 0
0.0158 0.2374 -0.0599 -0.639 0.763 -0.094 13 6 5 0 0
-0.0067 0.2785 -0.0949 -0.278 0.685 0.674 85 55 39 0 0
-0.0255 0.3131 -0.1177 -0.392 0.753 0.529 140 117 104 0 0
-0.0302 0.3216 -0.1254 -0.354 0.935 0.033 86 41 17 0 0
-0.0280 0.3170 -0.1314 -0.401 0.905 0.140 78 37 11 0 0
-0.0051 0.2674 -0.2598 -0.477 0.873 -0.103 61 39 28 0 0
-0.0213 0.2911 -0.4043 -0.410 0.766 0.495 103 74 58 0 0
-0.0271 0.3012 -0.4197 -0.355 0.923 0.147 74 33 11 0 0
-0.0256 0.2975 -0.4357 -0.555 0.775 -0.302 82 54 33 0 0
0.0099 0.2281 -0.4772 -0.565 0.825 -0.009 51 22 7 0 0
0.0097 0.2276 -0.4963 -0.265 0.934 0.239 58 31 12 0 0
0.0085 0.2280 -0.5343 -0.412 0.856 0.312 68 37 17 0 0
0.0091 0.2254 -0.5639 -0.331 0.938 0.101 72 38 13 0 0
0.0033 0.2316 -0.6616 -0.416 0.886 0.202 75 37 11 0 0
0.0030 0.2321 -0.6646 -0.416 0.886 0.202 74 37 12 0 0
0.0004 0.2358 -0.6891 -0.405 0.914 0.039 67 32 11 0 0
0.0000 0.2362 -0.6955 -0.481 0.848 0.223 67 32 11 0 0
-0.0005 0.2368 -0.7018 -0.308 0.897 0.318 65 30 10 0 0
-0.0046 0.2432 -0.7316 -0.463 0.645 0.608 56 25 6 0 0
-0.0055 0.2448 -0.7342 -0.601 0.653 0.461 54 23 5 0 0
-0.0063 0.2462 -0.7368 -0.482 0.701 0.526 54 23 5 0 0
-0.0072 0.2478 -0.7394 -0.195 0.969 0.150 58 27 8 0 0
-0.0111 0.2540 -0.7627 -0.513 0.858 -0.024 57 26 10 0 0
-0.0120 0.2550 -0.7786 -0.462 0.880 0.108 53 21 8 0 0
-0.0246 0.2772 -0.8135 -0.373 0.827 0.421 56 23 8 0 0
-0.0335 0.2922 -0.8513 -0.440 0.751 0.493 82 41 13 0 0
-0.0309 0.2846 -0.9079 -0.288 0.885 0.365 61 33 19 0 0
-0.0296 0.2803 -0.9434 -0.514 0.833 0.207 80 45 25 0 0
-0.0296 0.2802 -0.9468 -0.436 0.835 0.336 79 44 23 0 0
-0.0413 0.3017 -0.9640 -0.462 0.636 0.618 92 72 64 0 0
-0.0423 0.3033 -0.9663 -0.462 0.636 0.618 91 71 62 0 0
-0.0434 0.3054 -0.9683 -0.557 0.652 0.515 91 71 60 0 0
-0.0452 0.3088 -0.9696 -0.404 0.828 0.388 98 78 67 0 0
-0.0688 0.3507 -1.0283 -0.531 0.830 0.170 93 53 18 0 0
-0.0690 0.3508 -1.0315 -0.485 0.843 0.232 90 50 15 0 0
-0.0696 0.3515 -1.0408 -0.451 0.891 0.042 92 56 26 0 0
-0.0697 0.3516 -1.0440 -0.451 0.891 0.042 93 58 29 0 0
-0.0691 0.3483 -1.0889 -0.422 0.897 0.135 38 15 8 0 0
-0.0694 0.3486 -1.0919 -0.422 0.897 0.135 37 15 8 0 0
-0.0719 0.3533 -1.0953 -0.170 0.969 0.177 56 22 9 0 0
-0.0708 0.3510 -1.1002 -0.454 0.825 0.336 63 26 8 0 0
-0.0785 0.3636 -1.1406 -0.504 0.725 0.469 84 59 38 0 0
-0.0808 0.3676 -1.1476 -0.768 0.613 0.185 118 109 98 0 0
-0.0783 0.3624 -1.1547 -0.538 0.681 -0.497 156 152 144 0 0
0.0332 0.2189 0.1077 -0.368 0.577 0.729 122 93 75 0 0
0.0300 0.2247 0.1045 0.047 0.921 0.386 131 98 79 0 0
0.0291 0.2264 0.1016 0.072 0.995 0.066 140 106 87 0 0
0.0163 0.2488 0.0639 -0.475 0.842 0.257 66 32 11 0 0
0.0106 0.2585 0.0440 -0.309 0.898 0.313 130 87 50 0 0
0.0096 0.2568 -0.0302 -0.805 0.590 0.060 94 57 30 0 0
0.0097 0.2565 -0.0331 -0.496 0.816 0.296 89 52 25 0 0
0.0094 0.2569 -0.0360 -0.612 0.777 0.148 80 44 20 0 0
-0.0230 0.3144 -0.1178 -0.392 0.753 0.529 137 113 101 0 0
-0.0173 0.3013 -0.1647 -0.345 0.901 0.262 66 48 36 0 0
-0.0075 0.2787 -0.2464 -0.684 0.614 0.395 62 40 29 0 0
-0.0063 0.2764 -0.2497 -0.720 0.691 -0.067 64 42 31 0 0
-0.0085 0.2770 -0.3210 -0.275 0.943 0.188 73 41 17 0 0
-0.0074 0.2746 -0.3305 -0.686 0.678 0.264 63 36 19 0 0
0.0027 0.2538 -0.3623 -0.528 0.848 0.051 34 14 7 0 0
0.0023 0.2545 -0.3652 -0.396 0.897 0.199 30 12 6 0 0
-0.0021 0.2620 -0.3817 -0.509 0.806 0.304 52 24 12 0 0
-0.0243 0.3022 -0.4199 -0.339 0.930 0.138 75 34 12 0 0
0.0100 0.2293 -0.5856 -0.522 0.834 0.178 80 44 19 0 0
0.0097 0.2297 -0.5886 -0.522 0.834 0.178 81 44 18 0 0
0.0080 0.2305 -0.6367 -0.460 0.871 0.171 90 53 24 0 0
0.0077 0.2310 -0.6398 -0.460 0.871 0.171 87 50 21 0 0
0.0077 0.2309 -0.6430 -0.438 0.829 0.348 85 48 19 0 0
0.0072 0.2316 -0.6460 -0.442 0.872 0.211 86 49 20 0 0
0.0063 0.2328 -0.6553 -0.460 0.888 -0.007 85 43 17 0 0
0.0063 0.2326 -0.6618 -0.520 0.833 0.191 79 41 14 0 0
0.0060 0.2331 -0.6649 -0.520 0.833 0.191 77 40 14 0 0
0.0056 0.2337 -0.6679 -0.528 0.832 0.170 76 39 14 0 0
0.0056 0.2336 -0.6712 -0.530 0.835 0.144 73 36 12 0 0
0.0034 0.2369 -0.6861 -0.481 0.864 0.146 69 35 11 0 0
0.0032 0.2371 -0.6893 -0.405 0.914 0.039 70 35 11 0 0
0.0031 0.2372 -0.6925 -0.405 0.914 0.039 70 35 12 0 0
0.0027 0.2378 -0.6955 -0.481 0.848 0.223 69 34 12 0 0
0.0024 0.2382 -0.6986 -0.469 0.859 0.206 69 34 12 0 0
-0.0042 0.2488 -0.7397 -0.206 0.967 0.147 57 26 7 0 0
-0.0087 0.2562 -0.7624 -0.410 0.910 0.054 58 27 11 0 0
-0.0087 0.2556 -0.7725 -0.613 0.776 0.149 53 21 8 0 0
-0.0080 0.2535 -0.7899 -0.201 0.951 -0.235 54 22 9 0 0
-0.0257 0.2854 -0.8232 -0.527 0.850 0.012 63 26 8 0 0
-0.0355 0.3016 -0.8699 -0.516 0.741 0.430 82 51 30 0 0
-0.0360 0.3026 -0.8726 -0.440 0.867 0.234 77 47 30 0 0
-0.0364 0.3032 -0.8756 -0.440 0.867 0.234 72 44 30 0 0
-0.0286 0.2867 -0.9109 -0.478 0.813 0.332 60 32 17 0 0
-0.0289 0.2870 -0.9140 -0.240 0.880 0.411 66 39 22 0 0
-0.0399 0.3054 -0.9660 -0.508 0.487 0.711 91 71 61 0 0
-0.0408 0.3070 -0.9683 -0.455 0.610 0.649 92 72 61 0 0
-0.0580 0.3383 -0.9949 -0.783 0.514 0.349 90 59 37 0 0
-0.0658 0.3516 -1.0255 -0.516 0.856 0.033 96 54 19 0 0
-0.0660 0.3519 -1.0285 -0.548 0.815 0.191 94 54 19 0 0
-0.0664 0.3523 -1.0315 -0.485 0.843 0.232 92 52 17 0 0
-0.0664 0.3496 -1.0890 -0.422 0.897 0.135 38 15 8 0 0
-0.0666 0.3499 -1.0921 -0.422 0.897 0.135 37 15 8 0 0
-0.0754 0.3642 -1.1379 -0.172 0.925 0.340 89 61 37 0 0
-0.0767 0.3667 -1.1395 -0.483 0.854 0.192 80 57 35 0 0
-0.0770 0.3671 -1.1424 -0.483 0.854 0.192 66 48 32 0 0
-0.0777 0.3683 -1.1449 -0.536 0.715 0.449 81 67 53 0 0
-0.0785 0.3698 -1.1471 -0.709 0.699 0.099 119 110 99 0 0
-0.0745 0.3616 -1.1597 -0.481 0.627 -0.613 174 173 168 0 0
0.0356 0.2205 0.1076 -0.567 0.610 0.554 122 93 74 0 0
0.0334 0.2246 0.1045 -0.184 0.969 0.163 128 95 75 0 0
0.0322 0.2266 0.0987 0.326 0.878 0.352 141 110 91 0 0
0.0313 0.2281 0.0958 0.359 0.924 0.135 138 109 91 0 0
0.0118 0.2590 -0.0303 -0.757 0.649 0.073 90 53 26 0 0
0.0113 0.2598 -0.0331 -0.725 0.660 0.198 88 51 25 0 0
0.0111 0.2599 -0.0360 -0.528 0.847 -0.057 83 46 22 0 0
0.0110 0.2600 -0.0388 -0.558 0.814 -0.163 77 41 17 0 0
0.0138 0.2541 -0.0506 -0.227 0.752 -0.619 8 4 5 0 0
0.0115 0.2576 -0.0707 -0.366 0.612 0.701 65 33 21 0 0
-0.0205 0.3158 -0.1178 -0.392 0.753 0.529 136 110 97 0 0
-0.0208 0.3154 -0.1348 -0.671 0.699 0.248 75 37 15 0 0
-0.0256 0.3238 -0.1481 -0.392 0.869 -0.301 69 46 34 0 0
-0.0138 0.3009 -0.1649 0.050 0.982 -0.180 65 46 35 0 0
-0.0088 0.2895 -0.2040 -0.656 0.644 -0.394 63 43 34 0 0
-0.0043 0.2791 -0.2437 -0.118 0.985 -0.125 63 41 31 0 0
0.0051 0.2556 -0.3653 -0.556 0.827 0.077 27 10 3 0 0
0.0048 0.2559 -0.3714 -0.556 0.827 0.077 46 20 12 0 0
0.0046 0.2561 -0.3744 -0.556 0.827 0.077 45 19 11 0 0
0.0049 0.2554 -0.3776 -0.731 0.642 0.230 44 20 13 0 0
0.0043 0.2564 -0.3804 -0.293 0.953 0.077 44 18 10 0 0
-0.0213 0.3027 -0.4232 -0.470 0.881 -0.048 74 33 11 0 0
-0.0213 0.3026 -0.4262 -0.470 0.881 -0.048 76 35 13 0 0
0.0069 0.2478 -0.4599 0.397 0.676 -0.621 74 43 21 0 0
0.0162 0.2291 -0.4810 -0.374 0.926 0.050 58 31 16 0 0
0.0162 0.2285 -0.4939 -0.578 0.749 0.325 55 28 9 0 0
0.0132 0.2311 -0.5566 -0.624 0.778 0.071 74 39 19 0 0
0.0120 0.2332 -0.5655 -0.483 0.779 0.401 76 41 19 0 0
0.0114 0.2339 -0.5717 -0.517 0.808 0.284 78 42 20 0 0
0.0111 0.2343 -0.5748 -0.447 0.838 0.312 76 40 18 0 0
0.0113 0.2312 -0.6338 -0.484 0.875 0.002 91 54 25 0 0
0.0083 0.2352 -0.6680 -0.328 0.929 0.173 83 46 19 0 0
0.0054 0.2394 -0.6955 -0.587 0.796 0.145 71 37 14 0 0
0.0043 0.2411 -0.7046 -0.501 0.759 0.415 72 37 16 0 0
0.0038 0.2418 -0.7075 -0.421 0.811 0.407 71 35 14 0 0
0.0039 0.2406 -0.7277 -0.176 0.927 0.331 60 29 9 0 0
0.0005 0.2469 -0.7314 -0.317 0.776 0.545 57 26 6 0 0
-0.0022 0.2516 -0.7391 -0.404 0.906 -0.128 57 26 8 0 0
-0.0054 0.2564 -0.7663 -0.718 0.666 0.201 57 25 10 0 0
-0.0060 0.2572 -0.7725 -0.706 0.704 0.079 57 25 11 0 0
-0.0065 0.2579 -0.7754 -0.554 0.801 0.227 55 23 9 0 0
-0.0060 0.2567 -0.7825 -0.528 0.839 -0.130 55 23 9 0 0
-0.0063 0.2571 -0.7856 -0.332 0.940 -0.075 56 25 11 0 0
-0.0063 0.2570 -0.7890 -0.509 0.856 -0.091 56 24 9 0 0
-0.0237 0.2879 -0.8292 -0.403 0.884 0.234 61 25 8 0 0
-0.0301 0.2983 -0.8660 -0.126 0.983 0.135 83 51 26 0 0
-0.0304 0.2987 -0.8691 -0.126 0.983 0.135 82 51 28 0 0
-0.0258 0.2872 -0.9280 -0.614 0.786 0.063 72 41 23 0 0
-0.0244 0.2837 -0.9466 -0.330 0.889 0.318 78 43 22 0 0
-0.0496 0.3295 -0.9818 -0.344 0.921 0.183 100 78 67 0 0
-0.0629 0.3529 -1.0158 -0.646 0.758 0.088 90 46 11 0 0
-0.0636 0.3537 -1.0283 -0.554 0.815 0.167 92 51 16 0 0
-0.0638 0.3540 -1.0314 -0.503 0.813 0.295 92 52 17 0 0
-0.0643 0.3547 -1.0342 -0.503 0.813 0.295 93 54 22 0 0
-0.0645 0.3549 -1.0373 -0.554 0.815 0.167 94 57 28 0 0
-0.0647 0.3553 -1.0403 -0.559 0.806 0.192 95 59 30 0 0
-0.0651 0.3558 -1.0433 -0.559 0.806 0.192 96 61 32 0 0
-0.0744 0.3689 -1.1390 -0.576 0.816 -0.045 78 55 34 0 0
-0.0747 0.3692 -1.1420 -0.547 0.799 -0.248 65 48 32 0 0
-0.0766 0.3727 -1.1427 -0.824 0.556 0.107 81 68 54 0 0
-0.0768 0.3730 -1.1458 -0.824 0.556 0.107 122 113 102 0 0
0.0398 0.2188 0.1076 -0.217 0.757 0.616 125 96 75 0 0
0.0196 0.2549 0.0666 -0.481 0.876 -0.010 71 33 14 0 0
0.0153 0.2619 0.0438 -0.605 0.628 0.490 147 112 86 0 0
0.0132 0.2622 -0.0360 -0.788 0.615 0.029 76 39 17 0 0
0.0128 0.2627 -0.0417 -0.802 0.594 -0.063 56 26 11 0 0
0.0196 0.2492 -0.0568 -0.660 0.642 0.390 8 5 4 0 0
0.0138 0.2595 -0.0707 -0.485 0.567 0.666 52 25 15 0 0
0.0069 0.2717 -0.0873 -0.434 0.855 0.282 63 29 9 0 0
0.0036 0.2673 -0.3147 -0.424 0.851 0.310 56 24 10 0 0
-0.0033 0.2796 -0.3271 -0.609 0.782 0.134 78 50 29 0 0
0.0069 0.2585 -0.3681 -0.436 0.886 -0.155 51 31 23 0 0
0.0069 0.2584 -0.3712 -0.536 0.767 0.352 53 27 20 0 0
0.0071 0.2578 -0.3744 -0.602 0.798 0.025 39 14 7 0 0
0.0070 0.2578 -0.3774 -0.731 0.642 0.230 41 16 9 0 0
-0.0131 0.2944 -0.4047 0.124 0.984 0.126 103 76 66 0 0
0.0179 0.2311 -0.5126 -0.512 0.812 0.279 64 37 18 0 0
0.0164 0.2319 -0.5537 -0.489 0.870 0.063 77 44 23 0 0
0.0152 0.2338 -0.5627 -0.446 0.776 0.445 78 43 21 0 0
0.0147 0.2347 -0.5656 -0.418 0.830 0.369 77 42 20 0 0
0.0144 0.2350 -0.5687 -0.264 0.957 0.123 78 43 21 0 0
0.0108 0.2368 -0.6745 -0.263 0.944 0.199 80 41 16 0 0
0.0093 0.2390 -0.6899 -0.577 0.805 0.136 74 40 15 0 0
0.0090 0.2393 -0.6930 -0.577 0.805 0.136 72 38 14 0 0
0.0075 0.2417 -0.7018 -0.449 0.809 0.378 69 34 12 0 0
0.0069 0.2427 -0.7046 -0.449 0.809 0.378 69 35 12 0 0
0.0013 0.2514 -0.7432 -0.432 0.868 -0.243 61 28 10 0 0
0.0019 0.2502 -0.7470 -0.406 0.902 -0.146 64 31 11 0 0
0.0009 0.2518 -0.7528 -0.215 0.931 0.295 61 29 9 0 0
-0.0041 0.2603 -0.7718 -0.710 0.682 0.174 57 26 8 0 0
-0.0155 0.2796 -0.8146 -0.461 0.861 0.216 54 21 8 0 0
-0.0211 0.2895 -0.8292 -0.490 0.812 0.316 61 25 9 0 0
-0.0250 0.2933 -0.9056 -0.109 0.959 -0.263 63 35 21 0 0
-0.0222 0.2861 -0.9461 -0.638 0.738 0.220 75 40 19 0 0
-0.0388 0.3162 -0.9712 -0.427 0.434 0.793 93 73 64 0 0
-0.0397 0.3177 -0.9736 -0.476 0.470 0.743 90 70 61 0 0
-0.0536 0.3430 -0.9939 -0.599 0.758 0.256 89 56 36 0 0
-0.0540 0.3435 -0.9968 -0.594 0.778 0.206 86 47 20 0 0
-0.0543 0.3440 -0.9998 -0.594 0.778 0.206 84 40 8 0 0
-0.0594 0.3526 -1.0203 -0.497 0.769 0.401 84 40 6 0 0
-0.0600 0.3536 -1.0229 -0.550 0.768 0.329 89 45 10 0 0
-0.0610 0.3553 -1.0250 -0.485 0.848 0.213 93 49 14 0 0
-0.0612 0.3556 -1.0281 -0.531 0.830 0.170 94 51 16 0 0
-0.0615 0.3561 -1.0310 -0.497 0.832 0.247 93 52 19 0 0
-0.0619 0.3567 -1.0339 -0.497 0.832 0.247 92 53 21 0 0
-0.0621 0.3569 -1.0370 -0.480 0.872 0.089 92 57 28 0 0
-0.0622 0.3570 -1.0402 -0.559 0.806 0.192 95 60 32 0 0
-0.0628 0.3580 -1.0428 -0.519 0.827 0.215 95 62 34 0 0
-0.0632 0.3585 -1.0457 -0.519 0.827 0.215 93 62 33 0 0
-0.0616 0.3533 -1.0952 -0.596 0.785 0.168 53 26 15 0 0
-0.0620 0.3539 -1.0980 -0.502 0.829 0.246 61 28 13 0 0
-0.0650 0.3592 -1.1041 -0.445 0.839 0.313 79 37 11 0 0
-0.0738 0.3738 -1.1463 -0.777 0.587 -0.227 122 114 104 0 0
-0.0708 0.3677 -1.1541 -0.719 0.590 -0.368 157 153 148 0 0
0.0406 0.2236 0.1046 -0.764 0.626 -0.158 127 94 73 0 0
0.0246 0.2512 0.0552 0.206 0.907 0.368 77 47 28 0 0
0.0112 0.2753 0.0324 -0.504 0.769 0.394 114 77 41 0 0
0.0111 0.2742 0.0042 -0.482 0.774 0.410 112 75 43 0 0
0.0110 0.2742 0.0013 -0.484 0.734 0.475 111 75 42 0 0
0.0108 0.2742 -0.0043 -0.674 0.735 0.075 106 70 37 0 0
0.0107 0.2744 -0.0072 -0.562 0.801 -0.205 99 63 31 0 0
0.0121 0.2711 -0.0186 -0.406 0.852 -0.330 90 54 23 0 0
0.0143 0.2658 -0.0475 -0.977 0.157 -0.145 10 6 5 0 0
0.0101 0.2720 -0.0845 -0.383 0.886 0.262 65 30 12 0 0
0.0087 0.2742 -0.0901 -0.325 0.835 0.444 62 28 9 0 0
0.0025 0.2797 -0.2235 0.311 0.753 -0.580 61 41 32 0 0
0.0006 0.2784 -0.3308 0.221 0.940 0.261 69 41 25 0 0
0.0108 0.2580 -0.3595 -0.285 0.949 -0.137 40 20 11 0 0
0.0101 0.2592 -0.3622 -0.133 0.975 -0.179 28 12 5 0 0
0.0102 0.2588 -0.3654 -0.250 0.962 -0.107 26 11 4 0 0
0.0102 0.2587 -0.3685 -0.241 0.970 0.014 41 21 13 0 0
0.0101 0.2587 -0.3715 -0.315 0.858 0.406 54 28 21 0 0
0.0097 0.2593 -0.3744 -0.444 0.861 0.248 38 13 6 0 0
0.0097 0.2593 -0.3775 -0.682 0.668 0.297 41 16 9 0 0
-0.0155 0.3038 -0.4328 -0.285 0.954 -0.092 84 51 31 0 0
0.0212 0.2322 -0.4969 -0.523 0.826 0.209 59 32 13 0 0
0.0211 0.2322 -0.5001 -0.417 0.882 0.221 61 34 15 0 0
0.0206 0.2330 -0.5030 -0.521 0.844 0.131 62 35 18 0 0
0.0206 0.2326 -0.5126 -0.548 0.814 0.192 64 37 18 0 0
0.0197 0.2330 -0.5380 -0.497 0.785 0.370 73 41 20 0 0
0.0200 0.2321 -0.5446 -0.462 0.881 0.096 75 43 22 0 0
0.0192 0.2320 -0.5799 -0.421 0.907 0.002 79 44 22 0 0
0.0036 0.2539 -0.7395 -0.497 0.825 -0.270 55 22 5 0 0
0.0046 0.2517 -0.7471 -0.686 0.726 -0.051 64 32 12 0 0
0.0045 0.2516 -0.7504 -0.606 0.795 0.009 65 33 12 0 0
-0.0031 0.2641 -0.7904 -0.622 0.783 0.001 57 24 8 0 0
-0.0038 0.2653 -0.7930 -0.558 0.808 0.188 57 24 9 0 0
-0.0143 0.2836 -0.8232 -0.589 0.630 0.506 59 25 8 0 0
-0.0200 0.2902 -0.9115 -0.539 0.655 0.530 64 36 22 0 0
-0.0219 0.2924 -0.9400 -0.632 0.758 0.162 76 41 22 0 0
-0.0430 0.3299 -0.9834 0.141 0.979 0.144 92 72 61 0 0
-0.0515 0.3453 -0.9966 -0.594 0.778 0.206 87 48 26 0 0
-0.0519 0.3458 -0.9996 -0.594 0.778 0.206 83 39 11 0 0
-0.0572 0.3548 -1.0198 -0.527 0.798 0.293 83 39 4 0 0
-0.0573 0.3549 -1.0230 -0.542 0.828 0.148 87 43 8 0 0
-0.0583 0.3567 -1.0251 -0.531 0.830 0.170 90 47 12 0 0
-0.0586 0.3572 -1.0280 -0.531 0.830 0.170 91 48 13 0 0
-0.0589 0.3576 -1.0310 -0.497 0.832 0.247 94 52 19 0 0
-0.0592 0.3580 -1.0340 -0.519 0.827 0.215 94 56 23 0 0
-0.0596 0.3585 -1.0369 -0.519 0.827 0.215 97 62 33 0 0
-0.0597 0.3587 -1.0400 -0.559 0.806 0.192 97 62 34 0 0
-0.0601 0.3592 -1.0430 -0.559 0.806 0.192 96 62 34 0 0
-0.0606 0.3601 -1.0456 -0.519 0.827 0.215 93 62 34 0 0
-0.0594 0.3555 -1.0946 -0.750 0.596 0.287 59 32 20 0 0
-0.0622 0.3603 -1.1045 -0.411 0.863 0.293 79 36 10 0 0
-0.0634 0.3620 -1.1164 -0.680 0.733 0.036 93 57 29 0 0
-0.0657 0.3661 -1.1201 -0.445 0.848 0.286 96 64 39 0 0
-0.0690 0.3708 -1.1530 -0.622 0.728 -0.288 159 155 150 0 0
0.0133 0.2774 0.0295 -0.259 0.960 0.109 117 79 51 0 0
0.0159 0.2722 0.0239 -0.480 0.775 0.412 101 61 35 0 0
0.0147 0.2738 0.0097 -0.655 0.752 -0.081 96 56 29 0 0
0.0147 0.2736 0.0069 -0.550 0.753 0.362 100 59 32 0 0
0.0138 0.2749 -0.0044 -0.496 0.805 0.325 101 65 33 0 0
0.0131 0.2759 -0.0072 -0.328 0.927 0.179 101 65 33 0 0
0.0149 0.2723 -0.0159 -0.619 0.766 -0.174 93 57 26 0 0
0.0167 0.2677 -0.0418 -0.967 0.253 0.018 35 18 10 0 0
0.0139 0.2729 -0.0444 -0.964 0.262 -0.052 14 6 4 0 0
0.0128 0.2730 -0.0846 -0.238 0.947 0.218 63 31 16 0 0
-0.0163 0.3254 -0.1259 0.060 0.884 0.464 86 40 15 0 0
-0.0119 0.3168 -0.1381 -0.555 0.829 -0.068 68 34 14 0 0
-0.0119 0.3166 -0.1410 -0.555 0.829 -0.068 67 36 17 0 0
-0.0018 0.2948 -0.2069 -0.579 0.660 -0.479 63 43 34 0 0
0.0075 0.2726 -0.3113 -0.554 0.734 0.393 47 17 5 0 0
0.0069 0.2736 -0.3141 -0.554 0.734 0.393 52 20 6 0 0
0.0047 0.2769 -0.3314 0.413 0.898 0.151 69 42 26 0 0
0.0131 0.2599 -0.3625 -0.250 0.962 -0.107 28 12 5 0 0
0.0137 0.2587 -0.3658 -0.320 0.847 0.424 24 9 2 0 0
0.0130 0.2598 -0.3686 -0.320 0.847 0.424 47 27 19 0 0
0.0127 0.2602 -0.3716 -0.407 0.739 0.536 59 33 26 0 0
0.0120 0.2613 -0.3744 -0.407 0.802 0.437 40 14 7 0 0
0.0119 0.2615 -0.3774 -0.457 0.786 0.417 42 17 10 0 0
-0.0116 0.3028 -0.4335 -0.055 0.988 -0.142 83 50 30 0 0
0.0250 0.2320 -0.4880 -0.536 0.738 0.410 62 35 18 0 0
0.0238 0.2339 -0.4969 -0.523 0.826 0.209 67 40 21 0 0
0.0231 0.2349 -0.4998 -0.401 0.909 0.115 68 41 22 0 0
0.0218 0.2358 -0.5344 -0.458 0.863 0.213 72 41 21 0 0
