ply
format ascii 1.0
element vertex 668
property float x
property float y
property float z
property uchar diffuse_red
property uchar diffuse_green
property uchar diffuse_blue
end_header
-0.05360424071500156 0.05167466797948655 -0.41274522483742426 92 73 63
-0.02694759858119555 0.0252121496623115 -0.40866318189340567 93 71 58
-0.02590104096714125 0.02427061102551 -0.4114704125288017 93 69 54
-0.02097183501017219 0.019458959402486542 -0.41320352616119055 93 66 47
-0.025038276771768602 0.02361364140945839 -0.41741698452070874 90 63 44
-0.02392871727206982 0.02260906011601068 -0.42019934644383544 92 64 45
-0.022328795402573282 0.021115487963103773 -0.42283960322933645 92 65 45
-0.03883404157040398 0.037673215354171105 -0.43062827049867514 96 70 51
-0.02128153520418119 0.02027413289261009 -0.4287203550549982 98 72 56
-0.024320884513132482 0.023406342437282047 -0.4326894018987599 100 75 61
-0.027153025339124635 0.026332400403671304 -0.43661294454879446 101 81 69
-0.023844242264048646 0.023134404605865348 -0.43874755963665746 107 96 89
-0.032074068738145646 0.03144458436460272 -0.44428204136002664 127 121 118
-0.04040307217004671 0.03985493883528459 -0.4498841151312337 175 173 172
-0.04884006692921211 0.0483742833538044 -0.4555571158959227 181 181 183
-0.058851271331532715 0.05846537141965977 -0.4617453286188556 179 181 183
-0.1313521512670197 0.13090350989590724 -0.48702248167752554 180 181 183
-0.03146374639659054 0.03789763397480708 -0.6592589592941992 193 194 196
-0.03089789243517719 0.03743577118974344 -0.6622151450150578 194 195 197
-0.037560136643358 0.044220760418778586 -0.6684533487764586 195 196 198
0.16844634273482914 -0.16223090121412928 -0.5776345539655467 195 196 198
0.11197784784664727 -0.10551659589662901 -0.6063002733919486 196 197 199
0.11259851785306871 -0.10604424524067882 -0.6089016543641664 197 198 200
0.11393481153700842 -0.10728964713332631 -0.6111698052318851 198 199 201
0.04186585845136324 -0.034911399436387394 -0.6476201215052697 198 199 201
0.030246895278084114 -0.023156762432211583 -0.6561110709489579 199 200 202
-0.1493851037337881 0.1571383774930992 -0.7436798335888495 201 201 203
-0.10747164897983283 0.11576405001570521 -0.7443878077353467 203 204 206
-0.12488201433202864 0.13335000356313406 -0.7562667116385408 204 205 207
-0.1423820718579893 0.15102867632540196 -0.7682714786963358 205 206 208
-0.12202086170263939 0.13217915390544116 -0.8066936498994554 208 209 211
-0.12182873476680592 0.13209987487218464 -0.8100598334570908 208 209 211
-0.046992645798906336 0.05700687533525416 -0.7741678355182536 207 208 210
-0.05297029960889263 0.0631227471072755 -0.7806207365230029 207 209 210
-0.055955607576454944 0.06623195384613612 -0.7855151947969118 207 208 210
-0.060559162302297506 0.07096830033946323 -0.7912874666813379 206 207 210
-0.06508831851024885 0.07563061008316822 -0.7970428604800286 207 207 210
-0.06964811404193438 0.08032446486421559 -0.8028373395656715 206 206 208
-0.07354253401727585 0.08435008965063237 -0.8082953257535516 183 182 183
-0.07961912031205941 0.09057050649094611 -0.8149563310799828 142 138 137
-0.08316408737982632 0.09424619262872942 -0.8202684685008391 115 110 106
-0.08750761297620832 0.09872553699154354 -0.8260354523259887 102 93 87
-0.09190078390129519 0.10325552682390339 -0.8318515259266284 99 87 80
-0.09641325034242347 0.10790622798494298 -0.8377554736359039 96 82 76
-0.033885400021425455 0.04512357603633731 -0.806543476433954 93 76 69
-0.028829258683225112 0.040145062899658024 -0.8070125240494841 92 72 63
-0.025093324102579723 0.03649398408733488 -0.8081968744279917 89 67 56
-0.024511849601733388 0.036016094380634536 -0.8111348206538782 87 63 50
-0.026326934109449987 0.03794953588040802 -0.81542158413824 85 62 47
-0.027884235295289897 0.039623907745912276 -0.8195724844226915 84 60 45
-0.029745067188389943 0.0416040208650033 -0.8239045631836202 85 58 44
-0.05157546974265814 0.0636820963291126 -0.839637303849066 85 58 41
-0.04137783289217141 0.053527693660654824 -0.837130313328747 84 57 40
-0.024753826510236693 0.03690319531198624 -0.8308811106298536 83 54 38
-0.016962863883004095 0.02916791002012384 -0.8296557697083891 83 54 37
-0.018431587950578865 0.03075339281992559 -0.8337639480790405 82 53 36
-0.008781094780402066 0.02114433839190602 -0.8314074401851483 82 54 34
-0.0033697531465870095 0.015802138936109128 -0.831484732240008 82 54 36
-0.0012094765149684161 0.013732819969383789 -0.8334458860646625 83 54 38
0.013932358399696858 -0.0014096111547111587 -0.8277493404390079 83 54 37
-0.0017461245772577572 0.014485046064633994 -0.8402153362791313 86 56 37
-0.00415680893933737 0.017019045806377198 -0.8448765287108647 88 56 37
-0.0030605569457545917 0.016021059696741155 -0.8474593710511954 88 56 36
0.0021170862476920377 0.010911601254324069 -0.8475951322420728 89 57 35
-0.0012843051651390824 0.014444059161938777 -0.8528640122564697 92 60 36
-0.0016188216423212026 0.01488722954770312 -0.856299911779303 96 63 39
-0.0026589303837483147 0.016041434707691038 -0.860166238970692 98 66 42
-0.002239772325201589 0.01572541758148739 -0.8631515324066413 99 68 45
-0.001367319701597744 0.014952584925367135 -0.8658595583747417 100 71 50
-0.001536309639519326 0.015229235997336651 -0.8692031356319333 100 75 54
0.004109264118258127 0.009645556941653227 -0.8689717726156208 96 76 60
-0.002842554582612164 0.016758732814231 -0.8764949999255282 96 78 65
-0.007682297763290394 0.021743982645090365 -0.8827432406900133 99 82 71
0.0009845177274514505 0.01311384108575589 -0.880610450853359 100 84 74
-0.003963255427432089 0.018208556730068035 -0.8869429511730464 99 83 74
-0.008858002672781792 0.023250626117036002 -0.8932671332912872 98 81 72
-0.009575910508831872 0.02408178681834798 -0.8969869297909371 96 80 72
-0.012840075232339127 0.027480825960153027 -0.9023203673176873 96 79 71
-0.014186848097591659 0.028946719572223806 -0.9064547779580734 93 76 67
-0.014811362964204183 0.02968441296020334 -0.9101372858089884 89 73 65
-0.01747095632250807 0.03247496012594474 -0.9151245487898965 87 71 62
-0.016229803350583452 0.03133112814136281 -0.9176242624497497 94 76 67
-0.01575251819378036 0.030957754919183317 -0.9206112482717441 99 82 72
-0.01627759723028087 0.031595637893684844 -0.9242450536715765 100 83 73
-0.015115012596083638 0.030530839873512614 -0.9267884181024522 99 81 71
-0.01123338716022343 0.02672224970821538 -0.9275579873412357 99 80 69
-0.009396079841914332 0.024976087130503824 -0.9296459585558148 99 80 66
-0.008255135781607165 0.023932462016116415 -0.9321831896324557 101 79 65
-0.007571348153561794 0.023350109135823527 -0.9350172598331926 100 78 64
-0.00560045324334707 0.021468533354542144 -0.9369995115316313 94 71 56
-0.0016296571399860432 0.017567905099632172 -0.937648276434778 87 63 47
0.0016952691711902973 0.014318722961339778 -0.9387091493604189 79 56 41
0.005050585226078513 0.01103838528118413 -0.9397352935187172 75 51 38
0.0037805774960640165 0.012427670625306475 -0.943845695668353 73 48 36
0.0023781238270875887 0.013950941972659281 -0.9480526891829631 74 47 35
0.003938564783644974 0.012482437287015896 -0.9502686050309299 73 47 35
0.003285391010402594 0.013249302198160437 -0.953977478662378 74 48 35
0.0032531166404064227 0.01338921221497448 -0.9572690093039883 74 51 37
0.007755417358487143 0.008948917514437715 -0.9574697797408267 75 55 40
0.013572887936591324 0.003179438957014405 -0.9567503683441754 76 57 42
0.031533503568459464 -0.014858300128964164 -0.947665123110274 75 56 42
0.030104628208456295 -0.013309413078483205 -0.9518574683716913 76 56 41
0.03377436508745366 -0.01691183786060258 -0.9525321256810849 78 57 43
0.03255161554363779 -0.015571091416287888 -0.9565857848134071 78 57 44
0.03397860261653845 -0.01690778905194531 -0.9588015720722336 79 58 47
0.043701702367891636 -0.026628934325857563 -0.9552148349130317 78 58 48
0.037874066603279376 -0.020634358020305305 -0.9624865926315345 81 61 51
0.03137202286249143 -0.013957132696973504 -0.9702623487719146 79 59 48
0.02342869770279475 -0.005821893464538985 -0.9790884068442679 79 59 48
0.013813111843383116 0.004005209182183084 -0.9891388365943254 80 60 50
0.031220311533429447 -0.01348673866876747 -0.9800288209018362 81 62 50
0.02267206691915971 -0.0047378247570042525 -0.9893484843759351 83 63 53
0.04226887836874213 -0.024447226555469638 -0.97856904470183 83 65 55
0.062585358699534 -0.04488745808641529 -0.9671796728523534 82 64 54
0.05630959687776216 -0.03843710528837386 -0.9748525758925235 83 65 55
0.050994920440680484 -0.03295776937516684 -0.9818624681949776 86 67 60
0.04750461115847397 -0.02932288549339921 -0.987576256525276 87 68 61
0.037890166758486034 -0.0194923689957679 -0.9977650487509176 89 70 63
0.029158380825647756 -0.01055322491418495 -1.0073573375045033 90 71 64
0.03207191488696927 -0.013394628564960688 -1.0084623841597171 94 75 68
0.036749603164126156 -0.01802144513314978 -1.008258143528654 95 77 70
0.04049539551781209 -0.02170597762653676 -1.00871988039904 93 76 68
0.03875782653953621 -0.01984203936796422 -1.0132216918163588 87 67 60
0.04191903716012855 -0.02293560454025704 -1.0140972094341945 84 61 52
0.044040083415387066 -0.02497684063142261 -1.0157334347037226 76 53 40
0.052941591607404255 -0.03388163830842703 -1.0122950325239988 71 43 27
0.05956355616221743 -0.04048024229096345 -1.0105234582557467 70 36 17
0.05220044811241832 -0.03292175409173077 -1.019237531467013 67 32 12
0.05421603783997077 -0.03485752674031965 -1.0209135149550677 69 32 13
0.05298618419956422 -0.03350745868655767 -1.0250374010753083 69 34 12
0.05847058488240786 -0.038956080196122726 -1.0240707958486308 71 36 14
0.06018903388851962 -0.04059178261920098 -1.0259474665880168 72 37 14
0.07404149249505355 -0.05451669314176478 -1.0185451641621242 74 40 15
0.0707156538856492 -0.05104470626717843 -1.0242452201181256 75 41 15
0.07060411359229714 -0.050828004870927035 -1.0274910824409689 80 46 19
0.07188404356485532 -0.05202081431952678 -1.0296654679878114 87 52 27
0.07548366905127252 -0.05556384607475279 -1.0300398523420327 90 57 32
0.07357771823643536 -0.05352931312617284 -1.0346722299858322 94 63 39
0.07289247563013501 -0.05273131287123577 -1.0383646884208406 97 67 43
0.07262174176975457 -0.052353190895395224 -1.0417381026502537 97 69 44
0.07239130392312591 -0.05201581505022261 -1.045082691265531 98 69 45
0.07240074223877002 -0.051921467970212284 -1.0482412702238408 98 70 46
0.07242615946982567 -0.05184327120525947 -1.0513886347062693 98 70 46
0.0720734234217796 -0.05138171523000842 -1.054836425030998 98 70 46
0.07190738027286094 -0.051109312356684075 -1.0581392460438526 99 71 46
0.07334099837146393 -0.05245859451081557 -1.0601711564258314 97 69 45
0.07010628882853638 -0.04907486915266003 -1.0659244059251953 94 67 43
0.07168147740948896 -0.050567691633481536 -1.0678432086453815 94 69 44
0.07167948327751787 -0.05046136995102513 -1.0710225932118365 92 68 45
0.06686738387588673 -0.045476900499122445 -1.0780789374025426 90 65 44
0.07165572293538264 -0.050228530689154956 -1.0774016899740912 82 57 39
0.06754628430943074 -0.04595589582558672 -1.0839150210505943 68 44 30
0.06659085048820715 -0.0448819028802396 -1.0878855631400866 60 37 24
0.0669908638419455 -0.045182752968736424 -1.0907568450966758 50 29 16
0.06984641872342232 -0.04797486292895867 -1.0916190064472977 52 31 18
0.07299872246499008 -0.0510684737875262 -1.0922250987912436 53 31 18
0.07333452490093365 -0.051304640783691374 -1.095134846803121 62 38 25
0.0692693198256686 -0.04707475368315307 -1.1016768585000838 68 40 27
0.0744738756751555 -0.05225169298633117 -1.1005665009003986 68 37 21
0.07466851048014625 -0.05234464120354941 -1.103591682647659 76 41 22
0.07353319181941913 -0.05108763847983516 -1.1077248940226105 82 45 21
0.07411308053712173 -0.051571520252426145 -1.1104325541272984 86 48 21
0.07469283928747428 -0.05205531644787713 -1.1131389104968845 87 52 24
0.07575401756095539 -0.05302792849178638 -1.115439378258998 93 61 34
0.07600077563787852 -0.05317374482593189 -1.118422319287551 92 65 37
0.0747464812916778 -0.051795340729325054 -1.1226740535495874 90 63 37
0.07353080498486791 -0.05045590242163858 -1.1269007103739357 94 66 42
0.07286927101091242 -0.04967900139757381 -1.1306637806379287 93 65 43
0.0729394844987244 -0.04964516128592376 -1.1338077397296735 91 63 40
0.07341830302604058 -0.05002632707988655 -1.1366034460778776 90 63 40
0.07156509931218583 -0.04803857153585931 -1.1413979267375929 91 63 42
0.07064823905282054 -0.04700171381917245 -1.1453978261796414 90 64 41
0.06983237279019473 -0.04606726860717224 -1.149316632694954 88 63 41
0.06934140833400275 -0.045462768637909205 -1.1529599342174788 87 61 44
0.0693999936435663 -0.04541657174061561 -1.1561304531286432 74 52 36
0.07157589688458421 -0.047522045233514866 -1.1574603051725727 77 60 45
0.06229183022466196 -0.03798077953096979 -1.1687782513699592 96 84 73
0.06372977348647602 -0.03933586480854843 -1.1707635094817699 121 114 106
0.06614831650516959 -0.041687903611377995 -1.171882765977583 145 144 139
0.07094099506677665 -0.04645376169320371 -1.1709026131519327 162 161 158
0.07332115391686879 -0.048767664177326246 -1.1720287127436835 171 170 169
0.08744783515960318 -0.06302497865431594 -1.162750913345041 179 177 178
0.08935132394233475 -0.06485583819534761 -1.1642499381234372 183 181 181
0.04951949576100854 -0.024246481574753315 -1.202877003778373 185 184 182
0.03693863593227521 -0.011344190827052847 -1.2173882968175598 188 187 185
0.04279663245005706 -0.01719320986599787 -1.2154649982522376 192 191 189
0.045664589706693126 -0.020001845220418688 -1.2161968890059967 194 193 191
0.046447331648105314 -0.020689770758663392 -1.2187922033154228 196 195 193
0.04615411010669779 -0.020283191465917283 -1.2223559327146634 197 196 195
-0.19699083983067514 0.17842404737279816 -0.10180412467631961 180 181 183
-0.17324624614954998 0.15511313921721032 -0.10398420562908751 180 181 183
-0.14487883381858202 0.12723930457110533 -0.10583418350390751 180 181 182
-0.11999226299532513 0.10279515332403641 -0.10774636809500318 181 179 178
-0.09509116479895074 0.07833327961511029 -0.1095534950745753 131 124 120
-0.07100005097350959 0.05466710255943051 -0.11130182133686518 111 97 94
-0.05368113509076629 0.03767923747385779 -0.1133447427506932 112 95 89
-0.05453478781246236 0.038619727847331975 -0.11641557291960425 110 90 81
-0.04280046318395443 0.027139065134429506 -0.11870243546261489 106 82 66
-0.04181976607798646 0.02626881385587241 -0.12163744548755553 102 75 55
-0.04778585021695976 0.03225423496191876 -0.12503444134663777 101 71 46
-0.015801841214709976 0.0007850115103486162 -0.12583761778160674 100 70 44
-0.02235282421319452 0.007346855901728493 -0.12924877786708464 100 70 45
-0.018093172454509684 0.003238404719875833 -0.13189656123208748 101 70 46
-0.018897036797011275 0.004127982339193703 -0.13490943494993168 103 72 48
-0.019553201780243487 0.004871896529814061 -0.13791552420736036 100 70 49
-0.022355388546822026 0.007734739967935177 -0.14109670946069053 95 67 46
-0.0306937172062079 0.016064308328839157 -0.14474417540024614 91 68 50
-0.027315475495045427 0.012825513048812374 -0.14744460431553805 89 71 57
-0.031210732215456324 0.016769032278886355 -0.15075818172106054 95 81 73
-0.034162998261784455 0.019781843795786402 -0.15400644553675644 100 89 82
-0.040175738705059444 0.02581781934736311 -0.157545206563562 99 89 82
-0.042038128575860444 0.027755242561234107 -0.16072694997923204 99 90 84
-0.05271162918501744 0.038396586347889804 -0.1647519968987295 99 91 87
-0.05827234000332107 0.04398868498173024 -0.16832908039498054 102 95 93
-0.06487313289874391 0.05060913830533672 -0.17203416590215231 110 103 102
-0.07177276648816537 0.05752581070932901 -0.17579902527652677 137 131 132
-0.07911952393089358 0.06488528078319472 -0.17964090495779753 168 164 165
-0.08563135697242606 0.07142078815212274 -0.18342761100770172 182 179 180
-0.09218571036955717 0.07799926602971444 -0.18724813038728033 181 179 180
-0.09091026547552548 0.07684060267730786 -0.19023947984091089 181 179 180
-0.09583201669803103 0.081806854059008 -0.19391956324526527 180 180 182
-0.1007893105290205 0.08680896733209315 -0.1976261586612121 180 180 182
-0.10296333154524963 0.08906055720472601 -0.20103224089366156 180 180 182
-0.10695580604075004 0.09311015906083046 -0.2046640363644443 180 180 182
-0.11198943571509323 0.09818968816367465 -0.20843969376415658 180 180 182
-0.11545040544284021 0.10171506422523141 -0.2120456163502696 180 180 182
-0.1320145578165794 0.12403777308100958 -0.3968742677261882 180 180 182
-0.14123696537984695 0.1333007414895955 -0.4024534040362651 180 180 182
-0.12402297536515394 0.11631858138997622 -0.401495048255383 180 180 182
-0.11191739806703384 0.10440608179424496 -0.40174484757479634 180 180 182
-0.09984744259518902 0.09252726148448281 -0.40195165594083565 181 181 181
-0.08786735857991697 0.08073599866496542 -0.40212953672916285 161 159 157
-0.0772742668169547 0.0703204872885707 -0.40261333523851406 109 102 100
-0.0721537543036159 0.06533873114153763 -0.40447414279586696 101 91 88
-0.06571465937919513 0.0590466044589147 -0.4059680419823584 101 89 82
-0.06623321992943514 0.05966477116161922 -0.40927403763978576 100 84 75
-0.06342570180202711 0.05697895847826448 -0.4116971053138083 98 81 71
-0.06289046349272143 0.056550212969195664 -0.41471982626941767 96 78 67
-0.03924999358329247 0.03316556646792178 -0.4114804138101699 96 76 62
-0.0340836095416382 0.02813354913529656 -0.41318471308381155 97 73 59
-0.032092021717997105 0.026255560977715142 -0.415741837940732 97 70 53
-0.02977857676677273 0.02405748295537409 -0.4182021101368192 93 66 49
-0.03177730056599849 0.026144650934306617 -0.42186021301330345 95 68 50
-0.030180668281805954 0.024658740500512352 -0.42451438324311946 97 71 52
-0.028604076079203313 0.023192562171658458 -0.42716849819665936 98 74 56
-0.027778777774367013 0.022473016092909998 -0.4300321987947425 99 76 62
-0.03407138611752193 0.028829396172826878 -0.4349487297087159 102 80 68
-0.03620434141346976 0.031051264558471812 -0.43868430251242796 102 87 78
-0.03730539981166369 0.032247514009253304 -0.44212817459724296 110 103 100
-0.04460191831929414 0.039604297026602 -0.4474084466785346 163 160 160
-0.05486547232848598 0.04991260682026749 -0.45360561986845277 182 181 182
-0.061235351762749635 0.05635028689076386 -0.45868231696672995 180 181 183
-0.07019719949918457 0.06536676885855043 -0.4645717481429136 181 182 184
-0.07928384994751266 0.07450872590492577 -0.470540475532536 181 182 184
0.007495057831563616 -0.005405415323891993 -0.6408359324795406 193 194 196
-0.03505189719117242 0.037217363116465514 -0.6631529220076756 194 195 197
-0.03334557026031933 0.035616540086495584 -0.6655951380162032 195 196 198
0.14175582141259996 -0.1393012461771387 -0.588988907464252 195 196 198
0.13761862610762865 -0.13507411334441077 -0.5936974380400598 196 197 199
0.1566402688883092 -0.15399816009495423 -0.5877629190651334 197 198 200
0.10783871320688512 -0.10511724431096488 -0.6131266480746084 198 199 201
0.0640351328460953 -0.061226203961011014 -0.6363916867873896 198 199 201
0.06965657534719832 -0.06674973765550171 -0.6367613242683553 199 200 202
-0.0870169630188899 0.09012925763953192 -0.7166731454094912 201 201 203
-0.11478883305770902 0.11801410869777296 -0.7331921810902641 202 202 204
-0.12915840788930055 0.13249790533004008 -0.7434538406768778 202 202 204
-0.13892969674777703 0.1423842557095351 -0.751581342787673 203 203 205
-0.15254605321977793 0.15611861652582185 -0.7616054845251147 204 204 206
-0.10654537815798854 0.11021142246885623 -0.742871458627848 203 204 206
-0.11518585510792077 0.11896702089977393 -0.7504696225397626 204 205 207
-0.1311401044286608 0.1350421011330627 -0.7616788572206128 205 206 208
-0.1426564716546675 0.1466787641363558 -0.7707870115136437 205 206 208
-0.04827060383799675 0.0539372301177022 -0.777006036253802 208 209 211
-0.0523402253787648 0.058121936092415435 -0.7824559714030235 208 209 211
-0.05692566478948557 0.06282417030260687 -0.7882007896512075 207 208 210
-0.061388640197843215 0.06740442478063777 -0.7939029712762881 208 208 210
-0.06163636348091773 0.06776095747680724 -0.7973647012149365 209 209 211
-0.06829454603557722 0.0745425023217939 -0.8042850777319671 211 211 213
-0.0745543720071654 0.08092581918090272 -0.8110222860531338 200 199 202
-0.08114444094489615 0.08764117252265702 -0.8179697629795841 159 156 157
-0.08646429630697075 0.09308420531691847 -0.8242557971737788 124 117 115
-0.09216499114872195 0.09890990936205812 -0.8307770430630844 106 96 93
-0.09470730829162688 0.10156982388238497 -0.8355868111379995 99 88 84
-0.0936022576615333 0.10057291276062648 -0.838392499777971 95 81 76
-0.038322205468906814 0.045249812935254013 -0.8111020293136043 93 76 68
-0.029754930780916317 0.03676494148140404 -0.8096111852530374 92 73 63
-0.02875973572044173 0.0358731600741513 -0.8123231795776753 90 70 58
-0.03757599472455525 0.044822328127594444 -0.8205507965395114 88 66 53
-0.05688275523925419 0.06429583583898524 -0.8347465270360988 85 63 49
-0.0579764306037209 0.06550152642866011 -0.8387041933779976 84 60 46
-0.05451772605041959 0.06214027700238922 -0.8400757956223824 84 58 43
-0.050148674605262886 0.057865177055713826 -0.8409120565597478 84 58 41
-0.03090692686806519 0.03866622235826829 -0.833189218472577 84 57 40
-0.02268049142911646 0.03051796214688153 -0.8317284876097747 84 56 40
-0.02200921037629372 0.02995047428648963 -0.8346043046121984 83 55 38
-0.01798846151973063 0.02602131348990018 -0.8355315110305295 82 54 36
-0.011953713975902155 0.02007012683929503 -0.8352658754866737 82 55 36
-0.015100550524122958 0.02333435674947884 -0.8403533348560666 83 54 38
-0.012434363764055267 0.020763672174167927 -0.8420371666946045 84 55 37
-0.010949408323795401 0.01937850375875294 -0.8444076021708682 86 57 37
-0.009074362304507491 0.017601499892366604 -0.8465411521228347 89 57 38
-0.009649532868728869 0.01828448501560745 -0.8501261084628617 91 58 38
-0.008009179441493111 0.016742857412844023 -0.8523909212970691 91 59 37
-0.005599536367292796 0.014428473669024347 -0.8541877940234935 94 62 38
-0.006013154793182637 0.014949215453401707 -0.8576756126166524 98 66 42
-0.006521738605415231 0.015565450102737091 -0.8612242571827466 99 67 45
-0.006842341819927031 0.015992988761843033 -0.8646626058486718 97 68 46
-0.007923633231980087 0.017184770601244376 -0.8685675748228864 95 68 49
-0.010852396788174942 0.020232780207859444 -0.8736095589762133 98 74 56
-0.012630552739588463 0.022125270844744777 -0.8779600618920789 97 78 63
-0.015119361997357403 0.024732130778655548 -0.882758632206201 98 82 71
-0.018374960729896944 0.0281099330050954 -0.8880450693594081 101 87 77
-0.014605515117747145 0.024428594241218557 -0.8889832911481612 101 88 79
-0.0180260396915312 0.02797270490712228 -0.8943897079446598 101 88 79
-0.02126729082830711 0.031337204971720836 -0.899701547594082 100 86 78
-0.018057494024558682 0.028217898336595396 -0.9009759315194591 99 85 77
-0.024965043104731216 0.035268505251706606 -0.9086189873577728 98 84 77
-0.02199605184102059 0.032391169938736905 -0.9100423282083301 97 82 75
-0.02328191813032704 0.033791234009406895 -0.9141573764073988 93 79 72
-0.021084394256859373 0.031689094419778505 -0.9160577306165817 96 82 74
-0.020710431527584464 0.03142034299049479 -0.9191168083567061 102 86 78
-0.02067540571750205 0.03149242539037428 -0.9223934174056597 105 88 80
-0.020524578528776996 0.0314480883221645 -0.9255966272445804 103 87 79
-0.02122958123106619 0.03226455316456915 -0.9293547158160158 101 84 75
-0.006162763571487831 0.01721695744144293 -0.9228682896094456 102 84 74
-0.006504920832190772 0.017667515712709192 -0.9263618220594807 102 83 71
-0.010743909609034374 0.022038438793099357 -0.9324093672727531 102 80 67
-0.0096194273657641 0.021013927577191616 -0.9349547867373985 93 71 58
-0.009034049864943494 0.02053171975102354 -0.9378517854552575 85 62 49
-0.007391154320351562 0.018985345484504756 -0.9400476249783651 79 56 41
-0.005485627582980143 0.017174471873983993 -0.9420626608390731 76 53 39
-0.0005003450570937457 0.012263879924528848 -0.9420172759669693 74 50 38
-1.9235384605437167e-05 0.011885916016735762 -0.9449625177937796 73 49 35
-0.003645749473363963 0.015642480794981414 -0.9506644502807324 74 48 35
-0.0048703612335068425 0.016981819511804233 -0.954766994691018 74 48 35
-0.006903463655412778 0.019135313815638155 -0.9594234844649069 74 49 36
-0.007270058437056845 0.01961134901769765 -0.9629604529181264 75 51 37
-0.0029141608266273905 0.01533256314283965 -0.963285151017975 76 55 41
4.941335221692045e-06 0.012499921624319052 -0.9645721958193749 77 57 42
0.021739244380018986 -0.009280480886010925 -0.9529455011689448 77 57 42
0.02941625581049615 -0.01690710266877439 -0.9508885810358207 77 55 41
0.03232617883138327 -0.019733560499252095 -0.9520878418403272 78 56 43
0.032341981986232705 -0.019645301164401448 -0.9552798392014915 80 58 45
0.041474879636553184 -0.028740973437020645 -0.9521343007435688 79 58 47
0.035638019017687435 -0.02275728290660329 -0.9593903901756182 79 59 49
0.029746921722054724 -0.016717990757173597 -0.9667139218647963 81 61 51
0.023381150066636977 -0.010199463127196717 -0.974400657116772 80 60 49
0.014621748024696402 -0.0012679549179055727 -0.9838066890896577 80 60 49
0.0046766437440734915 0.008859835015167003 -0.9940949548811081 82 62 51
0.02824941687823599 -0.01479025444882142 -0.9806448985795806 82 62 50
0.04006728799515489 -0.026596418980763557 -0.9754535546687793 82 62 52
0.04397878442856931 -0.030435065906852563 -0.9758559604539451 82 64 54
0.061038623317619514 -0.047528335127277 -0.9668145390718622 83 65 54
0.04460538684891374 -0.030859245788658334 -0.9817851422034151 83 65 55
0.041113658454843216 -0.027235120478781197 -0.9874958963279257 85 66 59
0.04258147339314063 -0.028610986067658273 -0.9896334125014643 86 67 60
0.03815652319068755 -0.02404504244795693 -0.9960468344036579 90 71 64
0.03252733416747672 -0.01826396324206714 -1.0033609522446219 92 73 66
0.028715205878402712 -0.014314478172280806 -1.0093747013137344 93 75 67
0.03483707984676504 -0.020383679284555686 -1.0081184809962218 95 77 68
0.03798793788348582 -0.023457026373123628 -1.0090215019562951 92 74 64
0.03522908093073716 -0.020569414317101117 -1.014276032672548 86 65 57
0.03652216455184278 -0.021769023217851013 -1.0165425240362114 85 60 51
0.039699698792157595 -0.024870019664705686 -1.0174030944332362 78 55 41
0.05352595979312685 -0.03871585894785983 -1.0103064808736677 72 44 28
0.05493835352678107 -0.04003746599221555 -1.012434284112118 70 36 17
0.04988727363335654 -0.03483669180651828 -1.0194093309300922 68 33 13
0.048066490982446426 -0.03289515470386866 -1.0239772340002546 68 32 12
0.050666616305691685 -0.03541530154143495 -1.0252148181698786 70 35 13
0.056217754531557584 -0.04091449989146274 -1.0242041566644087 72 37 15
0.05798205264630824 -0.04259187622305614 -1.0260478309169319 73 39 15
0.07290772473010364 -0.057556367463931946 -1.0178432214510538 74 40 15
0.06162377055193828 -0.046061535312585014 -1.0296271697585622 77 43 17
0.06332473966766639 -0.04767567503563577 -1.0314977512817602 81 47 20
0.06663616008877471 -0.050916228609247126 -1.03212107639234 85 52 25
0.06851475863239002 -0.05271032109766203 -1.0338367877518986 88 57 33
0.06927360886504486 -0.05337379522245217 -1.0364126856304967 93 63 39
0.06903257666510615 -0.05302745073529973 -1.0397637527473023 97 68 44
0.06836407506989271 -0.05224923878728168 -1.0434508364517951 100 72 48
0.06792133038620682 -0.05169892712343212 -1.0469659758923182 103 75 51
0.068394935235462 -0.052074240107993316 -1.0497655089348457 101 73 49
0.06825058807200211 -0.05182524709035976 -1.0530506701195386 99 71 47
0.0673687009981176 -0.05083096820596014 -1.0569204303215638 98 70 46
0.06723412023666081 -0.050591646297483514 -1.060203933683919 97 69 45
0.0684645059342625 -0.05173164659881689 -1.0624048945974736 95 67 43
0.07208868648850436 -0.05529107692480437 -1.0626932487974745 95 67 43
0.07212996539984413 -0.055229704447147615 -1.0658298947555664 95 69 44
0.07120969553205903 -0.05419635268837851 -1.0697389013434213 95 69 46
0.06247318039663003 -0.04526147756379414 -1.0799413611878874 86 60 40
0.06511429806243227 -0.04782755549866756 -1.0810078468928093 75 51 33
0.06408651202763907 -0.046684580538104196 -1.0850321387407993 65 42 29
0.06352934439280332 -0.04601724856585848 -1.0886808828536412 58 36 23
0.06420198800695288 -0.0465933714850571 -1.0913324655223482 53 31 18
0.06661434765298263 -0.04892890262290636 -1.0925614031147788 55 33 20
0.06837692153777203 -0.050607601876546456 -1.094312202041326 57 34 22
0.0664214821549382 -0.04852597234234738 -1.0991104796600806 63 38 26
0.0676238057389299 -0.0496381370305663 -1.1013176585243278 68 39 26
0.0690388147186902 -0.050965600404446684 -1.1033445855765929 70 39 23
0.07106248865946917 -0.05290901994498945 -1.1048614320521026 75 41 22
0.07087022549363563 -0.05261071019125968 -1.1082121668689904 80 44 19
0.07073454294560054 -0.052369573361590704 -1.1115181132355207 85 48 21
0.07176694230557903 -0.05331037854130659 -1.1138492395064823 90 56 29
0.07219267751016228 -0.05363735508979303 -1.1166856101745897 95 66 38
0.07178347663223056 -0.05311932650250724 -1.1202237542770832 95 69 41
0.07116033553842513 -0.05238464223489271 -1.1239458810001688 94 68 42
0.07083977940773895 -0.051956100998696436 -1.1274164795697963 95 68 44
0.0699896626725873 -0.05099137311309376 -1.131339550159073 96 68 46
0.07055899050579803 -0.05146351584098834 -1.134060091263643 93 66 43
0.07128600016722102 -0.05209535349792771 -1.1366446705693423 91 64 41
0.06643040943943734 -0.04707450344788383 -1.144006439077472 90 63 42
0.06677271127544505 -0.04731645766260001 -1.1469308543315686 90 63 41
0.06659616180224293 -0.04703296413942373 -1.150301800519513 88 63 41
0.06573154795427413 -0.04605251707211965 -1.1542692536425918 82 58 42
0.06589818733423661 -0.046116428236950335 -1.1573493754628155 74 54 38
0.06862992476911002 -0.048778685352209784 -1.1582023687731 84 68 54
0.06629631907053439 -0.04630988736869763 -1.1634550565371686 104 95 85
0.06840841195141886 -0.048344740670929656 -1.1648376783097691 132 128 121
0.07051463883508838 -0.050373943687885996 -1.1662164234414605 153 152 147
0.06309765294778506 -0.042753638171079016 -1.175951539576769 166 165 161
0.06905305265806927 -0.04868330619496095 -1.1739452067214198 175 174 172
0.08423199502455792 -0.06396152735212841 -1.1637627846857008 180 179 179
0.08266397568488258 -0.062268522253518366 -1.1683420483671443 183 181 182
0.04661527061193916 -0.0256250410106295 -1.2035618830571415 187 185 184
0.05179774519832553 -0.03077159775430198 -1.2022317952876322 190 189 187
0.05057522522911223 -0.029425702958528754 -1.206599237483186 192 191 189
0.04650490564917958 -0.025192294338337737 -1.2135254110992184 194 193 191
0.03894280135894676 -0.017417716966009647 -1.2236101190020765 196 195 193
0.03433761678940564 -0.012640243289199299 -1.2310703950804989 197 196 194
-0.21266082100769826 0.18917849988961521 -0.10250379030939742 180 181 183
-0.18556878250227665 0.16264661166011735 -0.10455219594924975 180 181 183
-0.15931804151518644 0.1369383782339653 -0.10652929116846652 180 181 182
-0.13538272352311295 0.11350368057987674 -0.10851704709813255 180 181 180
-0.11038505007572262 0.08902092450607549 -0.11034721260492411 157 155 153
-0.08639203221134233 0.06552294978869559 -0.11212927454854736 113 101 98
-0.06503653015476503 0.044616111714997644 -0.11396489738062214 118 101 95
-0.05472527575621634 0.034570746446271644 -0.1163794889689208 113 95 87
-0.04836635225718385 0.02841223469547126 -0.11899913232102616 106 86 73
-0.05278470490204286 0.03285609668439449 -0.12229092314986775 103 80 64
-0.057039480678640314 0.037139658397729536 -0.12559180874482404 102 75 56
-0.059189349728461516 0.03935264699677746 -0.1287667997339527 100 73 52
-0.05219623713412813 0.03256878719087977 -0.13130186778335004 98 71 48
-0.027821963207210483 0.008678823898672267 -0.13253518448422946 97 69 47
-0.02654454393211643 0.007517268872838392 -0.13540718875990349 96 68 46
-0.027164279170692304 0.008222870909617257 -0.13842205879199648 98 71 50
-0.03147217842826743 0.01255896128923991 -0.1417345514961548 96 70 51
-0.03394760725567461 0.015091805862314511 -0.14491680447654112 92 72 56
-0.03850781518242424 0.019677423714074587 -0.14828578571599435 97 80 69
-0.043441094061138774 0.0246310099462528 -0.15170756949748493 100 88 81
-0.03876975760253016 0.020128584194907526 -0.15430483415127985 100 91 86
-0.04708454901605397 0.028412627633761327 -0.15805611607729048 100 92 88
-0.057340633547116895 0.03860952579918852 -0.16202361406159135 104 98 94
-0.06536265756708502 0.046607753634875494 -0.165824911955427 107 102 99
-0.07368446395470463 0.05490237680580559 -0.16969076637987832 127 124 124
-0.0786378065179166 0.05988043004010115 -0.1732605246067625 166 164 164
-0.08445929021192289 0.06571434079278621 -0.1769404384565918 181 180 182
-0.09447102604373307 0.07567685029592885 -0.18107868829923418 181 180 183
-0.10108431231604315 0.08229278774873616 -0.18490336502101712 180 180 182
-0.10777205163202053 0.08898303340835426 -0.18876568046296835 180 179 181
-0.11452384631419273 0.09573735855382043 -0.19266499280860389 180 179 181
-0.12052347103827656 0.10175150051721743 -0.19651056706552614 180 179 181
-0.12654959519289538 0.10779262820272664 -0.20038622522735414 179 179 181
-0.11789931621646496 0.09937104945691325 -0.20258690314645594 179 179 181
-0.11959008645329479 0.10114012845708784 -0.20597336442758996 180 180 182
-0.0808681683938338 0.06896170658913453 -0.3870841203304449 180 180 182
-0.13584076756038369 0.12347477962173217 -0.403935195350026 180 180 182
-0.12313681773272106 0.1110065496334634 -0.4040597205753458 181 181 183
-0.11063623739295077 0.09873787953784609 -0.4041811321165379 180 181 183
-0.09785755830465862 0.08619216524782894 -0.4041778885949729 180 180 181
-0.0864272720392839 0.07497966408667206 -0.404466716335939 149 146 146
-0.07839025647630152 0.06712535149830842 -0.40558729214056477 105 98 97
-0.07274700247123106 0.061640238358262434 -0.4073004015133425 106 95 91
-0.06939754727038003 0.05842584491205681 -0.4095954887371254 105 89 82
-0.06827459105925882 0.05741601081192021 -0.4124698231689308 103 86 77
-0.05370947451486652 0.043092786673998004 -0.4117326397883021 103 85 74
-0.048599195699383174 0.03813238724793161 -0.41349103010946836 100 80 67
-0.043568616832215794 0.03325024989522578 -0.4152499096050358 100 78 63
-0.040916757238643825 0.030723858678020813 -0.4176421109118865 103 77 62
-0.04025406671590894 0.030167796062879594 -0.42057541308834173 100 73 59
-0.0386878489731376 0.028716495853071518 -0.4232546145265511 101 74 59
-0.03950901036254754 0.029630525267628313 -0.42660069556125485 99 75 60
-0.042179473216965316 0.03237720863437232 -0.43047676746313634 98 76 63
-0.03879492285086375 0.029123903913655477 -0.4326335931686092 100 82 70
-0.04294285597135728 0.03333525744121057 -0.43694861133620144 103 88 78
-0.04551613096705094 0.03598656350177268 -0.4408258607245362 115 107 102
-0.0490738389293158 0.03961404843885138 -0.4450040974751717 157 156 155
-0.05831122251779346 0.04887217150693128 -0.45087495590970933 180 181 183
-0.06528767879132436 0.05589031270405662 -0.4561162375922914 180 181 183
-0.07341739563217053 0.06405285400880195 -0.461735231505645 180 181 183
-0.08357139785342352 0.07422365103942681 -0.4680024087601494 181 182 184
-0.09265471926060441 0.08333430943621396 -0.4739907834550058 181 182 184
0.0075632071531422165 -0.009708367901217659 -0.6399025380501833 194 194 196
0.016205683675003517 -0.018218433923046527 -0.6391200763171031 194 195 197
-0.04301443005929248 0.040885677960917174 -0.6690332280694373 195 196 198
0.1347976371172566 -0.13618774369445696 -0.591328191012726 196 197 199
0.12998204515607317 -0.131297952756254 -0.5963554570662806 196 197 199
0.15719453625840382 -0.15832593185807453 -0.5866808737371481 197 198 200
0.15382628821133987 -0.15487950496662445 -0.5910125787500944 198 199 201
0.07955205112523735 -0.08075862142068896 -0.6282858685362388 198 199 201
0.04678380136261429 -0.047999920400282885 -0.6465329595105854 199 200 202
-0.010763334022914788 0.009465126968996707 -0.6765516180017628 201 201 203
-0.10332827310663156 0.10195865753940561 -0.7267179928322386 202 202 204
-0.14487103362274334 0.14348982947454927 -0.7498672376116553 203 203 205
-0.131321404899368 0.13009065021444316 -0.7468675376603464 204 204 206
-0.12210844397133094 0.12101423297497772 -0.745890481508241 204 204 206
-0.09372672554470166 0.09281911404076401 -0.7356190074450499 203 204 206
-0.10615462680205595 0.1053231040619837 -0.7450126678417637 204 205 207
-0.11287797704844932 0.1121388784850843 -0.7516849911980514 205 206 208
-0.1235837294593343 0.12292831640788666 -0.7603398000446051 205 206 208
-0.04510017671292102 0.04632319411537662 -0.7742079710502784 208 209 211
-0.04792472811327925 0.049250129583140706 -0.7789830101764986 208 209 211
-0.05282342293975256 0.05424936737166121 -0.7848746712313556 207 208 210
-0.05771998750300465 0.05924725793460647 -0.7907894218768522 208 208 210
-0.06221652907264156 0.06384629221954673 -0.7965140012598855 209 209 211
-0.06357066933544477 0.065306440898869 -0.8005693951741178 212 212 214
-0.0695412744337087 0.07137954636199398 -0.8071283756603234 214 213 216
-0.07622513710573614 0.07816632593012617 -0.8141039079555143 210 210 211
-0.08242753084929122 0.08447300769933845 -0.8208495215145115 175 173 173
-0.0885057329927056 0.09065655078813305 -0.8275575244383733 133 129 127
-0.0942148024367331 0.09647211256310365 -0.8340923610919397 110 104 101
-0.09933309666414944 0.10169806505551987 -0.8403290566882771 102 92 88
-0.10181491430042447 0.10428931726593045 -0.8451288989559276 96 83 77
-0.03754136588631307 0.04014485054012927 -0.8127618631861712 95 79 71
-0.032658463063817145 0.03536876694949004 -0.8133129085485449 93 75 65
-0.030134628526849644 0.032950738620814365 -0.815167505785061 90 71 59
-0.06001945877824081 0.06293903205831229 -0.8352892768984612 89 69 56
-0.06114984653851545 0.06417705062300738 -0.8392683879891862 86 65 51
-0.04092405442595762 0.04405721020617792 -0.8311100669719114 85 62 48
-0.05404854323713354 0.05729012508564722 -0.8419012427718935 85 59 44
-0.03409092080971754 0.03743502441573736 -0.8337882576297797 84 57 42
-0.027966466373266594 0.03141448630962826 -0.8335466488082649 84 57 42
-0.029073129369869583 0.03262701344349647 -0.8374575203002532 83 57 42
-0.010791707584330956 0.0144426253426162 -0.8301228101794581 83 57 39
-0.01709126921436048 0.02084982797876836 -0.837027442469744 84 57 39
-0.022580247058253636 0.02644694547994006 -0.8434888417405841 85 56 38
-0.01943335173316646 0.02340307830185208 -0.8449046584473691 87 58 38
-0.021343253787112812 0.025419468213436297 -0.8492894301336084 90 59 39
-0.02187403461291662 0.026055907456847216 -0.852868030531256 92 60 39
-0.01695268582329723 0.021235323893475433 -0.8532094835813883 94 62 41
-0.012631011056106034 0.017014312230624065 -0.8538871200771684 96 64 43
-0.009639465093893435 0.014124246672481189 -0.8553428266675863 98 66 44
-0.010155805655186964 0.014745688305778756 -0.8588959627967468 99 68 46
-0.009367961244734727 0.014061472958585008 -0.8616653968150756 99 69 48
-0.00817406860292387 0.012970608061931871 -0.8641863936286509 98 69 48
-0.014915640041237077 0.01982599360664483 -0.8715326877203757 99 73 57
-0.01844778502261249 0.023468363119933763 -0.8769514137734721 100 79 65
-0.007328735962806809 0.012437729847654039 -0.8734024625494122 104 86 76
-0.005377332080034977 0.0105878055580379 -0.8754467541812246 106 92 84
-0.010267465670122544 0.015590666092653388 -0.8817115995602652 105 93 85
-0.015194541966469785 0.020631325579669874 -0.8880239171102917 103 92 85
-0.020272376588334737 0.0258238172349015 -0.8944548657202331 104 93 85
-0.027624311788915973 0.03329557228861961 -0.9023328996799221 106 95 87
-0.029314920754957077 0.03509592895700055 -0.9066947170210535 107 96 90
-0.03207049101106435 0.037963747934713576 -0.9117367880445021 108 97 91
-0.030447538873754287 0.036444150633374 -0.9140251312044149 104 93 87
-0.030266210044025604 0.03636916872955154 -0.9172221151514371 108 97 92
-0.029230777069154973 0.03543814572864676 -0.9198756693792479 112 100 95
-0.026576304788770308 0.032884139730471384 -0.921490659076242 112 99 92
-0.025419854762129143 0.03183145840028408 -0.924055833734793 111 96 89
-0.025870497275014143 0.03238979051678162 -0.9276521053890568 112 97 90
-0.025023308442179745 0.03164703734418545 -0.9304129828154456 111 95 88
-0.014242185361557705 0.020943709478155353 -0.9267257402899204 111 94 85
-0.016789829495414563 0.023604199670541157 -0.9316686805690427 105 87 76
-0.018866048619045755 0.0257923699113978 -0.9363170771475917 97 76 64
-0.016782877960534792 0.023809439589972975 -0.9382483526890334 88 66 55
-0.014731076174315641 0.021857699352964582 -0.9401918324859969 84 60 48
-0.01233925601171837 0.01956463370807722 -0.9419023450037032 79 55 42
-0.005399973335210265 0.012709535334050559 -0.940587409532227 76 53 39
-0.004291571778799075 0.011703019080080534 -0.9431213389850558 74 50 38
-0.0053277511016325 0.012848010281285446 -0.947083782939679 73 49 36
-0.012776884101390065 0.020427735998444843 -0.9553510672540695 74 48 35
-0.01663614238617199 0.024406426816756727 -0.9612405989115093 74 48 35
-0.018144428057542322 0.02602651543488206 -0.9655630080909824 74 48 35
-0.01859287684815647 0.026583236747082212 -0.9691761243666946 74 50 36
-0.009845800852652756 0.01791078317695413 -0.9665414957003254 76 53 39
-0.0049649595403015445 0.013117758981291194 -0.9665041342526067 77 55 41
0.011130849522986985 -0.0029338492251339138 -0.9587670197087765 77 55 41
0.01240181657320899 -0.0041051842498706775 -0.9611390425128665 78 56 42
0.01771405061399415 -0.009334022021012953 -0.9607203940854754 79 57 44
0.02394247526062076 -0.015483541472278727 -0.9596439355287892 80 58 45
0.03340308608550997 -0.024879527471813025 -0.9562953289676376 80 60 46
0.02750274465010434 -0.018851273255280784 -0.9636030117232117 80 61 48
0.022244091745381743 -0.013466501850635054 -0.9704918960951244 79 59 46
0.016311079021823924 -0.007403566168312073 -0.9778804365671606 79 60 47
0.010584863803117073 -0.0015473824775205092 -0.985153363693395 81 61 50
-0.0027026294066701817 0.011905201504703908 -0.9977949029172383 82 62 51
0.00880542400060054 0.00045030802083040333 -0.9929319424426252 81 61 49
0.017693351324583564 -0.008373941920531855 -0.9898780180148862 81 61 51
0.035544871602070274 -0.02620572848313952 -0.9803882216706707 81 63 53
0.023590965356753042 -0.014090803515288922 -0.9921487496086532 82 64 54
0.039517637312832504 -0.029991425252404717 -0.9839441938902668 83 65 54
0.03828892341032084 -0.02865353710305585 -0.9880268351224571 84 65 57
0.03966204191580632 -0.02993042105899872 -0.9902356384744467 86 67 60
0.037202762264738176 -0.027355367497459128 -0.9952194154773657 91 72 65
0.03220285900897437 -0.022226000366016956 -1.0020656710200022 95 76 69
0.02804270231529845 -0.017940004552180533 -1.0083242546962106 95 77 67
0.030710277036144554 -0.020517747585428688 -1.0096018731551732 94 76 65
0.03598836734192382 -0.025720610121721263 -1.0089491046538517 91 72 61
0.030534053003877702 -0.020132482439429153 -1.0161874584849475 87 65 56
0.03172808560725944 -0.02122909524203216 -1.0185343799456716 84 57 47
0.03504824870522475 -0.024464068751190955 -1.0192986734090115 77 52 38
0.035925773138588024 -0.02524279332762773 -1.0218675235790378 73 43 26
0.045000164796654134 -0.03426636757749453 -1.0183090772033208 73 38 19
0.04510065770249284 -0.034264280121509234 -1.0214349415688315 72 37 17
0.04623778405105017 -0.03530501403443986 -1.0237821901635862 71 34 15
0.05149226736027656 -0.04048825705317191 -1.0230190623057556 74 38 16
0.055439017790758105 -0.04435649273165186 -1.0232216754057566 77 42 20
0.05688690286753867 -0.045710857832335174 -1.0253039444763656 76 41 18
0.05680882343334989 -0.045529807727445415 -1.028542971870732 75 41 16
0.058349082597854755 -0.046977378574865454 -1.0305471633401588 79 45 19
0.05922056374034099 -0.04775204076722368 -1.03305797232149 83 51 23
0.06099193994410655 -0.049432579355492695 -1.034873954826637 90 58 31
0.06375122917948418 -0.05210780696222695 -1.0359206465548023 95 64 40
0.0651728402619473 -0.053436776440797 -1.037990530909107 97 67 43
0.06737099858161572 -0.05554773618010516 -1.0394520926160216 97 67 43
0.06605232508057884 -0.05411803803721549 -1.0436430531464171 98 70 46
0.06535006132092504 -0.05330877355748272 -1.0473603419639337 100 72 48
0.06563300699701374 -0.0534914752859523 -1.0503104661129568 98 70 46
0.06554881274890188 -0.05330443045319005 -1.0535492279671688 97 69 45
0.06341792398975982 -0.051055948760626135 -1.0584036088475164 98 70 46
0.06282042687756412 -0.05035159862647422 -1.0620570282547843 97 69 45
0.06244321526524579 -0.04986900872898606 -1.0655400331579397 95 67 43
0.06442235097490932 -0.05176012102877273 -1.0671511302128223 94 67 42
0.06479956546762751 -0.05203758105705354 -1.070032721140356 95 69 44
0.06225538988291478 -0.04937155649451784 -1.0752530296915295 95 68 46
0.05818851380324905 -0.04517074108718247 -1.0817101493372203 85 58 38
0.060400802500604346 -0.04729691025512638 -1.0831302353303305 72 45 29
0.05984061723334192 -0.04662927136886822 -1.0867811747463334 64 40 27
0.05918156272548436 -0.04586184888235073 -1.090516433262203 53 30 17
0.05962084930958994 -0.04620136167643029 -1.0933634975730246 56 33 20
0.06162951887973376 -0.04812289938323898 -1.0949302198227495 57 34 21
0.06449585643273276 -0.05090933999988906 -1.0957871167826507 60 36 24
0.0637265360718054 -0.05003072068148091 -1.0996136593114476 65 38 27
0.06596037139374042 -0.052179949009052644 -1.1009746231888107 67 39 25
0.06586751202017499 -0.05198334494370713 -1.1042460298021068 69 39 23
0.06679916333084412 -0.05281983337595546 -1.1066714063621554 73 40 21
0.0666943844417093 -0.05261116680606959 -1.1099539946377628 78 43 19
0.06672367892023837 -0.052537662703775585 -1.1131269203897285 84 49 22
0.06730603804545153 -0.05302197853100797 -1.1158393293013142 91 59 31
0.06924455420699996 -0.0548743679677516 -1.1174145647896938 97 69 42
0.07107756305329217 -0.05662057908626253 -1.1190703252637297 98 72 46
0.07403811250510522 -0.059504623847690744 -1.119768657988297 97 71 47
0.06643031201927443 -0.05172571729889793 -1.1293827277285047 96 70 47
0.06502344871193025 -0.050202740679773324 -1.133781479108204 96 70 47
0.06634132731348326 -0.05142916794040739 -1.1358731350927336 95 69 46
0.06638617909578826 -0.05137098110008936 -1.1390447047702204 92 67 43
0.06270495465910779 -0.04755199041790741 -1.1454023231785115 92 65 44
0.06552924466855768 -0.050298961976188446 -1.1462030126413902 92 65 44
0.0634038171171086 -0.048049751237799955 -1.1512463663519479 89 65 44
0.0620341527279097 -0.04656313426725117 -1.1556501068719884 78 57 40
0.059976039911101044 -0.044381174946784334 -1.1606573320859819 75 59 44
0.06187435239439165 -0.04619367368915367 -1.162245607731231 92 80 68
0.06325664988260926 -0.047485362420760284 -1.164274666820047 117 109 102
0.06449597354547701 -0.048632839879562705 -1.1664230278863845 142 139 134
0.05356098817802405 -0.03748505811768968 -1.1792134461738386 159 158 155
0.05349784625124186 -0.03731633881344308 -1.1825248980963636 169 168 165
0.06923304992869986 -0.05310558191401345 -1.171943773815695 176 175 173
0.06569796014475811 -0.049430693538617496 -1.1782817525347367 181 179 181
0.06907471564961454 -0.052738001561446764 -1.178525594670611 184 182 183
0.049906737509931014 -0.0332677981654076 -1.1987496992107558 187 185 186
0.05591145277463898 -0.03922964942008214 -1.1966815965049007 189 188 186
0.05727443697356257 -0.04050191202597997 -1.19872508581342 193 192 190
0.0478129146914535 -0.030835236180223644 -1.210444548115225 195 194 192
0.050534934936553866 -0.03337488833769558 -1.2145624576354683 197 196 194
-0.21966702846620131 0.19136167477511687 -0.10280752771319875 180 181 183
-0.20018054354982145 0.17236545656856678 -0.10522929799555866 179 180 182
-0.17523266851471206 0.1480122886945437 -0.10729760666724675 180 180 182
-0.14986432165121147 0.12324353546166687 -0.10923993033477494 179 180 182
-0.12442003225082694 0.09839693368721966 -0.11107218244671159 179 179 180
