ply
format ascii 1.0
element vertex 689
property float x
property float y
property float z
property uchar diffuse_red
property uchar diffuse_green
property uchar diffuse_blue
end_header
0.05591176608487333 0.3783389527820803 -1.090980929263212 45 23 13
0.0594550802565868 0.386799902268848 -1.0887123805844523 54 29 17
0.05975769732769756 0.3877464701120299 -1.0913063576550173 55 27 14
0.05283101145647763 0.37193762565690525 -1.1048417918355773 57 27 9
0.0546607447745647 0.37642520256492495 -1.1051444105715469 70 34 12
0.0551766825057277 0.37786751403609264 -1.107432067919671 76 36 15
0.05533192174899092 0.37847390865555686 -1.1102665946423265 80 42 20
0.05626745884724807 0.38088767289262154 -1.1119060494024338 88 51 25
0.05672508101840906 0.3821940085521003 -1.1142717923257635 89 53 28
0.056929176145710955 0.3829130062506953 -1.1170245270996066 91 57 33
0.05684091124821294 0.38295501499163637 -1.1202274147685873 94 60 33
0.05634799901670422 0.38206039287061955 -1.1240579597530336 96 65 37
0.05679498918596503 0.38334167662846275 -1.1264346902893259 100 70 42
0.056671865478194264 0.38330330463571755 -1.1296954622353463 101 69 43
0.05659773431442332 0.3833784345126966 -1.1328814804607144 103 69 42
0.0531808767848928 0.37571994324764274 -1.1412989700683436 99 68 42
0.05343152742857914 0.37654772281149274 -1.1439921946512348 95 65 43
0.054355291454932245 0.3789322378872898 -1.1456250382282096 91 64 42
0.05311925745498371 0.37632148239315033 -1.1506575346704764 70 50 31
0.05263952694988355 0.3754603727549729 -1.1545049872683895 77 62 46
0.05271557606343894 0.3758845451074068 -1.1574757644790892 109 100 87
0.05221961520595527 0.3749864888000959 -1.161356128085217 150 143 135
0.0484198551232671 0.3664530578046634 -1.1705089344221786 173 169 164
0.04497017175476874 0.3587312566533806 -1.1791350694055123 184 182 179
0.04138958140996131 0.3507094027875449 -1.188001046913131 190 188 188
0.03824024683833011 0.3436863296710389 -1.1962050616109021 194 192 193
0.046279244766656645 0.3625087259710259 -1.186407479737169 196 194 195
0.04642402269765071 0.3630939889209751 -1.1892966082436764 199 197 198
0.04693846117694088 0.3645328099357698 -1.1915863401553979 200 198 199
0.04725714092329202 0.36551936152327025 -1.1941903011825787 201 200 200
0.07148015134310773 0.4219307096586869 -1.1608834987952021 201 203 202
0.07269331209186722 0.42497296302592547 -1.1619165428738496 202 202 202
-0.029050255730366015 0.0639770935087077 0.13713694390722753 184 184 186
-0.05960580634487697 -0.011042972832913566 0.13920209132566863 185 183 186
-0.035020425896324266 0.04977706074637162 0.13182086358691772 183 182 184
-0.011565744981984226 0.10779704028541681 0.1248152795962656 175 169 166
0.0015727440024680753 0.14039842254653345 0.11963420662675127 129 112 104
0.011620779788960658 0.16538225611559093 0.11503495005110753 128 100 88
0.01922788667792144 0.18435050799088995 0.11088301961301694 124 96 80
0.02824178281500811 0.2067769986043489 0.10658247613737852 128 98 83
0.02975291004611596 0.2107314504838862 0.10342875732123544 141 109 94
0.031334037732177474 0.21485727363098225 0.10027647768148795 158 131 115
0.028038532021658145 0.2069824255596364 0.09779786414961465 171 148 135
0.02815439659901761 0.20750283759782961 0.0948432023939155 154 132 119
0.03001195024313294 0.21230783641041076 0.0916660708481943 152 130 117
0.03316260106308196 0.22029237567880228 0.08834253003545589 136 112 98
0.03521390760352804 0.2255712551326161 0.08517505919237567 106 79 65
0.036509554058292135 0.22899065867823726 0.08211083439120986 100 69 51
0.03861577082922333 0.23440231131342645 0.0789651632643703 84 48 27
0.040944646788347666 0.24036009118549265 0.07581126489086848 76 37 14
0.04062781964904315 0.23981291650624897 0.07295130459148369 70 33 11
0.040885886434267285 0.2406789843300342 0.07003048900370792 68 31 11
0.042372719827002366 0.24456466261492804 0.06699240929833025 67 29 11
0.04215109499355307 0.24425141171744286 0.06412373102924751 65 29 10
0.04211431078128585 0.2443924815114504 0.061236321104347236 69 31 13
0.04291524709020803 0.2465915525293258 0.058276959496889005 75 38 17
0.044025505830160794 0.24954994745406767 0.05529825703216357 90 56 38
0.04461991392950211 0.2512407856906217 0.05236739435949643 122 91 79
0.0388932092068595 0.23740890435703502 0.04990256171889475 107 71 55
0.039284488613495726 0.23860232745371268 0.046969104454927565 118 83 67
0.0465458705340161 0.25666175247550516 0.04358994721321656 129 99 91
0.04575709570954439 0.25495594095436747 0.04076075612484053 183 165 158
0.04787307823585951 0.2603800677405031 0.03775809085509526 154 135 129
0.048488423996387746 0.26212024125797884 0.034851678211909126 148 124 117
0.05005865443502058 0.26620313001865786 0.03190221126379797 161 140 130
0.048544185410092915 0.2627169442455859 0.029105181194819203 139 116 102
0.0499653288797576 0.26643319215706357 0.026173311080653856 115 87 66
0.05328471679232551 0.2748046331312497 0.023180359112096538 106 69 44
0.05555523550694423 0.28060168133446467 0.02024838516352417 91 49 24
0.054427141658272546 0.2780633219577715 0.01743526962110012 81 39 16
0.05576701815277744 0.28157686111450747 0.01454863262966569 70 30 9
0.05629170405222652 0.28309111863873954 0.011689908950933053 67 30 10
0.056776823569819855 0.2845081055182678 0.008835447650254524 67 30 11
0.057792365618028675 0.287224859226356 0.005976709943890386 66 30 10
0.05720912089873424 0.28602301645618605 0.003141737209567126 64 29 9
0.05531555827887864 0.28161092205003624 0.0003098420431598345 63 28 9
0.05503664009961993 0.28115591407865137 -0.002541346397393819 65 32 12
0.05597264184855387 0.2836772750782648 -0.005393394807328804 60 29 10
0.05674170254996847 0.28578919554563964 -0.008239575216122001 57 27 10
0.05770362164173027 0.2883729943658859 -0.011078456279718443 56 27 12
0.060131502047043484 0.2945459600148197 -0.013890706096706631 55 28 14
0.05808632265656432 0.28976558572436834 -0.016761938075106342 57 31 18
0.05479910188636488 0.28194592193499435 -0.019676290844790556 57 33 21
0.051393730681757226 0.2738391740382031 -0.02262011658975801 56 33 21
0.05177766601374544 0.2750087860140857 -0.025480887947161295 53 34 23
0.0496164676246201 0.26994990164562005 -0.0284234640556185 48 30 19
0.049194442444495105 0.2691478818437828 -0.031319246157292584 38 21 12
0.04873460473589956 0.26825366700987935 -0.034220495826964153 34 20 12
0.048618475690779234 0.26820056769716344 -0.03711051815169472 28 15 10
0.048511203107797 0.26816925076424447 -0.040001613303795015 21 12 9
0.04948172915759943 0.2707738715641985 -0.042837206204472435 10 5 5
0.050527278345105994 0.2735613759961063 -0.04566146610070517 8 6 6
0.058179413839892266 0.2925009018779144 -0.048076871262120256 10 5 4
0.043320706115304745 0.2564053371323827 -0.05188830429158842 10 4 4
0.025276469342397342 0.21253284043655185 -0.05603632197988466 10 4 4
0.018787826396949238 0.1969134514759381 -0.05948886328866408 10 4 4
0.018360132731254114 0.19610914024828746 -0.0625294656213713 11 5 5
0.030282402374354422 0.22548039933106215 -0.06458012498915525 12 6 6
0.03502068357351457 0.2372934545343725 -0.06714370606046752 13 7 7
0.037687288168904085 0.24404304396810692 -0.06985353254547533 12 6 5
0.04079024727279515 0.2518567438836126 -0.07250257242648193 25 13 9
0.04354912623166316 0.25882825466871096 -0.0751607968757999 59 44 35
0.04513451520210253 0.26293267967821177 -0.07791543725692193 63 48 38
0.046543270478008936 0.266604905844517 -0.08067653259357244 58 34 25
0.04513982910307481 0.26341134857683823 -0.08373127432811127 48 20 8
0.04681772840961163 0.267739705548184 -0.086452204492934 53 24 11
0.04771149607512314 0.2701533759478639 -0.08925147252329059 55 25 11
0.04764507452545923 0.2702234934943173 -0.09215952840916145 57 23 8
0.04728604607998162 0.2695797803144883 -0.09510499172770798 79 52 39
0.048433044657884436 0.27261036243428105 -0.09786115615730229 78 50 38
0.05341297215515135 0.2849896485828497 -0.10010310238703932 72 39 26
0.056525152103197335 0.29281055328576144 -0.10255999640597505 74 38 26
0.052242143988445885 0.2825956803174243 -0.10602716629100775 74 38 25
0.052809557172340295 0.28421023433582693 -0.10883122970423234 111 79 63
0.05616896216950076 0.29263123186810075 -0.11121871957944804 86 48 31
0.05852476008867467 0.2986037101156594 -0.11373246121721287 106 74 59
0.06315172568083487 0.31011030509946713 -0.11587438743071402 174 156 148
0.06560474858330144 0.3163160991031059 -0.11832736484424766 157 136 125
0.06891544164606697 0.32461025345797834 -0.12062106824060553 137 107 89
0.06766529141203867 0.32179045520699245 -0.12365367490220103 100 60 31
0.06894332543442434 0.32513028241563413 -0.12626290576533702 90 44 12
0.06919007243697485 0.32595740399127543 -0.12904364765026705 84 38 9
0.06816169373380662 0.3236789556836658 -0.132051974406692 74 32 8
0.06527642725383286 0.31687950808842 -0.13540986264814783 69 30 10
0.06520360028629205 0.3169296085357054 -0.13826389857935728 69 29 9
0.06496049029068354 0.3165652548320573 -0.14115170299433064 66 30 12
0.06467642208315745 0.316101404495254 -0.1440500291367809 65 35 20
0.06366404816344842 0.3138652147850821 -0.1470964522045947 66 41 30
0.06410090007866696 0.31515641377188397 -0.1498567119191784 66 43 34
0.06376621939153106 0.31457009918384693 -0.15277409426685487 67 45 36
0.06229426497610504 0.31121720894114147 -0.1559351191213946 66 46 37
0.06485915569612599 0.31768512441662045 -0.15823907801741624 65 45 36
0.06474840436213539 0.3176436760363083 -0.16111007433363078 64 44 35
0.06452434748837327 0.3173267960825158 -0.16400784027893991 63 43 34
0.06346631193675495 0.3149822100900693 -0.1670975423853644 63 43 34
0.06256765420683091 0.3130258368140278 -0.17015939666908425 63 43 34
0.059663252411502034 0.30619421260243035 -0.1737008947560322 62 42 33
0.059139599029427385 0.3051512186764153 -0.17669651630941 62 42 34
0.05538655911335402 0.2962601777435106 -0.180482430884711 62 42 35
0.05423814920193866 0.29370082156466315 -0.18365491620190505 62 42 35
0.04592627585321933 0.27373734324689325 -0.1886367502858332 61 41 34
0.04825898408254098 0.2796387178785943 -0.19096890806669656 61 41 34
0.055358960768882616 0.2971185281978787 -0.19204739424860645 61 41 34
0.054651021879933044 0.2956306182488687 -0.19512476065241735 60 40 33
0.0538683994561749 0.29396184683757376 -0.19822832546090463 60 40 33
0.04506552151274567 0.27281980384429827 -0.2035135847126823 60 40 33
0.04500470903346766 0.27290707356035593 -0.2064642444185959 59 40 33
0.05114287414967326 0.28804207820639416 -0.20768551053786666 57 38 31
0.049855507005053784 0.2851505438503401 -0.21096088626700454 57 38 31
0.04421017061869677 0.2716839587183115 -0.21549851784381635 58 38 31
0.043840945774466074 0.2710234164039596 -0.2185457710693698 59 39 32
0.046900970103011384 0.2786830681023874 -0.220584477366751 59 39 32
0.05746863744440705 0.30455315425981966 -0.22035351771992404 59 39 32
0.055437942906177325 0.2998589384548758 -0.22385764764605245 58 38 31
0.053157914843158405 0.2945613869541957 -0.2274551926337115 58 38 31
0.04946922364142029 0.28584950460549363 -0.23150985630757404 60 40 33
0.04864616636046571 0.2840879336157953 -0.23469157383980813 60 40 33
0.048661729618950544 0.28435995495647143 -0.2376128455043592 59 39 30
0.046576782605412245 0.2795405482992333 -0.241213350677668 60 40 31
0.04340239306327972 0.2720821554759081 -0.24518755399462833 60 40 31
0.043924078659566546 0.2735824625429425 -0.24796384144564204 61 39 29
0.043437310475707744 0.2726390435293937 -0.251074541517644 60 38 27
0.043351435056326666 0.2726672026487188 -0.2540537822945176 61 37 27
0.04326554778912248 0.2726954367742979 -0.2570343223858977 62 38 27
0.04330494467143818 0.27302721217250253 -0.25997266316621387 65 38 27
0.04294761926047043 0.2723982790198607 -0.2630506164940978 66 39 28
0.04176746874156265 0.2697772741914802 -0.26642430089333025 68 40 28
0.04593373699928651 0.2801009244906086 -0.26788763188837716 68 39 26
0.04859997226733022 0.2867908022608795 -0.26986297843292495 68 39 25
0.03961810636365414 0.26528607700229145 -0.27609496709651615 68 39 25
0.04063702427535462 0.26798974788344443 -0.27868701256021744 68 39 25
0.04050144858833184 0.26789923090689716 -0.28170471136164854 68 39 25
0.04109679389226365 0.269577258719626 -0.28444690000517237 71 42 28
0.0396332773405776 0.26627435216903034 -0.2879740313116864 61 33 19
0.03952217943340289 0.2662436419196711 -0.29098974772628194 61 32 18
0.03901799732112242 0.26526239346735964 -0.29416078611828733 71 42 25
0.038405776359727556 0.2640202654670227 -0.2973791987989586 64 36 18
0.0371452638915443 0.2612111300799115 -0.30086203605542383 61 32 18
0.03588020787944724 0.25839187110282197 -0.3043574522279784 68 47 37
0.038144464960139096 0.26410443840193154 -0.3064258737598725 81 66 59
0.03950035775096329 0.2676202154164323 -0.30885040808015185 79 57 46
0.04143787751867302 0.27254068739544274 -0.3110230294323098 62 27 13
0.04412935865763241 0.2792816878277503 -0.3128644309005789 66 28 9
0.03916581058805286 0.2675273286402325 -0.3179264664842159 71 33 13
0.04258778671924958 0.2760319820214568 -0.31944429455543544 75 37 14
0.04147688623101221 0.2735864890400677 -0.3228912151763293 76 40 16
0.040816598926569414 0.2722299554603912 -0.3261514299027931 79 46 22
0.03994214665496073 0.27035677475205366 -0.32951171601010676 80 51 32
0.037395644432076436 0.26444742045668224 -0.3336213789729642 70 43 31
0.03673958354804536 0.26310319161747603 -0.3369059597532271 39 17 9
0.03458868805673071 0.2581514595037764 -0.3408715953628777 32 14 6
0.0338260820004531 0.25655153237969874 -0.344222560577053 68 44 32
0.03244095320508756 0.25345001001114575 -0.3478664773565844 64 36 22
0.03236272649599131 0.25350254286263485 -0.350916109904307 59 32 20
0.033045902290882195 0.25539193611993627 -0.35361082626489126 57 34 22
0.03108428095840085 0.25090164780668084 -0.35754850540643035 53 31 21
0.03418018344815593 0.25860986594188196 -0.3590960225091574 43 23 13
0.03160859866748293 0.25264973120812306 -0.3633389079020983 33 18 12
0.03544911999193047 0.2621511894405519 -0.36450023683040306 33 20 14
0.035156764932774656 0.2616869967404091 -0.3676478409015565 50 33 25
0.03504193784297932 0.26165095605051236 -0.37071108406892017 61 41 32
0.03541078997798555 0.262780743047908 -0.3735359563582138 63 38 26
0.03531472652902495 0.26279000968909716 -0.37659096044261325 54 26 14
0.03518756791806239 0.2627244666336616 -0.37966303739661 50 22 9
0.034678429904371984 0.2617388268875108 -0.3829308662784872 52 24 10
0.03623355355208246 0.2657259229106145 -0.38514613597881586 54 25 10
0.039421945469078394 0.27364572083637084 -0.3865063077984299 72 44 28
0.040593218642763496 0.27670601059452427 -0.3888907783357117 65 37 22
0.041984852952551215 0.28029617936784756 -0.3911508546475296 64 32 19
0.04358874394850082 0.2843965014828059 -0.3932881421139198 57 28 15
0.045835943940958926 0.29004438363761426 -0.39507056418017733 53 23 13
0.04666599593016497 0.29228001170475204 -0.3975956555998347 57 25 14
0.048747958711641046 0.29752789319468836 -0.3994379781818379 60 26 10
0.05008237401463977 0.3009757322268338 -0.4016711376658102 63 30 16
0.05145215640799375 0.30450784358240246 -0.4038747007961328 97 74 64
0.05298076672307007 0.308421182881929 -0.4059800038107085 113 94 86
0.05389752307756665 0.3108619372523155 -0.4084141542147003 105 76 62
0.054660380512677194 0.3129320350775743 -0.4109277848886151 72 35 15
0.05346587519891097 0.310295072171857 -0.4145413734498046 71 31 10
0.052732173381709824 0.3087668176804256 -0.41790312080145126 69 28 8
0.05377949029125254 0.31152051521687757 -0.4202510557428681 72 31 11
0.049449675923910655 0.3013491327443121 -0.4256935458973008 76 35 14
0.05057125715860892 0.30428179111313103 -0.4280043707668231 79 42 19
0.05176927960251495 0.3073974541300812 -0.43026198515747194 85 53 33
0.05214032715680063 0.3085254804419013 -0.43299769347950867 86 56 35
0.048597018910328235 0.3002498723935023 -0.4380529865793713 87 58 40
0.048879973811967244 0.3011671905025341 -0.4408523973292506 90 61 45
0.04417005038319995 0.2900932467231921 -0.44665242386976406 77 50 30
0.03862580190705543 0.27701893256436505 -0.4529963984577309 84 57 36
0.03165391608254796 0.26052052258558406 -0.46025608674527 85 57 39
0.017688454007774898 0.22723742522031234 -0.4718636115474441 78 49 34
0.017908161526513894 0.2280127696053464 -0.47482500306922104 70 42 27
0.018560664688634806 0.22982674053338853 -0.4775162125211904 65 38 23
0.018332889907383042 0.22952794008509442 -0.4807535432540165 60 33 17
0.01815631523002749 0.229352187236306 -0.48396112400072505 60 32 17
0.01795391448771124 0.22911464292656195 -0.48718715208574015 62 33 17
0.01824232733549032 0.23005460505804534 -0.49010238217696533 63 34 18
0.017961297040987062 0.22962868297072048 -0.49338146903937397 68 39 23
0.01780674219016539 0.22950629192379263 -0.4965817786016787 69 40 24
0.017702092674827037 0.22950371312235215 -0.4997515458094501 68 39 22
0.017669081583176816 0.2296730010296761 -0.5028759445938887 69 40 24
0.017471609044031 0.22944813340294104 -0.5061095116367523 64 35 18
0.017256118539172215 0.2291802613366164 -0.5093572646441715 70 39 21
0.017723275323778716 0.23054850194510465 -0.512152508238327 77 46 28
0.017788750931439876 0.23095401719291644 -0.5152139026928158 72 41 23
0.017734718821994323 0.23107322669880803 -0.5183560206338926 69 38 20
0.01768080378245293 0.2311928035191715 -0.5214991442156882 70 41 23
0.017690147199230642 0.2314639794412897 -0.5246001662165949 73 42 24
0.017398407255597992 0.2310141652040264 -0.5279085320896442 71 38 21
0.017306233329599234 0.2310424495474532 -0.5310820531520827 73 40 21
0.016836884382099064 0.2301678318209444 -0.5345190813496788 75 41 21
0.017121187606336324 0.2310976834306539 -0.5374337768534172 81 47 23
0.017045210500500937 0.23116507090025357 -0.540600107588751 84 50 24
0.015949264088021893 0.22879159902410723 -0.5444889977323278 88 52 26
0.015793470819796096 0.22866853518732327 -0.5477187963843823 90 54 28
0.015630577503341077 0.2285286381221459 -0.5509555943485289 92 56 30
0.016050130117213075 0.22978222080304894 -0.5537753470865766 93 58 30
0.015903805339348487 0.22968207984329148 -0.5570017367135107 97 62 32
0.015757348790829205 0.2295817714165283 -0.5602300665339658 96 61 31
0.015833534680791683 0.23001399527140587 -0.5632973392873095 95 60 30
0.015525757101290956 0.22952821020553316 -0.5666471463362327 93 58 30
0.01561118269790008 0.22998265198317958 -0.5697092055295783 96 61 33
0.015615258220544867 0.23024264475110634 -0.5728317358591247 92 57 29
0.015585152526384968 0.23042099723291654 -0.575980451541791 93 56 28
0.015680326120836606 0.23089878527993712 -0.5790358376212087 91 53 24
0.015656412478068753 0.23109203460505348 -0.5821811512423455 86 47 19
0.01578952702129187 0.2316604788195046 -0.5852079205144105 89 50 21
0.01576564004760076 0.2318538759009003 -0.5883542635685863 91 51 24
0.01508228731340959 0.23047236483329553 -0.5920082532907492 92 53 25
0.015418024490951976 0.23152487188288645 -0.5948811457327567 95 55 28
0.014775300684947278 0.23024103309810767 -0.5985119032929875 98 59 29
0.01463008767316494 0.23014536395292395 -0.6017601276476816 97 58 26
0.01454566893721388 0.23019495513084176 -0.6049624778969032 99 60 28
0.014396618633533448 0.2300904029842479 -0.6082171664468443 99 60 27
0.014247526746524589 0.2299859017459679 -0.6114737631567887 97 58 27
0.01512542772802905 0.2323319182419747 -0.6139135298684097 95 57 26
0.01408109519382518 0.23009166268180326 -0.6178870138534045 101 63 32
0.013729478715589084 0.2295044856871222 -0.6213118117419739 101 62 31
0.012660580767403125 0.22720689147171735 -0.6253207849266365 102 63 32
0.012486247459129442 0.2270432753190551 -0.6286113697941305 103 64 32
0.014188402109853046 0.23135397572266342 -0.6303696307527135 102 63 31
0.014432575067660484 0.23218779263541983 -0.6333127537394677 104 65 32
0.014107564766678515 0.23166476014005388 -0.6367246238113232 103 64 32
0.01390898436934325 0.23144331860743267 -0.640034879004988 103 64 33
0.013975154220701669 0.23185296150999196 -0.6431265847268818 109 71 40
0.01393416043653263 0.23200727709993454 -0.646308231418229 108 71 39
0.013888649083160044 0.23215090977185615 -0.6494946764387591 105 68 37
0.01400009483880818 0.23266849965638958 -0.6525492936607021 105 68 36
0.01433345866999517 0.23371460859127274 -0.6554148932245966 104 67 33
0.014668550556913434 0.23476466567831555 -0.6582769304345277 102 63 29
0.015003411144516754 0.23581400387376988 -0.6611370660067777 98 59 28
0.015229694636790338 0.2366046843994184 -0.6640887952365008 96 57 28
0.015687037549224167 0.23794527564226764 -0.6668389831624886 94 56 27
0.015505666231705323 0.23776545127441473 -0.6701424753492806 92 54 25
0.015840277415830474 0.23881368897979058 -0.6729964971717265 89 51 22
0.015526811243771137 0.23831973454244443 -0.6764183259356481 88 49 20
0.01541069704073493 0.23829555018876564 -0.6796690330747676 88 49 20
0.015608514439521791 0.23901825139306365 -0.6826427024874756 85 45 18
0.015455796861443445 0.23890716467773754 -0.6859279843851847 87 47 21
0.0149085334720769 0.23785797646402734 -0.6895686398387257 85 48 21
0.014900487200604648 0.23809131659919808 -0.6927291791928865 81 44 18
0.014433203231059517 0.23723292160694526 -0.6963056419336342 78 40 14
0.015318936672249824 0.23959110901200414 -0.6986577687051544 78 40 16
0.015498245246959752 0.24026977401426763 -0.7016477565480247 77 39 16
0.020575382185859456 0.2525876333914768 -0.7001481706242803 77 39 16
0.020474645546066858 0.2525991383655612 -0.7033741170616554 77 39 16
0.020997582984077626 0.2540924569879137 -0.7060248182155504 78 43 18
0.0211274071617074 0.25465167283048573 -0.7090370037324665 79 44 19
0.020730670831898272 0.2539602263911473 -0.7125400466638171 78 43 20
0.020195057044681546 0.25293929412051563 -0.7161771656679479 76 40 18
0.02000617801175148 0.2527420656709003 -0.7194930008328894 76 40 18
0.019996548012002062 0.25297056951045216 -0.7226415938955334 75 39 17
0.018044978990604116 0.24858942065029827 -0.7276348192705397 75 39 17
0.015649987018697166 0.24315717980310816 -0.7330677023366077 74 39 17
0.01929225420063563 0.2520536300416235 -0.7327386769372259 73 38 16
0.022794354099136344 0.26061513611810405 -0.7325150197243003 72 37 15
0.023346059773244266 0.2621747325016113 -0.7351132840329326 73 38 16
0.02412114011095163 0.26426388558450925 -0.7374909231750542 73 41 16
0.02317842985849629 0.2622783547991939 -0.7415364902447101 71 39 15
0.02292023869077379 0.26191680351483004 -0.7449207367158228 72 40 17
0.022330962730924647 0.26077043469468075 -0.7486331007120879 73 40 19
0.02154453863925599 0.25915711289177806 -0.7525455342215841 72 39 19
0.021281768360943684 0.25878566290762484 -0.7559462566565238 75 42 22
0.021923582751531584 0.26055841707053573 -0.7584497272124001 79 46 26
0.022343743952846704 0.2618055262228665 -0.7611700065369581 79 48 27
0.02290728013355429 0.26339213046588267 -0.7637436110581135 79 48 27
0.023458030565760984 0.2649481222350881 -0.7663260825115589 80 48 27
0.022142762792961405 0.2620835842279029 -0.770792313695667 81 50 29
0.021339402221288384 0.26043240592055916 -0.7747501389281456 79 47 27
0.021541526436494898 0.26116293462716156 -0.7776897951801112 76 43 24
0.02258328222646339 0.26388146148943054 -0.7797686135669689 72 38 19
0.02230120709133624 0.26346522182936977 -0.7832006000986758 79 43 26
0.022691413317765214 0.2646406034403801 -0.7859415610017074 77 41 24
0.023786042284225976 0.26748300847883855 -0.7879498118168006 68 32 15
0.02478163854371083 0.2700903805216136 -0.7900526902326528 66 32 14
0.025469447826292735 0.27196887662895464 -0.7924695330823788 67 34 15
0.026082431965402095 0.2736699461347594 -0.7949598075102502 71 38 19
0.029116919204083543 0.28109866138621725 -0.7948955505147812 74 41 22
0.029432647004974645 0.28209516179882776 -0.7976811669523557 72 40 21
0.027489498751338468 0.27774969651982273 -0.802862417882352 69 37 17
0.02562604630114766 0.27359401571534714 -0.807975555010218 70 38 18
0.024783510818289126 0.2718532209024407 -0.8120127378248715 68 36 16
0.024444772726738624 0.2713039207083445 -0.8155165635236312 69 37 17
0.025332549285885752 0.27365373707800034 -0.8177016250774682 69 37 18
0.02629302062237171 0.27617480295267316 -0.819801288124872 70 37 18
0.02814839080194278 0.280809757492704 -0.8209214268038233 69 36 18
0.03125483398907932 0.28839915908837954 -0.8206624467235767 66 33 16
0.03343981362185333 0.29380991337107193 -0.8213869795649069 69 36 19
0.035899314321023335 0.2998676298259086 -0.8217923119268078 69 36 19
0.03837495133999978 0.30596186385387436 -0.822160012337561 68 37 17
0.04064919304207152 0.3115789754741569 -0.8227307209812711 71 39 19
0.040979331445977846 0.31260496402226656 -0.8254437119495425 74 41 19
0.0403991114788314 0.3114819049953916 -0.8291701206332575 72 37 16
0.040841705441072976 0.3127732713107052 -0.8317567800252958 70 34 13
0.041265517271081936 0.3140200717306747 -0.8343615045883819 75 38 16
0.04151835983110763 0.3148632433080855 -0.8371561994437752 77 38 16
0.04356718196807527 0.3199432662203162 -0.8379160289170006 79 39 14
0.042830582751932106 0.31845170189254723 -0.8418246772360135 81 39 14
0.04070385232692651 0.3136820950170325 -0.8473256191564326 84 41 14
0.04223730237896857 0.31754517339434923 -0.8486550966216257 88 44 17
0.04161279985423082 0.31631924894119345 -0.8524516673061941 90 47 18
0.04195047487229593 0.3173620984432415 -0.8551446475779817 90 49 19
0.04260158045830024 0.3191435723445065 -0.8574727409956527 93 57 30
0.0414872923951216 0.3167639807479964 -0.8618463997296465 93 62 38
0.041335555960422196 0.3166534072589805 -0.8651080714868313 90 60 36
0.04129376276817512 0.3168020280134791 -0.8682430510352336 86 58 36
0.04130026744623038 0.3170645086746654 -0.8713223291830405 85 58 36
0.041944865832766964 0.31883004293619327 -0.8736504430848491 83 56 35
0.03941593339029466 0.31312112613048043 -0.8797259236153039 83 56 35
0.03799747278211621 0.3100288863702382 -0.8845056353864712 82 55 36
0.03626297056503806 0.306193542073945 -0.8896741688616137 80 53 34
0.03455153854278119 0.3024137221638261 -0.894830302901631 79 52 33
0.041476877139716734 0.31896423075043856 -0.8896455221297476 77 50 32
0.031340758811191444 0.29535681089248256 -0.9049323228876311 75 48 32
0.030628173725901334 0.29393092335705406 -0.9089264904592299 72 44 29
0.031928233650117634 0.2972408827327268 -0.9104887517264938 69 42 23
0.029015467815237127 0.29063957227971715 -0.9171627134491819 73 45 27
0.03081333152379781 0.2951201965115996 -0.9181148474944469 82 53 35
0.03188734622087458 0.2978973363965636 -0.9199386942695028 88 57 36
0.0316318249727597 0.29754748318328117 -0.9233873541500801 95 64 38
0.03302961056557955 0.30108495279693875 -0.9248010225213116 98 67 38
0.03435242026719615 0.304445285792052 -0.926296356718105 101 70 43
0.034381863210927024 0.30476481026378605 -0.9293862492278556 98 68 41
0.03425771912932673 0.30472342310067124 -0.9326677898724935 90 59 34
0.03384973057490684 0.304015205064895 -0.9363056465931137 72 38 20
0.03201753343293966 0.29996124100414884 -0.9417328715729555 59 29 13
0.031810341797005065 0.299725845501346 -0.9451323252277078 56 27 13
0.03318392701510757 0.3032034981900156 -0.9465393608153724 56 28 14
0.03551940544881564 0.3089392074742673 -0.9467176490653352 61 32 20
0.034264774257389746 0.3062435287635633 -0.9514375750578608 74 47 35
0.03557489568608997 0.30957013250080545 -0.952899866039339 77 51 38
0.037578182698458557 0.3145230506777946 -0.9534654409696094 80 55 42
0.036182485178799656 0.3114970108004934 -0.9583754835486826 82 59 46
0.03863866765657302 0.317511307867843 -0.9583400492007623 83 61 50
0.03867645099936713 0.3178494742493745 -0.9614075810871094 82 62 52
0.041640045393443834 0.32505180357911156 -0.9606849517376759 85 65 56
0.042987887854711235 0.328462078523188 -0.962038114710015 85 67 58
0.043860734509243444 0.33075744798901857 -0.963999963540537 87 70 60
0.044254773994586404 0.3319294539285536 -0.9665814765944089 91 73 63
0.05094566501353741 0.34786556976142624 -0.9608965442664075 95 77 68
0.05152809562719399 0.3494766869100717 -0.963198191865865 96 79 71
0.05184710594403182 0.35046999522853656 -0.9658435044371043 93 76 68
0.05118287894547574 0.3491587231628591 -0.9697895649077813 101 84 76
0.050262105231785856 0.3472467679112881 -0.9740828724507375 102 85 77
0.05098374037025476 0.3491836977115128 -0.9761945597667614 100 83 76
0.05084640036023279 0.3491078784082454 -0.9794498112181658 94 77 70
0.04914377851175543 0.3453657588812449 -0.9848072453394989 98 81 73
0.05011860460275262 0.3478954689419863 -0.9865756572083927 98 80 73
0.0509163920013907 0.35001000502739865 -0.9885755511673029 101 84 78
0.05155443131145536 0.3517500294998044 -0.9907857446205289 99 80 73
0.0525179726079623 0.354251676366207 -0.9925489382410351 86 66 56
0.05354145922586338 0.35689303615798273 -0.9942229480415923 83 62 47
0.05471330333227766 0.3598809614047871 -0.9956861391951817 76 47 32
0.0559269297183465 0.3629659165436478 -0.9970827856699926 76 40 23
0.056890018807526636 0.36546393283912904 -0.9988144708269159 72 35 15
0.05822274651254211 0.36882605040254157 -1.0000286312156152 69 32 7
0.058699431437148744 0.37018505480609787 -1.0024169836398489 70 30 7
0.060822522963138136 0.37539413675933186 -1.0025162900847062 70 29 9
0.05764065034762306 0.3681972396384332 -1.0099854548762943 71 31 8
0.05777744565889405 0.36876146332715287 -1.012846890113593 72 31 9
0.058404931778280725 0.3704726959400161 -1.0150203795316075 74 33 11
0.05815884119987967 0.3701417585824463 -1.0184167411275922 75 34 12
0.06406261584966118 0.3841829384197263 -1.0131481494203591 75 35 11
0.06266115591458639 0.38115071117252264 -1.0181572270722232 77 37 12
0.06143914870629233 0.3785387343198604 -1.0229243630038323 80 40 14
0.06073081551366046 0.37712754300961326 -1.0269719861594435 86 47 19
0.06202687594501989 0.3803983254138358 -1.0281673121443329 90 52 23
0.061194826752220065 0.3786986100780454 -1.0323967145235964 93 58 31
0.06509034601369051 0.38803796775928656 -1.0298506779954637 97 63 36
0.0646069273251483 0.3871517842052581 -1.0335737463725923 101 67 39
0.0646152156717356 0.38741373912001087 -1.0365918829573373 104 70 42
0.0630578908419909 0.38402176347308786 -1.0418768334749704 105 71 43
0.06283843778310637 0.3837528939029407 -1.0452333707782968 105 71 43
0.061073748735075366 0.3798788554786574 -1.0508422571302758 107 73 47
0.06167821477126639 0.38153301292484726 -1.0530072439399256 103 69 42
0.06147252988607266 0.38129710457344745 -1.056354190013447 97 63 36
0.061233410496677944 0.3809834116974705 -1.0597526314466377 98 64 38
0.05895270252279921 0.3759092388880362 -1.066160910868581 95 64 37
0.058491971463008 0.3750799763529343 -1.069900728750622 91 62 38
0.057850613326448176 0.37383000494251284 -1.0739126938175303 84 57 39
0.05751975418380886 0.3733042443735531 -1.0774694489040806 78 50 39
0.05783059801292209 0.37427424841534646 -1.0800735693821315 67 41 30
0.05710631819286764 0.37283209121462113 -1.0842223592526365 54 34 23
0.05732543840268185 0.3735884291818183 -1.0869643364370467 36 17 12
0.05717272537110166 0.3734784928353784 -1.0902638469782828 37 16 10
0.05677767874023531 0.37280428419360223 -1.0939304847447524 46 23 15
0.05629711461712305 0.3719312436573058 -1.097730363836648 56 31 21
0.05688946632480137 0.3735568207684845 -1.0999090548368788 55 27 15
0.055713721943789804 0.37106571312140524 -1.1047702998457138 61 30 12
0.058383586484040545 0.377527174309952 -1.1037817482386967 72 37 14
0.059012261307094596 0.37923613197901473 -1.1058904533788227 78 37 15
0.05881411834585842 0.37902063018615745 -1.1092615098015473 79 41 17
0.05957692148040369 0.3810412005570277 -1.1111582192542961 88 51 24
0.060030709659517366 0.3823424066545905 -1.1135252635019166 89 53 27
0.06022699558713483 0.3830443866289658 -1.1162869897643737 88 54 29
0.05984388786225529 0.3823987709504941 -1.1199454484909621 95 62 34
0.06018135811879441 0.3834290935560615 -1.1224882367975395 98 67 39
0.06002981331575023 0.38332225407702514 -1.125790681810046 101 71 43
0.05958089578899377 0.38252426543292317 -1.1295596406675494 105 72 47
0.05970688247215626 0.38306292341290205 -1.1324324811545567 105 71 44
0.05976402901515741 0.38344156134766316 -1.1354130317799964 102 70 45
0.05735319560696531 0.3780854075311952 -1.1422809210530662 97 67 45
0.058188737842105015 0.3802733941976296 -1.1440430002282402 91 64 43
0.05680557314645091 0.37730680470455713 -1.1493120912668315 69 49 30
0.05738951820295532 0.37891013795391526 -1.1514701827431728 72 57 41
0.055430065191296084 0.3746065470588472 -1.1576733107699717 100 91 78
0.05500985356289309 0.3738784289311522 -1.1614366125461624 144 138 129
0.05116624820465086 0.36520278424793384 -1.170683803307234 171 167 162
0.04433223525891448 0.3495882118971346 -1.184763836089704 183 181 179
0.038464787727967485 0.33622171670483514 -1.197347525514152 189 188 188
0.04013229652944142 0.340344967358471 -1.1978246606085254 194 192 193
0.04023465762277893 0.3408355724233797 -1.2008202104028505 196 194 195
0.050069241460667234 0.36390417280839327 -1.1880298126207165 198 196 197
0.05098367076874852 0.36627507228467004 -1.1896626978552869 200 198 199
0.05272941828369891 0.37057342417977557 -1.1899329128680394 201 200 200
0.05332324836302794 0.3721994563916394 -1.1920720539946146 201 202 202
0.07585348765725891 0.42468588103819727 -1.1582505080128076 201 203 202
0.07689960101325008 0.4273521788150544 -1.1595436721483974 203 203 203
-0.021915384410318525 0.07308491857933345 0.1363125226572049 184 184 186
-0.04943741388540438 0.005244916799810949 0.1378897632178872 185 183 187
-0.025348598861326135 0.06509320613333566 0.1306072353525728 184 183 184
0.0009235848872388291 0.1303268599632311 0.12315567507400785 166 158 154
0.009652700939184557 0.15215838012455787 0.11870992122245021 129 108 98
0.017611782240215326 0.17208035852875006 0.11445187577243311 128 99 86
0.024654171235228055 0.1897309090363936 0.11039476672926321 121 92 78
0.03190897037744618 0.20790221403780992 0.10636085947259227 129 98 84
0.03461302442149656 0.21482027444344162 0.10303836455064633 143 113 97
0.03624897360338387 0.21909683085345347 0.09988605650394815 163 136 120
0.03345632914005679 0.21242837018939564 0.09734877600849123 163 142 128
0.032986964199905884 0.21150231907588002 0.09448187256698193 156 134 121
0.032473082910808866 0.21046662769792637 0.09161639707823242 153 131 118
0.03537574076981067 0.21787112474929704 0.08832148125652792 136 112 98
0.037964127568065165 0.22449761081949166 0.08508660220555021 108 81 68
0.04094897969164188 0.2321016554757676 0.08182527394882698 98 65 48
0.041732233033107746 0.23426737404368195 0.07883460529325993 85 49 27
0.043986620964705965 0.24006492355176035 0.07568969126892464 81 41 19
0.04326052552751185 0.2385031397009216 0.0728739560813789 76 37 14
0.043736088438998996 0.23990803469543134 0.06993083330849553 71 32 12
0.04577212603384454 0.24516406844371083 0.06683974573379349 69 30 11
0.04561074480722013 0.2449961366602852 0.06396823078194776 66 29 9
0.04655764782889973 0.24756300153445387 0.0609962496427787 67 30 9
0.046401611989545094 0.24740820645878153 0.05812492116233311 69 31 10
0.047712943196569185 0.25087330635420485 0.05513276472888156 86 52 33
0.048807221928765875 0.2538022656661259 0.05216708912658511 117 88 76
0.04211037717744999 0.23751607453863952 0.04978001341345217 105 71 55
0.04222227678322936 0.2380237602779039 0.04686779524056526 122 87 73
0.0496946124248856 0.2566791448638243 0.04347478931901653 131 100 93
0.047686724577116625 0.2519586386360615 0.040722334500953465 173 152 144
0.05033371955281617 0.2587134876615891 0.037685900552362095 155 134 126
0.05093243144652369 0.26041845118144386 0.0347794045259188 149 124 119
0.05413699390157834 0.2685447337214844 0.03174778583164264 179 155 148
0.05377213475367178 0.26787397436449617 0.02890382077850729 143 121 107
0.0539053832245121 0.2684306742615468 0.026035614121121826 117 89 67
0.05604451131757773 0.2739285725416315 0.023092102336137784 94 56 29
0.05661953760405942 0.2755726927088071 0.020217792287210105 84 43 17
0.0540146500709346 0.2693851760666467 0.017442467888793788 74 31 11
0.05900732998199852 0.28190783637193845 0.014448924856384784 67 27 8
0.05857691411563474 0.2810751043810399 0.011613474262980539 65 29 9
0.0596119767064601 0.28385040740104284 0.008747597406510751 65 28 9
0.06042604277794842 0.28608112478013564 0.005892426412169041 64 29 9
0.06023103991711875 0.28582788375718626 0.0030533438967912524 61 27 8
0.05876652621724039 0.2824507280610752 0.00022000986664996725 60 27 8
0.058931654405881544 0.2830843432011233 -0.0026291423248938975 63 31 13
0.06023354443601309 0.2865145917885052 -0.005475637897043313 58 28 10
0.06099720218513255 0.28862006251015465 -0.008315469717455247 55 26 9
0.06175931343616347 0.29072129421572324 -0.011149861515206597 54 26 11
0.06290414319156798 0.29376330338003975 -0.013973619007397318 55 28 14
0.06173030465518577 0.2911031140896232 -0.016829515821019207 56 30 17
0.0601835474113752 0.28752683601157447 -0.019703286057825634 54 30 18
0.056038673072729736 0.2775645440178888 -0.022655938328315486 55 32 20
0.05414185757916594 0.2731306832742035 -0.02557591966567173 51 32 20
0.051338822957990256 0.2664708513400011 -0.02854171683474982 43 25 14
0.051815296224988955 0.26787185245285366 -0.03140796884196795 37 20 12
0.05184302044499057 0.2681699920107161 -0.03428955397753961 33 18 13
0.050975958365463446 0.2662698916934777 -0.03721197227317933 29 15 12
0.052163449337156845 0.26941726795561477 -0.04004080633316231 21 11 9
0.05239261924677486 0.270210187734864 -0.04291175056756293 12 6 6
0.0635704692726028 0.29789083618836765 -0.045156245134450136 8 6 6
0.06174200887358849 0.29362760925516707 -0.0481070007445801 10 5 3
0.046730586952158024 0.2569991381260753 -0.051930159070543436 10 4 4
0.026983502742248602 0.20899309639705516 -0.05918563455644771 10 4 4
0.019549248573268493 0.19098607962652114 -0.06274410744332168 10 4 4
0.03423151589782641 0.227255701233897 -0.06457300557930679 11 5 5
0.037245798915996685 0.23488762275622546 -0.06727621165096619 12 6 6
0.04020881402589731 0.24239190925032597 -0.06996065116425215 13 7 6
0.04414811401811604 0.25228915134940233 -0.0725315652893092 25 12 8
0.04622908495487849 0.25762613342711405 -0.07525163967762291 60 45 36
0.04831154363756697 0.2629654928664532 -0.07795563439854875 71 56 46
0.049094653525681715 0.2651175688818306 -0.08077975031414827 57 32 23
0.04774272625817416 0.2620347489591844 -0.08383030382260581 48 21 10
0.05015409785981489 0.26817807892304746 -0.08646819856673339 52 24 12
0.050737789446963916 0.26984018329482706 -0.0893007053906168 55 24 12
0.051353242270303426 0.27157980332586257 -0.09212533583582003 59 26 10
0.05188361756539721 0.27311060461802816 -0.0949562671837367 99 74 62
0.05409647008681433 0.2787633589580161 -0.09756725628421284 72 45 33
0.05769228783611525 0.2878027239725979 -0.0999779229825837 73 39 25
0.05802472470212695 0.2888463063067667 -0.10280611213371685 72 35 22
0.05347336052345837 0.2779285615241273 -0.1063184595193989 72 35 20
0.05636539818598736 0.28524140119471 -0.10879214374957522 93 60 43
0.059311780076980916 0.29268551344606375 -0.11123532519331839 87 50 32
0.06177193976225798 0.2989374326302309 -0.11372975828134976 115 83 68
0.06594074218831306 0.309370386680048 -0.1159378915532149 171 152 144
0.06686291173097446 0.31185440325346636 -0.11863421917803516 147 125 116
0.06897095886070839 0.3172400115225642 -0.12112881983024724 126 95 79
0.06954726153455157 0.31887626082052867 -0.12386513083452763 100 61 31
0.07125433448840426 0.32327874115311805 -0.12640251279514292 87 41 13
0.0714239218745741 0.3239190470446128 -0.12919801952756094 80 34 9
0.07045043743026656 0.3217633705448751 -0.13219890842261642 70 29 7
0.06818387621952193 0.316445943035372 -0.1354465093173914 66 29 10
0.06804298074906785 0.3163279691123253 -0.13831245339962175 68 30 12
0.06750555926039037 0.31524061897237843 -0.14125636572891354 68 32 15
0.06693352762913335 0.314069046435251 -0.14421194682081573 65 35 20
0.06588868434868955 0.3117421540277574 -0.14726738552175245 63 39 26
0.06584466181291548 0.31186204072516366 -0.15012729080752713 64 42 32
0.06607399930274718 0.31265002367306866 -0.15293119664754692 66 44 36
0.06621456199936299 0.31322099287478683 -0.155752702771773 66 46 37
0.06696655196781351 0.31528569998714256 -0.15844143397004606 66 46 37
0.06603998642416897 0.3132496231606566 -0.16149448589698276 65 45 36
0.06583123806001236 0.3129674286918246 -0.16439454513835666 64 44 35
0.06514034320645588 0.3115079413587406 -0.16740692048484493 64 44 35
0.06560807567542787 0.3128781111640944 -0.17015629659776 63 43 34
0.06425564200334608 0.30980407650029124 -0.17333256666059554 63 43 34
0.06277616150670878 0.30642080668273414 -0.17655077068230496 62 42 35
0.061325431127660285 0.30310870391949785 -0.17977438078422758 61 41 34
0.057457259098708 0.2938976834283567 -0.18361037413729617 61 41 34
0.049837576913591114 0.27553462469060896 -0.1884243340759812 60 40 33
0.052004853515790705 0.28105580865397206 -0.19079172629008512 60 40 33
0.060425692128641725 0.3018318041451682 -0.19151467610782263 60 40 33
0.0571559485770675 0.2940859346135403 -0.19526043988931802 60 40 33
0.05682752896044639 0.29351595700996247 -0.19824385874422065 59 39 32
0.05559368537011594 0.2907382389715756 -0.20147705314734476 58 38 31
0.05423428460167895 0.28765520981698023 -0.2047554270444829 58 38 31
0.05328620180975462 0.28557588911311665 -0.20792999888975514 57 38 31
0.05343453140287486 0.28616991981320294 -0.2108010352191908 58 39 32
0.052255478520444404 0.2835286013559522 -0.21405421423526888 58 39 32
0.05095239423912147 0.28058581670922156 -0.21735371267939482 59 39 32
0.049335706512056876 0.27687975223231226 -0.2207572076870962 59 39 32
0.05851934814453306 0.299488634874949 -0.2209301753982502 59 39 32
0.05592604616924737 0.29340217390317497 -0.22461474943443807 58 38 31
0.053020088830305095 0.2865558703713719 -0.22841716406328139 58 38 31
0.050466915007306185 0.28057065753794275 -0.23213329965105062 59 39 32
0.05242391263382224 0.28556990704541463 -0.23444339183378285 59 39 32
0.05185208781712126 0.28441079195835617 -0.23754871958215734 58 38 29
0.05345493652030432 0.28854627365766006 -0.2399536415993847 58 38 29
0.04658311075202491 0.272052134381542 -0.24513006931556416 59 39 30
0.046786707993854725 0.27278283304208817 -0.24800974744608173 62 41 30
0.046256262302532415 0.27172714884565907 -0.2511354189275187 61 39 28
0.046239520522338706 0.27192179237529 -0.2540910266172963 61 37 27
0.046265445600070655 0.2722202981131016 -0.2570326768015914 62 37 27
0.046642638152224455 0.273373310579538 -0.25985228053930054 64 37 26
0.046010676692216375 0.2720716386500628 -0.2630252973600038 65 38 27
0.04457765555017601 0.2688223200649392 -0.2664896960809298 67 39 27
0.048135816524512945 0.27771044901245795 -0.26816612065733714 68 39 26
0.05087128650395331 0.2845961627940916 -0.27011453107027844 68 39 25
0.0432429367902755 0.26628632883858266 -0.2758627936323845 68 39 25
0.044126316074333226 0.26867022545094804 -0.27850044520181777 67 38 24
0.043004629763093216 0.2661806949814569 -0.28188703913825375 68 39 25
0.04381137652085046 0.26837798286239767 -0.2845489413297864 68 39 25
0.04299894154056903 0.26664074701022666 -0.2878280617220773 61 33 19
0.04262951655015565 0.2659803019082909 -0.29094207680922796 62 33 20
0.042541920462658284 0.2660047093557303 -0.2939489570673812 70 41 26
0.04133089372601488 0.26330075697059663 -0.29740307460912146 62 33 16
0.04016325782976161 0.260703002120943 -0.30085017854044327 56 27 13
0.04204179340414022 0.2655022947233461 -0.30307364733878 70 49 38
0.0426743127535003 0.26727544254368013 -0.3057922267885637 81 66 59
0.04395203927683066 0.27061440975907763 -0.3082398060189099 78 56 45
0.045221622512452306 0.2739328385724411 -0.3106810817749331 64 29 15
0.048327627392781174 0.2817070500802073 -0.3123393359889086 62 24 5
0.045101616414993204 0.27411507650079076 -0.3166653320757382 69 31 10
0.04840603207778491 0.282368789898852 -0.31821504905450776 73 35 14
0.043423796778148366 0.27051873433245893 -0.32332890771942885 76 39 16
0.044821706499601245 0.2741467848993815 -0.3256936367249431 81 48 24
0.04369443419411434 0.27165004645561086 -0.3291621383502334 80 50 31
0.0418439126255265 0.2674003321828716 -0.3329624900459438 69 42 29
0.040354269314950245 0.2640268110125485 -0.3366162361056584 39 18 10
0.03890313219535047 0.26074764647642107 -0.34026518811596385 30 13 5
0.036567050682011625 0.2553244904645273 -0.3443313729788048 70 47 35
0.03926343784192055 0.26209924651429767 -0.34609430336010655 71 43 30
0.03582363834503454 0.2540030411573509 -0.350693074700847 62 35 23
0.035280257354451186 0.2529268025277088 -0.35396000167644215 55 32 21
0.033746493330713306 0.2494516983435368 -0.35770109845630416 50 27 18
0.037029225719037315 0.25764435040970396 -0.3591541564404611 41 21 12
0.03509362341665688 0.2531965526625718 -0.363095448197039 32 17 11
0.037529860274999056 0.2593368782294113 -0.3649289792927869 27 14 8
0.037779810245096065 0.2601820846691196 -0.3678144637147755 49 34 25
0.037840669300034144 0.2605693999577817 -0.37079194858296594 56 34 25
0.03943212345320629 0.26466172165325474 -0.37300731206146776 56 29 18
0.03774057345888969 0.26080720519929723 -0.37685867412452423 52 26 13
0.039744864278775466 0.2658976844688584 -0.3788538406288736 51 24 13
0.035169387763874606 0.2550661572450299 -0.38419020935393783 52 24 12
0.03785712689205585 0.2618097580479686 -0.38582934363864985 55 27 14
0.04072659562137578 0.2689912734744567 -0.3873531038620304 69 41 28
0.0430323997380507 0.2748076545290136 -0.3891486265243204 65 36 24
0.043448266827085025 0.27605204613583967 -0.3919209297182727 60 28 16
0.045710762586832 0.2817614297959671 -0.393710898366289 59 29 18
0.048044269651534494 0.2876410814637548 -0.3954451535899404 51 23 12
0.04874697493617703 0.28957699180382906 -0.39803940662306175 55 25 15
0.051424445602756344 0.2962856266331675 -0.3995569520077391 55 23 7
0.05283798376931503 0.2999379806567728 -0.4017443682275263 65 33 18
0.05496479295019323 0.3053130247118494 -0.40352805144811665 97 74 65
0.05660423257591068 0.3095092095741114 -0.40556547194659415 108 88 82
0.05769205073092332 0.312371791687186 -0.4078984809823269 99 71 58
0.05749520598967403 0.3121306899308228 -0.4109464932431867 73 35 15
0.055637230286295636 0.3078779410785035 -0.41493865934909646 71 30 10
0.05404970063114266 0.30427951803804126 -0.41879209859939237 70 29 9
0.05592885914811258 0.30905237693776183 -0.42066507730502894 72 31 11
0.05252969157196905 0.3010814375270191 -0.4255808812371032 75 33 15
0.05103530604882397 0.29771055027413995 -0.4294138613650506 77 40 19
0.052993200120650466 0.30267273186135507 -0.4312317561610213 86 54 34
0.055441076642646935 0.30881609949868666 -0.4327445075130963 84 56 35
0.05097196764406224 0.29826833310920386 -0.43835732263254507 83 55 37
0.051957691140512234 0.3008833960270648 -0.4407363337226838 88 59 43
0.0483666413109102 0.2924578135023006 -0.4458709141810809 83 54 34
0.04195920563758962 0.2772418703522483 -0.45274711346181523 82 54 31
0.02414965435853446 0.23453347759570276 -0.46665257609498156 85 56 36
0.023629860747847696 0.23352605673368643 -0.4700546576625791 70 41 26
0.02269625874977864 0.23152137885051957 -0.473718185078162 66 38 24
0.022575833262656275 0.23147757444271144 -0.47688247859023625 65 38 23
0.02238879472490568 0.23127334637310504 -0.4800902418307784 60 33 19
0.022209930539334427 0.23108899091587323 -0.4832950066373323 64 37 23
0.022074654940436464 0.23100983383466372 -0.48647413837786746 74 45 30
0.022144231050912754 0.23142435764722163 -0.48952382848829923 65 36 21
0.02186033945696294 0.2309874064791096 -0.49280140386755905 68 39 24
0.021649921105711838 0.23072766015541285 -0.4960342891984396 69 41 23
0.021457397755056146 0.23051119870587966 -0.49925785905526293 74 45 25
0.021418026519781017 0.2306636981150237 -0.5023830639094033 73 45 24
0.02114117017955098 0.2302444980340436 -0.5056661763922405 70 42 22
0.020977781678027704 0.23009868184631585 -0.5088767498817719 71 40 22
0.021480295125178663 0.23155583598519977 -0.5116438037057348 72 41 23
