ply
format ascii 1.0
element vertex 871
property float x
property float y
property float z
property float nx
property float ny
property float nz
property uchar diffuse_red
property uchar diffuse_green
property uchar diffuse_blue
property uchar class
property uchar detection
end_header
0.1783 0.1262 -0.8745 -0.355 -0.889 -0.290 122 103 89 0 0
0.1785 0.1252 -0.8773 0.031 -0.711 -0.702 122 109 96 0 0
0.1808 0.1226 -0.9347 0.837 -0.412 -0.360 84 62 51 0 0
0.1815 0.1194 -0.9365 0.941 -0.333 -0.058 84 60 49 0 0
0.1813 0.1212 -0.9406 0.803 -0.520 -0.290 83 59 49 0 0
0.1801 0.1308 -0.9617 0.943 -0.252 0.216 84 60 48 0 0
0.1826 0.1187 -0.9689 0.995 -0.096 -0.020 83 59 47 0 0
0.2045 0.0279 -1.1237 0.602 -0.796 0.057 106 74 49 0 0
0.2057 0.0284 -1.1659 0.768 -0.635 0.081 178 175 171 0 0
0.2095 0.0074 -1.1592 0.510 -0.023 0.860 188 187 187 0 0
0.1422 0.1716 -0.0840 0.889 -0.327 0.320 98 79 71 0 0
0.1606 0.0833 -0.1387 0.678 -0.660 -0.323 84 51 28 0 0
0.1597 0.0883 -0.1419 0.823 -0.525 -0.215 83 52 30 0 0
0.1505 0.1517 -0.2329 0.557 -0.792 0.250 89 74 69 0 0
0.1507 0.1510 -0.2359 0.557 -0.792 0.250 93 80 74 0 0
0.1510 0.1501 -0.2388 0.587 -0.779 0.222 98 86 81 0 0
0.1651 0.1032 -0.4067 0.852 -0.509 0.122 88 59 44 0 0
0.1639 0.1099 -0.4111 0.491 -0.863 0.115 95 66 50 0 0
0.1649 0.1061 -0.4194 -0.043 -0.937 0.347 97 65 46 0 0
0.1573 0.2085 -0.8035 -0.548 -0.628 -0.552 170 167 168 0 0
0.1559 0.2172 -0.8102 0.855 0.136 0.501 134 126 124 0 0
0.1577 0.2074 -0.8097 0.872 0.133 0.470 113 103 100 0 0
0.1591 0.2003 -0.8103 0.872 0.133 0.470 104 92 88 0 0
0.1604 0.1932 -0.8108 0.879 0.117 0.462 98 85 79 0 0
0.1618 0.1861 -0.8113 0.884 0.114 0.453 97 80 73 0 0
0.1730 0.1319 -0.8416 0.239 -0.903 0.357 88 62 47 0 0
0.1734 0.1305 -0.8442 0.704 -0.706 0.072 92 65 50 0 0
0.1777 0.1226 -0.9352 0.785 -0.155 0.599 82 60 49 0 0
0.2005 0.0276 -1.0920 0.634 -0.734 0.242 72 44 34 0 0
0.2016 0.0272 -1.1238 0.454 -0.891 0.010 105 74 46 0 0
0.2021 0.0253 -1.1291 0.693 -0.719 -0.052 104 72 47 0 0
0.2027 0.0282 -1.1663 0.688 -0.634 0.353 173 170 166 0 0
0.1380 0.1759 -0.0752 0.575 -0.742 0.346 111 100 94 0 0
0.1384 0.1741 -0.0781 0.717 -0.575 0.395 107 91 83 0 0
0.1388 0.1726 -0.0811 0.717 -0.575 0.395 97 78 68 0 0
0.1401 0.1661 -0.0839 0.889 -0.327 0.320 92 72 61 0 0
0.1409 0.1638 -0.0928 0.709 -0.433 0.556 100 80 71 0 0
0.1561 0.0886 -0.1218 0.591 -0.700 0.400 123 89 68 0 0
0.1579 0.0810 -0.1329 0.316 -0.949 -0.010 97 63 38 0 0
0.1485 0.1476 -0.2417 0.557 -0.792 0.250 92 79 72 0 0
0.1632 0.0971 -0.4057 0.861 -0.449 0.240 87 58 43 0 0
0.1620 0.1055 -0.4195 0.136 -0.933 0.334 101 71 53 0 0
0.1551 0.2031 -0.8051 0.855 0.136 0.501 109 99 94 0 0
0.1557 0.2002 -0.8073 0.874 0.063 0.481 103 90 85 0 0
0.1576 0.1913 -0.8104 0.919 -0.080 0.387 94 78 71 0 0
0.1584 0.1871 -0.8121 0.933 -0.101 0.345 93 74 66 0 0
0.1714 0.1208 -0.8211 0.110 -0.994 0.008 86 63 49 0 0
0.1700 0.1310 -0.8416 0.612 -0.695 0.379 85 59 46 0 0
0.1734 0.1280 -0.9316 0.917 -0.398 -0.007 106 86 75 0 0
0.1970 0.0207 -1.0313 0.654 -0.707 0.268 92 57 30 0 0
0.1985 0.0219 -1.0892 0.337 -0.861 0.381 68 40 31 0 0
0.1991 0.0293 -1.1546 0.844 -0.534 -0.049 88 71 58 0 0
0.1339 0.1808 -0.0724 -0.164 -0.980 -0.112 118 108 103 0 0
0.1353 0.1741 -0.0752 0.566 -0.646 0.512 113 95 87 0 0
0.1362 0.1699 -0.0781 0.776 -0.510 0.371 107 83 74 0 0
0.1537 0.0860 -0.1218 0.447 -0.755 0.479 119 86 64 0 0
0.1538 0.0861 -0.1247 0.296 -0.676 0.675 127 96 74 0 0
0.1551 0.0799 -0.1301 0.354 -0.884 0.307 107 76 52 0 0
0.1556 0.0777 -0.1328 0.059 -0.965 0.257 93 59 34 0 0
0.1469 0.1402 -0.2440 0.815 -0.533 0.228 89 72 65 0 0
0.1466 0.1426 -0.2473 0.739 -0.673 0.031 89 74 67 0 0
0.1456 0.1497 -0.2602 -0.508 -0.807 -0.301 97 83 76 0 0
0.1579 0.1099 -0.4115 0.815 -0.580 -0.002 99 70 54 0 0
0.1580 0.1100 -0.4146 0.757 -0.643 -0.117 109 80 64 0 0
0.1581 0.1096 -0.4176 0.708 -0.690 -0.150 110 81 65 0 0
0.1588 0.1064 -0.4199 0.622 -0.595 0.510 103 74 58 0 0
0.1506 0.2086 -0.7976 0.869 0.147 0.472 130 122 121 0 0
0.1515 0.2041 -0.7992 0.881 0.093 0.465 116 104 101 0 0
0.1521 0.2013 -0.8014 0.851 0.093 0.517 107 93 88 0 0
0.1543 0.1903 -0.8038 0.867 -0.011 0.498 96 80 73 0 0
0.1719 0.1067 -0.8510 0.545 -0.759 -0.357 93 62 42 0 0
0.1727 0.1161 -0.9396 0.857 -0.506 0.096 82 58 46 0 0
0.1943 0.0190 -1.0309 0.478 -0.786 0.391 88 52 25 0 0
0.1975 0.0196 -1.1428 0.830 -0.491 -0.265 99 74 50 0 0
0.1300 0.1844 -0.0696 0.205 -0.922 0.329 120 111 109 0 0
0.1305 0.1826 -0.0725 0.382 -0.656 0.650 116 101 96 0 0
0.1528 0.0766 -0.1300 0.643 -0.764 -0.056 111 79 58 0 0
0.1533 0.0747 -0.1328 0.368 -0.894 0.257 95 60 35 0 0
0.1550 0.0710 -0.1670 0.157 -0.987 0.015 72 52 45 0 0
0.1373 0.1848 -0.3111 0.685 -0.087 0.723 93 75 68 0 0
0.1555 0.1065 -0.4111 0.815 -0.580 -0.002 95 66 53 0 0
0.1555 0.1070 -0.4142 0.757 -0.643 -0.117 110 81 67 0 0
0.1560 0.1065 -0.4262 -0.432 -0.901 0.022 89 55 31 0 0
0.1552 0.1113 -0.4303 0.016 -0.846 -0.532 88 53 29 0 0
0.1484 0.2013 -0.7851 -0.619 -0.654 -0.434 163 161 161 0 0
0.1473 0.2074 -0.7908 0.893 0.150 0.425 131 125 123 0 0
0.1488 0.2000 -0.7913 0.891 0.148 0.430 113 102 99 0 0
0.1502 0.1926 -0.7918 0.884 0.145 0.445 107 92 88 0 0
0.1543 0.1731 -0.8007 0.889 -0.065 0.453 89 68 57 0 0
0.1694 0.1034 -0.8500 0.512 -0.824 0.243 91 60 42 0 0
0.1697 0.1020 -0.8526 0.747 -0.663 0.048 90 58 37 0 0
0.1691 0.1057 -0.8574 0.910 -0.361 0.202 89 57 34 0 0
0.1707 0.1103 -0.9372 0.857 -0.507 0.092 81 57 45 0 0
0.1924 0.0214 -1.0868 0.725 -0.619 0.301 66 40 31 0 0
0.1927 0.0207 -1.0896 0.334 -0.861 0.384 70 42 33 0 0
0.1929 0.0197 -1.0921 0.334 -0.861 0.384 70 44 33 0 0
0.1944 0.0173 -1.1259 0.589 -0.808 -0.004 106 75 49 0 0
0.1942 0.0229 -1.1550 0.727 -0.635 -0.263 85 69 53 0 0
0.1943 0.0231 -1.1584 0.727 -0.686 -0.016 98 86 73 0 0
0.1946 0.0217 -1.1607 0.744 -0.664 -0.079 121 112 103 0 0
0.1948 0.0210 -1.1635 0.738 -0.627 0.251 151 144 137 0 0
0.1156 0.2319 -0.0001 0.867 -0.482 0.128 100 66 39 0 0
0.1158 0.2314 -0.0032 0.867 -0.482 0.128 101 67 40 0 0
0.1160 0.2309 -0.0063 0.874 -0.462 0.150 100 66 39 0 0
0.1271 0.1838 -0.0696 0.205 -0.922 0.329 119 107 102 0 0
0.1272 0.1836 -0.0726 0.059 -0.895 0.443 112 95 88 0 0
0.1503 0.0744 -0.1300 0.604 -0.784 -0.141 99 66 45 0 0
0.1506 0.0740 -0.1357 0.282 -0.555 0.783 82 46 22 0 0
0.1532 0.0651 -0.1638 0.234 -0.920 0.313 70 50 41 0 0
0.1534 0.0645 -0.1666 0.325 -0.928 0.183 70 50 42 0 0
0.1403 0.1457 -0.2601 0.285 -0.850 -0.443 87 69 59 0 0
0.1401 0.1495 -0.2787 -0.117 -0.992 -0.056 94 77 67 0 0
0.1384 0.1661 -0.3302 0.640 -0.642 0.422 104 85 75 0 0
0.1387 0.1646 -0.3330 0.640 -0.642 0.422 106 92 86 0 0
0.1391 0.1631 -0.3358 0.482 -0.811 0.333 119 110 107 0 0
0.1387 0.1656 -0.3393 0.161 -0.985 -0.064 175 172 173 0 0
0.1531 0.1048 -0.4200 0.353 -0.848 0.395 103 76 60 0 0
0.1521 0.1115 -0.4306 0.077 -0.955 -0.287 88 52 28 0 0
0.1510 0.1732 -0.7979 0.945 -0.093 0.313 88 67 56 0 0
0.1526 0.1648 -0.7979 0.950 -0.087 0.301 87 65 52 0 0
0.1904 0.0123 -1.0597 0.452 -0.888 -0.085 105 79 55 0 0
0.1903 0.0136 -1.0637 0.368 -0.923 -0.111 100 74 51 0 0
0.1897 0.0198 -1.0864 0.368 -0.857 0.362 66 39 29 0 0
0.1899 0.0193 -1.0892 0.289 -0.934 0.209 68 41 31 0 0
0.1903 0.0176 -1.0914 0.028 -0.967 0.252 71 44 33 0 0
0.1917 0.0155 -1.1253 0.520 -0.831 -0.197 105 76 49 0 0
0.1917 0.0202 -1.1539 0.659 -0.729 -0.185 83 66 49 0 0
0.1917 0.0204 -1.1572 0.727 -0.686 -0.016 92 78 63 0 0
0.1923 0.0184 -1.1624 0.738 -0.627 0.251 140 133 125 0 0
0.1139 0.2255 -0.0064 0.695 -0.666 0.272 99 65 38 0 0
0.1141 0.2249 -0.0094 0.679 -0.711 0.183 96 62 35 0 0
0.1144 0.2294 -0.0492 0.822 -0.547 0.156 180 181 183 0 0
0.1239 0.1847 -0.0727 -0.679 -0.732 -0.061 100 84 74 0 0
0.1527 0.0494 -0.1400 0.514 -0.858 -0.004 78 46 26 0 0
0.1505 0.0641 -0.1638 0.079 -0.986 0.145 70 50 40 0 0
0.1373 0.1462 -0.2663 0.294 -0.735 -0.611 85 66 54 0 0
0.1388 0.1396 -0.2746 0.477 -0.762 -0.438 92 73 61 0 0
0.1388 0.1403 -0.2777 -0.016 -0.966 -0.256 94 74 62 0 0
0.1359 0.1623 -0.3267 0.487 -0.372 0.790 96 70 55 0 0
0.1358 0.1634 -0.3299 0.640 -0.597 0.484 99 77 64 0 0
0.1362 0.1619 -0.3328 0.680 -0.669 0.299 103 82 72 0 0
0.1353 0.1668 -0.3366 0.173 -0.911 0.374 104 88 82 0 0
0.1353 0.1672 -0.3398 -0.072 -0.972 -0.222 135 126 126 0 0
0.1321 0.1842 -0.3456 0.126 -0.650 -0.749 181 179 182 0 0
0.1816 0.0318 -0.9950 0.171 -0.842 0.512 96 78 68 0 0
0.1864 0.0116 -1.0220 0.721 -0.692 0.045 80 43 16 0 0
0.1876 0.0113 -1.0597 0.579 -0.810 0.099 105 79 54 0 0
0.1865 0.0194 -1.0771 0.568 -0.813 -0.125 92 67 48 0 0
0.1870 0.0183 -1.0860 0.582 -0.772 0.256 68 41 30 0 0
0.1869 0.0199 -1.0933 0.491 -0.860 -0.140 68 45 32 0 0
0.1872 0.0183 -1.0956 0.317 -0.893 -0.319 75 50 39 0 0
0.1892 0.0165 -1.1489 0.695 -0.651 -0.306 94 69 48 0 0
0.1891 0.0177 -1.1529 0.637 -0.758 -0.140 85 66 49 0 0
0.1892 0.0177 -1.1561 0.727 -0.686 -0.016 86 69 54 0 0
0.1892 0.0178 -1.1594 0.727 -0.686 -0.016 101 89 78 0 0
0.1893 0.0180 -1.1627 0.727 -0.686 -0.016 129 121 112 0 0
0.1091 0.2286 0.0271 0.148 -0.959 0.243 94 60 35 0 0
0.1098 0.2256 0.0240 -0.261 -0.892 0.368 95 61 36 0 0
0.1107 0.2222 0.0179 0.136 -0.982 0.134 97 63 38 0 0
0.1135 0.2185 -0.0522 0.486 -0.562 0.669 180 180 181 0 0
0.1142 0.2155 -0.0552 0.486 -0.562 0.669 179 180 182 0 0
0.1382 0.1014 -0.0997 0.862 -0.430 0.267 97 74 67 0 0
0.1477 0.0629 -0.1610 0.091 -0.941 0.327 70 50 39 0 0
0.1480 0.0619 -0.1638 0.334 -0.906 0.259 70 50 39 0 0
0.1482 0.0612 -0.1666 0.334 -0.906 0.259 70 50 39 0 0
0.1457 0.0759 -0.1792 0.009 -0.807 0.591 70 51 44 0 0
0.1452 0.0784 -0.1823 -0.246 -0.775 0.582 70 51 44 0 0
0.1353 0.1415 -0.2720 0.167 -0.887 -0.430 85 63 52 0 0
0.1343 0.1473 -0.2757 -0.532 -0.842 -0.096 87 65 52 0 0
0.1344 0.1474 -0.2788 -0.373 -0.908 -0.193 88 66 53 0 0
0.1336 0.1588 -0.3294 0.155 -0.978 0.143 95 72 56 0 0
0.1334 0.1603 -0.3327 0.418 -0.905 0.078 95 72 58 0 0
0.1330 0.1629 -0.3362 0.070 -0.992 0.103 103 81 74 0 0
0.1334 0.1616 -0.3422 -0.708 -0.700 -0.090 180 175 177 0 0
0.1322 0.1733 -0.3814 0.464 -0.518 0.718 85 63 52 0 0
0.1389 0.1964 -0.7645 -0.614 -0.649 -0.448 160 156 153 0 0
0.1377 0.2043 -0.7741 -0.636 -0.639 -0.432 113 102 98 0 0
0.1474 0.1564 -0.7823 0.890 -0.062 0.453 86 64 53 0 0
0.1480 0.1541 -0.7846 0.904 -0.103 0.415 84 62 49 0 0
0.1562 0.1147 -0.7981 0.102 -0.776 -0.623 81 58 44 0 0
0.1619 0.0949 -0.8571 -0.043 -0.933 0.357 90 54 28 0 0
0.1645 0.0823 -0.8611 0.266 -0.887 0.377 100 74 52 0 0
0.1654 0.0784 -0.8626 0.578 -0.816 -0.002 105 82 64 0 0
0.1864 0.0155 -1.1520 0.687 -0.710 -0.155 89 68 49 0 0
0.1866 0.0149 -1.1549 0.754 -0.624 -0.204 82 63 48 0 0
0.1867 0.0151 -1.1582 0.727 -0.686 -0.016 93 80 68 0 0
0.1871 0.0134 -1.1604 0.727 -0.630 0.273 118 109 100 0 0
0.1873 0.0130 -1.1633 0.737 -0.669 0.096 146 141 134 0 0
0.1090 0.2118 0.0387 0.830 -0.534 0.159 100 68 43 0 0
0.1060 0.2284 0.0271 0.331 -0.912 0.243 94 60 35 0 0
0.1121 0.2100 -0.0552 0.383 -0.671 0.635 180 181 183 0 0
0.1127 0.2075 -0.0582 0.360 -0.526 0.771 180 180 180 0 0
0.1350 0.1022 -0.0970 0.488 -0.782 0.389 86 67 61 0 0
0.1355 0.1000 -0.0998 0.729 -0.607 0.316 91 70 63 0 0
0.1484 0.0424 -0.1454 0.713 -0.692 0.114 71 46 34 0 0
0.1420 0.0797 -0.1797 0.191 -0.865 0.464 69 51 40 0 0
0.1423 0.0783 -0.1825 0.191 -0.865 0.464 69 51 41 0 0
0.1426 0.0772 -0.1853 0.074 -0.874 0.481 70 52 42 0 0
0.1434 0.0738 -0.1879 0.555 -0.774 0.303 71 53 43 0 0
0.1335 0.1420 -0.3178 0.551 -0.504 0.665 93 64 45 0 0
0.1346 0.1370 -0.3201 0.393 -0.803 0.448 94 66 45 0 0
0.1303 0.1620 -0.3455 -0.597 -0.712 -0.370 165 160 158 0 0
0.1272 0.1804 -0.3673 0.770 -0.200 0.606 56 41 35 0 0
0.1281 0.1764 -0.3697 0.770 -0.200 0.606 64 47 41 0 0
0.1297 0.1704 -0.3811 0.633 -0.440 0.636 83 61 48 0 0
0.1359 0.1945 -0.7575 -0.614 -0.649 -0.448 153 149 148 0 0
0.1346 0.2023 -0.7671 -0.614 -0.649 -0.448 109 99 92 0 0
0.1467 0.1436 -0.7776 0.730 -0.055 0.681 85 62 50 0 0
0.1616 0.0813 -0.8611 -0.285 -0.958 -0.027 98 67 41 0 0
0.1618 0.0811 -0.8642 0.058 -0.967 -0.250 105 79 59 0 0
0.1616 0.0898 -0.9195 0.774 -0.581 0.252 112 86 70 0 0
0.1622 0.0881 -0.9284 0.516 -0.855 -0.047 92 66 45 0 0
0.1696 0.0578 -0.9712 0.373 -0.906 0.199 89 71 63 0 0
0.1784 0.0191 -1.0081 0.361 -0.757 0.544 74 43 22 0 0
0.1816 0.0162 -1.0954 0.317 -0.893 -0.319 63 41 28 0 0
0.1818 0.0157 -1.0982 0.383 -0.908 -0.171 69 44 32 0 0
0.1822 0.0143 -1.1038 0.566 -0.713 0.414 70 41 28 0 0
0.1068 0.2073 0.0385 0.817 -0.359 0.453 95 63 38 0 0
0.1076 0.2112 -0.0157 0.819 -0.572 0.039 103 69 42 0 0
0.1093 0.2084 -0.0552 0.383 -0.671 0.635 181 180 181 0 0
0.1101 0.2053 -0.0582 0.286 -0.669 0.686 175 172 172 0 0
0.1122 0.1955 -0.0641 -0.613 -0.753 -0.238 94 78 71 0 0
0.1330 0.0977 -0.0998 0.555 -0.597 0.580 93 72 64 0 0
0.1392 0.0792 -0.1827 -0.215 -0.931 0.296 68 50 40 0 0
0.1303 0.1355 -0.2685 0.592 -0.758 -0.275 77 56 45 0 0
0.1318 0.1355 -0.3200 0.460 -0.843 0.279 89 59 39 0 0
0.1232 0.1831 -0.3554 0.853 -0.400 -0.335 90 77 73 0 0
0.1329 0.1922 -0.7504 -0.688 -0.616 -0.384 137 133 131 0 0
0.1317 0.1994 -0.7597 -0.659 -0.623 -0.422 105 95 88 0 0
0.1429 0.1460 -0.7725 0.859 -0.058 0.509 86 64 53 0 0
0.1498 0.1139 -0.7889 0.080 -0.979 -0.189 81 57 46 0 0
0.1666 0.0577 -0.9749 -0.153 -0.979 0.133 84 67 57 0 0
0.1666 0.0591 -0.9820 -0.403 -0.886 0.231 93 76 69 0 0
0.1744 0.0243 -1.0114 0.223 -0.865 0.449 72 40 22 0 0
0.1748 0.0231 -1.0139 0.223 -0.865 0.449 67 32 11 0 0
0.1788 0.0132 -1.0846 0.464 -0.859 -0.216 71 45 33 0 0
0.1789 0.0151 -1.0984 0.227 -0.956 -0.184 66 42 30 0 0
0.1066 0.2068 -0.0553 0.305 -0.741 0.599 182 178 178 0 0
0.1074 0.2028 -0.0582 0.385 -0.608 0.694 140 130 130 0 0
0.1084 0.1992 -0.0643 -0.622 -0.766 -0.165 91 71 64 0 0
0.1378 0.0717 -0.1850 0.082 -0.947 0.309 68 50 40 0 0
0.1381 0.0707 -0.1878 0.242 -0.948 0.206 69 51 41 0 0
0.1290 0.1340 -0.3200 0.460 -0.843 0.279 87 56 36 0 0
0.1211 0.1775 -0.3515 0.691 -0.429 -0.582 95 77 67 0 0
0.1211 0.1780 -0.3547 0.853 -0.400 -0.335 89 71 61 0 0
0.1219 0.1749 -0.3605 0.832 -0.170 0.529 92 72 57 0 0
0.1283 0.1467 -0.3834 0.815 -0.549 0.186 80 56 44 0 0
0.1297 0.1905 -0.7403 -0.767 -0.532 -0.359 150 146 144 0 0
0.1295 0.1919 -0.7441 -0.655 -0.658 -0.372 128 121 117 0 0
0.1290 0.1948 -0.7484 -0.655 -0.658 -0.372 111 101 96 0 0
0.1706 0.0281 -1.0108 0.491 -0.833 0.255 77 49 34 0 0
0.1716 0.0233 -1.0114 0.316 -0.760 0.569 68 37 19 0 0
0.1762 0.0109 -1.0838 0.201 -0.941 -0.272 74 49 36 0 0
0.1042 0.2007 -0.0401 0.739 -0.610 -0.287 84 55 36 0 0
0.1350 0.0611 -0.1127 0.615 -0.788 -0.006 104 79 69 0 0
0.1406 0.0391 -0.1512 0.343 -0.939 0.016 70 50 38 0 0
0.1352 0.0689 -0.1763 0.935 -0.251 0.250 66 48 37 0 0
0.1340 0.0756 -0.1826 0.565 -0.822 0.072 68 50 40 0 0
0.1255 0.1292 -0.2680 0.535 -0.665 0.520 71 47 36 0 0
0.1235 0.1440 -0.3064 0.802 -0.595 -0.049 69 48 37 0 0
0.1279 0.1250 -0.3218 -0.157 -0.772 0.615 87 55 32 0 0
0.1272 0.1298 -0.3317 0.351 -0.936 0.018 79 54 36 0 0
0.1274 0.1295 -0.3377 0.565 -0.783 -0.262 48 29 21 0 0
0.1267 0.1386 -0.3790 0.799 -0.601 0.031 79 54 44 0 0
0.1417 0.0741 -0.4389 0.672 -0.688 -0.274 86 62 46 0 0
0.1382 0.1373 -0.7699 0.125 -0.671 0.731 78 54 43 0 0
0.1439 0.1116 -0.7824 0.451 -0.702 0.551 81 57 45 0 0
0.1518 0.0795 -0.8297 0.234 -0.700 0.675 89 70 63 0 0
0.1524 0.0767 -0.8317 -0.008 -0.831 0.557 93 74 67 0 0
0.1683 0.0246 -1.0094 0.310 -0.876 0.369 69 40 25 0 0
0.1751 -0.0040 -1.0440 0.334 -0.912 0.238 99 70 44 0 0
0.1753 -0.0046 -1.0468 0.334 -0.912 0.238 100 71 46 0 0
0.1756 -0.0054 -1.0495 0.354 -0.931 0.095 99 71 47 0 0
0.1756 -0.0051 -1.0528 0.494 -0.867 -0.065 99 71 46 0 0
0.1726 0.0153 -1.0932 0.286 -0.910 -0.300 59 39 28 0 0
0.1728 0.0144 -1.0959 0.145 -0.983 0.116 56 36 25 0 0
0.1011 0.1952 0.0021 0.610 -0.662 0.436 93 59 35 0 0
0.1016 0.1989 -0.0432 0.942 -0.335 -0.027 82 51 35 0 0
0.1313 0.0638 -0.1044 0.287 -0.504 0.815 98 75 66 0 0
0.1329 0.0574 -0.1155 0.544 -0.741 0.394 123 98 88 0 0
0.1315 0.0738 -0.1855 0.433 -0.901 0.003 68 50 40 0 0
0.1319 0.0723 -0.1882 0.424 -0.881 0.210 68 50 40 0 0
0.1323 0.0707 -0.1910 0.265 -0.898 0.352 68 50 40 0 0
0.1325 0.0705 -0.1939 0.358 -0.910 0.210 67 50 40 0 0
0.1328 0.0694 -0.1995 0.420 -0.737 0.529 67 50 40 0 0
0.1327 0.0705 -0.2025 0.648 -0.757 0.080 67 50 40 0 0
0.1308 0.0812 -0.2123 0.734 -0.447 -0.511 66 49 39 0 0
0.1288 0.0952 -0.2461 0.002 -0.963 -0.270 63 43 32 0 0
0.1247 0.1254 -0.3221 -0.345 -0.899 0.271 89 56 31 0 0
0.1242 0.1298 -0.3349 0.118 -0.771 0.626 82 59 47 0 0
0.1247 0.1277 -0.3376 0.117 -0.769 0.628 47 27 21 0 0
0.1251 0.1264 -0.3404 0.081 -0.981 0.175 69 50 43 0 0
0.1220 0.1428 -0.3523 0.145 -0.536 0.832 84 63 43 0 0
0.1229 0.1389 -0.3547 0.431 -0.563 0.705 81 60 42 0 0
0.1243 0.1348 -0.3755 0.573 -0.748 -0.336 80 56 46 0 0
0.1392 0.0715 -0.4386 0.672 -0.688 -0.274 88 64 45 0 0
0.1294 0.1625 -0.7538 0.967 -0.133 0.218 85 61 49 0 0
0.1337 0.1440 -0.7696 -0.214 -0.399 0.892 80 56 44 0 0
0.1348 0.1384 -0.7707 -0.017 -0.592 0.806 80 56 44 0 0
0.1494 0.0759 -0.8286 0.290 -0.751 0.593 88 69 62 0 0
0.1502 0.0726 -0.8303 -0.064 -0.810 0.583 92 73 66 0 0
0.1510 0.0828 -0.9341 0.682 -0.626 0.379 85 58 37 0 0
0.1639 0.0280 -0.9895 0.601 -0.794 0.088 92 75 68 0 0
0.1722 -0.0046 -1.0442 0.267 -0.957 0.109 102 72 47 0 0
0.1724 -0.0050 -1.0471 0.116 -0.970 0.213 103 75 51 0 0
0.1699 0.0138 -1.0960 0.339 -0.935 0.103 46 26 15 0 0
0.0991 0.1858 0.0318 0.444 -0.842 -0.307 93 61 36 0 0
0.0980 0.1945 0.0050 0.813 -0.572 0.107 93 59 33 0 0
0.0984 0.1930 0.0020 0.450 -0.722 0.525 98 64 38 0 0
0.0994 0.1891 -0.0041 0.517 -0.620 0.590 102 70 46 0 0
0.0997 0.1879 -0.0071 0.537 -0.795 0.281 98 66 43 0 0
0.1290 0.0732 -0.1942 0.526 -0.847 -0.077 67 50 40 0 0
0.1292 0.0726 -0.1971 0.610 -0.317 0.726 67 50 40 0 0
0.1277 0.0815 -0.2125 0.771 -0.433 -0.468 66 49 39 0 0
0.1207 0.1309 -0.3292 0.330 -0.646 0.688 73 44 26 0 0
0.1218 0.1267 -0.3346 0.167 -0.922 0.349 76 54 41 0 0
0.1221 0.1257 -0.3375 0.167 -0.922 0.349 45 25 19 0 0
0.1221 0.1261 -0.3406 0.081 -0.981 0.175 53 36 28 0 0
0.1220 0.1311 -0.3750 0.287 -0.958 -0.011 77 55 45 0 0
0.1221 0.1312 -0.3781 0.445 -0.752 0.487 78 55 43 0 0
0.1195 0.1890 -0.7144 -0.785 -0.550 -0.285 120 110 108 0 0
0.1262 0.1611 -0.7438 0.980 -0.054 0.190 83 59 44 0 0
0.1317 0.1378 -0.7676 0.441 -0.265 0.857 80 56 44 0 0
0.1361 0.1195 -0.7863 0.121 -0.942 0.313 80 56 44 0 0
0.1481 0.0773 -0.8998 0.652 -0.754 -0.084 80 58 45 0 0
0.1612 0.0264 -0.9891 0.576 -0.775 0.261 91 74 66 0 0
0.1613 0.0283 -1.0060 0.394 -0.917 0.059 81 58 46 0 0
0.1671 0.0125 -1.0958 0.516 -0.854 0.066 51 32 18 0 0
0.1730 -0.0101 -1.1362 0.415 -0.909 0.044 93 68 46 0 0
0.1728 -0.0083 -1.1437 0.657 -0.695 -0.292 91 67 45 0 0
0.1727 -0.0074 -1.1475 0.586 -0.723 -0.367 86 64 44 0 0
0.0956 0.1913 0.0049 0.798 -0.603 0.004 102 68 41 0 0
0.0959 0.1902 0.0019 0.658 -0.661 0.359 101 68 41 0 0
0.0963 0.1889 -0.0011 0.356 -0.614 0.704 101 70 43 0 0
0.0970 0.1860 -0.0071 0.537 -0.795 0.281 93 61 36 0 0
0.0965 0.1956 -0.0584 0.485 -0.448 0.751 80 58 48 0 0
0.0989 0.1849 -0.0643 0.814 -0.516 0.265 84 64 55 0 0
0.1141 0.1135 -0.0716 0.723 -0.668 0.179 91 69 56 0 0
0.1145 0.1119 -0.0745 0.719 -0.692 0.054 97 73 61 0 0
0.1144 0.1125 -0.0774 0.726 -0.676 -0.127 96 72 61 0 0
0.1208 0.0850 -0.0968 -0.092 -0.705 0.703 85 67 62 0 0
0.1242 0.0698 -0.1048 0.399 -0.321 0.859 99 76 67 0 0
0.1280 0.0530 -0.1154 0.423 -0.863 0.275 129 103 93 0 0
0.1328 0.0320 -0.1285 0.244 -0.969 0.048 86 47 18 0 0
0.1329 0.0317 -0.1313 0.362 -0.922 0.135 81 41 17 0 0
0.1317 0.0379 -0.1344 0.186 -0.981 0.048 78 40 15 0 0
0.1315 0.0398 -0.1402 0.526 -0.756 -0.390 65 29 14 0 0
0.1264 0.0711 -0.1941 0.179 -0.890 -0.420 69 52 42 0 0
0.1261 0.0729 -0.1972 0.389 -0.917 -0.081 66 49 39 0 0
0.1270 0.0693 -0.1998 -0.165 -0.986 -0.011 66 49 39 0 0
0.1239 0.0869 -0.2219 0.809 -0.404 -0.427 65 47 37 0 0
0.1233 0.0970 -0.2763 0.447 -0.887 -0.119 65 41 29 0 0
0.1225 0.1011 -0.2798 0.671 -0.730 0.129 66 42 30 0 0
0.1179 0.1299 -0.3292 0.435 -0.646 0.627 77 48 30 0 0
0.1193 0.1239 -0.3343 0.594 -0.779 0.202 72 49 36 0 0
0.1195 0.1233 -0.3373 0.594 -0.779 0.202 49 30 23 0 0
0.1194 0.1240 -0.3404 0.633 -0.748 -0.200 40 24 16 0 0
0.1152 0.1452 -0.3500 0.559 -0.653 0.511 80 57 41 0 0
0.1190 0.1307 -0.3752 0.065 -0.975 0.214 74 54 44 0 0
0.1289 0.0866 -0.3971 -0.009 -0.655 0.756 76 47 36 0 0
0.1369 0.0521 -0.4258 0.321 -0.942 0.094 75 36 11 0 0
0.1379 0.0979 -0.8036 0.757 -0.642 -0.119 89 69 58 0 0
0.1384 0.0958 -0.8059 0.857 -0.479 0.192 88 68 57 0 0
0.1453 0.0771 -0.9098 0.734 -0.659 0.164 73 49 34 0 0
0.1451 0.0784 -0.9136 0.727 -0.642 0.242 81 55 38 0 0
0.1455 0.0781 -0.9263 0.630 -0.741 0.234 103 75 54 0 0
0.1469 0.0728 -0.9366 0.128 -0.991 0.027 64 35 15 0 0
0.1558 0.0351 -0.9720 0.520 -0.854 0.030 94 77 69 0 0
0.1562 0.0336 -0.9744 0.232 -0.861 0.453 92 75 67 0 0
0.1586 0.0266 -1.0056 0.480 -0.826 0.296 80 57 45 0 0
0.1652 -0.0052 -1.0041 -0.224 -0.907 0.356 65 33 12 0 0
0.1685 -0.0055 -1.1206 0.427 -0.903 0.042 93 62 37 0 0
0.1687 -0.0058 -1.1236 0.287 -0.956 0.059 92 65 42 0 0
0.1688 -0.0059 -1.1266 0.287 -0.956 0.059 93 66 39 0 0
0.1698 -0.0094 -1.1372 0.223 -0.827 0.516 90 65 43 0 0
0.1121 0.1093 -0.0745 0.463 -0.863 0.202 103 84 70 0 0
0.1120 0.1101 -0.0774 0.569 -0.814 -0.116 99 79 65 0 0
0.1178 0.0849 -0.0969 -0.382 -0.667 0.640 85 66 64 0 0
0.1301 0.0310 -0.1285 0.308 -0.937 0.164 88 47 19 0 0
0.1239 0.0694 -0.1970 0.416 -0.870 -0.264 67 50 40 0 0
0.1250 0.0648 -0.1995 -0.305 -0.897 0.320 67 49 39 0 0
0.1251 0.0647 -0.2024 -0.507 -0.813 0.286 67 49 39 0 0
0.1202 0.0951 -0.2584 0.164 -0.974 0.158 64 42 31 0 0
0.1173 0.1153 -0.3059 0.628 -0.742 -0.234 68 50 40 0 0
0.1169 0.1208 -0.3340 0.695 -0.718 -0.019 70 47 35 0 0
0.1168 0.1216 -0.3372 0.712 -0.679 0.178 52 33 25 0 0
0.1170 0.1210 -0.3401 0.712 -0.679 0.178 33 16 9 0 0
0.1272 0.0800 -0.3960 0.714 -0.588 0.381 66 38 27 0 0
0.1359 0.0919 -0.7983 0.398 -0.897 -0.191 90 70 60 0 0
0.1359 0.0926 -0.8018 0.398 -0.897 -0.191 90 70 60 0 0
0.1369 0.0878 -0.8030 0.808 -0.415 0.419 87 67 57 0 0
0.1404 0.0732 -0.8159 0.809 -0.447 0.381 92 74 63 0 0
0.1466 0.0482 -0.8492 0.569 -0.796 0.209 87 50 23 0 0
0.1428 0.0760 -0.9257 0.630 -0.741 0.234 102 74 52 0 0
0.1440 0.0728 -0.9435 0.310 -0.942 -0.127 59 29 13 0 0
0.1440 0.0733 -0.9469 0.310 -0.942 -0.127 57 29 15 0 0
0.1528 0.0352 -0.9724 -0.096 -0.866 0.490 93 76 68 0 0
0.1532 0.0337 -0.9749 -0.096 -0.866 0.490 91 74 66 0 0
0.1626 -0.0071 -1.0035 0.133 -0.877 0.462 65 31 11 0 0
0.1629 -0.0084 -1.0059 -0.107 -0.992 -0.066 64 29 9 0 0
0.1638 -0.0121 -1.0070 0.244 -0.795 0.555 64 28 8 0 0
0.1636 -0.0108 -1.0108 0.420 -0.749 0.512 65 30 10 0 0
0.1649 -0.0112 -1.0545 0.386 -0.921 0.057 100 74 51 0 0
0.1650 -0.0114 -1.0575 0.386 -0.921 0.057 97 71 48 0 0
0.1653 -0.0122 -1.0602 0.579 -0.814 0.045 94 68 45 0 0
0.1672 -0.0097 -1.1471 0.560 -0.823 -0.096 86 64 42 0 0
0.1665 -0.0042 -1.1666 0.361 -0.856 0.371 160 160 153 0 0
0.0908 0.1772 0.0610 0.586 -0.706 -0.397 94 64 38 0 0
0.0907 0.1785 0.0581 0.497 -0.781 0.378 95 65 39 0 0
0.0908 0.1780 0.0552 0.581 -0.794 0.177 97 66 41 0 0
0.0910 0.1774 0.0522 0.645 -0.760 -0.075 96 64 39 0 0
0.0915 0.1755 0.0491 0.506 -0.820 0.269 97 65 40 0 0
0.0914 0.1818 0.0047 0.902 -0.426 -0.065 95 63 38 0 0
0.0920 0.1863 -0.0524 0.681 -0.720 0.134 83 56 39 0 0
0.1095 0.1075 -0.0745 0.477 -0.723 0.500 108 88 75 0 0
0.1123 0.0956 -0.0858 -0.034 -0.918 0.394 74 48 35 0 0
0.1212 0.0683 -0.1970 0.377 -0.891 -0.254 66 48 38 0 0
0.1212 0.0687 -0.2000 0.182 -0.913 0.366 67 49 39 0 0
0.1216 0.0670 -0.2027 -0.263 -0.777 0.572 67 49 39 0 0
0.1210 0.0706 -0.2060 0.485 -0.822 -0.299 67 49 39 0 0
0.1208 0.0716 -0.2090 0.485 -0.822 -0.299 67 49 39 0 0
0.1202 0.0750 -0.2122 0.433 -0.900 0.060 66 48 38 0 0
0.1189 0.0828 -0.2247 0.697 -0.630 -0.342 63 45 35 0 0
0.1157 0.1005 -0.2473 0.651 -0.708 -0.272 66 46 35 0 0
0.1187 0.0889 -0.2637 0.337 -0.932 0.134 64 40 29 0 0
0.1147 0.1114 -0.2935 0.348 -0.917 -0.196 59 36 23 0 0
0.1142 0.1182 -0.3277 0.599 -0.793 -0.108 78 45 25 0 0
0.1143 0.1184 -0.3338 0.630 -0.775 0.051 69 45 33 0 0
0.1141 0.1196 -0.3370 0.525 -0.803 0.281 54 34 27 0 0
0.1145 0.1182 -0.3398 0.541 -0.721 0.433 35 17 11 0 0
0.1148 0.1172 -0.3427 0.671 -0.731 0.124 55 37 29 0 0
0.1150 0.1169 -0.3457 0.671 -0.731 0.124 68 48 36 0 0
0.1131 0.1275 -0.3597 0.683 -0.708 0.179 72 48 36 0 0
0.1252 0.0755 -0.3954 0.578 -0.682 0.448 65 36 26 0 0
0.1259 0.0724 -0.3978 0.713 -0.496 0.496 71 41 30 0 0
0.1053 0.1817 -0.4958 0.964 -0.210 -0.166 128 122 120 0 0
0.1331 0.0894 -0.7913 0.426 -0.802 0.419 87 65 54 0 0
0.1357 0.0793 -0.8062 0.234 -0.859 -0.456 89 68 56 0 0
0.1368 0.0745 -0.8074 0.837 -0.543 -0.065 86 65 53 0 0
0.1589 -0.0034 -1.0060 0.625 -0.178 0.760 66 32 12 0 0
0.1619 -0.0121 -1.0482 0.466 -0.842 0.271 94 68 44 0 0
0.1621 -0.0126 -1.0510 0.349 -0.896 0.276 98 72 49 0 0
0.1626 -0.0145 -1.0562 0.449 -0.892 0.042 97 71 48 0 0
0.1626 -0.0140 -1.0597 0.536 -0.843 0.048 94 68 45 0 0
0.1639 -0.0105 -1.1345 0.526 -0.840 0.134 92 65 44 0 0
0.1648 -0.0128 -1.1457 0.575 -0.811 -0.113 86 64 42 0 0
0.1643 -0.0097 -1.1541 0.475 -0.768 -0.429 74 58 43 0 0
0.1637 -0.0057 -1.1630 0.369 -0.929 -0.035 125 118 106 0 0
0.1637 -0.0054 -1.1664 0.322 -0.898 0.301 154 153 147 0 0
0.0897 0.1689 0.0548 0.598 -0.653 -0.465 97 65 40 0 0
0.0894 0.1706 0.0519 0.469 -0.711 -0.524 96 64 39 0 0
0.0892 0.1721 0.0490 0.283 -0.955 0.090 97 65 40 0 0
0.0894 0.1716 0.0460 0.442 -0.866 0.235 99 67 42 0 0
0.0913 0.1743 -0.0433 0.464 -0.646 0.606 78 49 33 0 0
0.0915 0.1735 -0.0463 0.742 -0.655 0.141 77 49 32 0 0
0.0897 0.1827 -0.0524 0.830 -0.541 0.133 80 53 35 0 0
0.1246 0.0300 -0.1286 0.281 -0.925 0.256 91 51 17 0 0
0.1232 0.0381 -0.1432 0.419 -0.855 -0.304 58 26 12 0 0
0.1190 0.0652 -0.1998 0.608 -0.761 0.225 65 47 37 0 0
0.1189 0.0661 -0.2028 0.059 -0.828 0.558 65 47 37 0 0
0.1174 0.0737 -0.2093 -0.407 -0.883 0.236 67 49 39 0 0
0.1170 0.0762 -0.2125 -0.498 -0.742 0.448 67 49 39 0 0
0.1168 0.0776 -0.2155 -0.339 -0.907 0.251 68 50 40 0 0
0.1142 0.0958 -0.2647 0.163 -0.980 0.115 64 40 29 0 0
0.1125 0.1084 -0.3023 0.387 -0.922 -0.010 71 52 40 0 0
0.1118 0.1159 -0.3336 0.426 -0.881 -0.207 72 46 34 0 0
0.1115 0.1177 -0.3369 0.541 -0.721 0.433 55 33 25 0 0
0.1118 0.1167 -0.3398 0.620 -0.784 -0.004 36 18 12 0 0
0.1108 0.1220 -0.3467 0.456 -0.662 -0.595 62 42 35 0 0
0.1229 0.0718 -0.3949 0.739 -0.582 0.339 64 35 24 0 0
0.1302 0.0419 -0.4243 0.656 -0.742 0.142 77 40 14 0 0
0.1308 0.0394 -0.4297 0.610 -0.655 0.446 78 43 21 0 0
0.1058 0.1737 -0.5677 -0.250 -0.965 -0.083 110 95 85 0 0
0.1058 0.1739 -0.5710 -0.250 -0.965 -0.083 108 93 84 0 0
0.1059 0.1741 -0.5743 -0.362 -0.917 -0.166 113 99 91 0 0
0.1061 0.1734 -0.5773 -0.074 -0.993 -0.096 115 101 93 0 0
0.1063 0.1730 -0.5804 -0.007 -1.000 0.007 115 101 92 0 0
0.1082 0.1643 -0.5812 0.977 -0.212 0.033 114 100 92 0 0
0.1078 0.1664 -0.5850 0.980 -0.180 0.088 115 101 92 0 0
0.1082 0.1658 -0.5944 0.978 -0.208 0.032 120 106 98 0 0
0.1081 0.1669 -0.5980 0.961 -0.269 -0.066 120 106 99 0 0
0.1080 0.1676 -0.6014 0.961 -0.269 -0.066 121 107 101 0 0
0.1080 0.1682 -0.6048 0.961 -0.269 -0.066 123 109 102 0 0
0.1080 0.1687 -0.6082 0.936 -0.349 -0.031 122 108 101 0 0
0.1080 0.1691 -0.6115 0.936 -0.349 -0.031 123 109 102 0 0
0.1080 0.1694 -0.6148 0.936 -0.349 -0.031 123 109 102 0 0
0.1080 0.1698 -0.6182 0.936 -0.349 -0.031 120 106 98 0 0
0.1139 0.1533 -0.7034 0.037 -0.998 0.045 85 59 45 0 0
0.1159 0.1442 -0.7035 0.605 -0.706 0.367 83 58 42 0 0
0.1159 0.1443 -0.7067 0.155 -0.605 0.781 82 57 40 0 0
0.1175 0.1375 -0.7108 0.339 -0.656 0.675 82 56 40 0 0
0.1186 0.1353 -0.7325 0.365 -0.636 0.680 80 53 36 0 0
0.1196 0.1308 -0.7341 0.181 -0.920 0.348 78 51 36 0 0
0.1230 0.1160 -0.7447 -0.222 -0.186 0.957 77 51 36 0 0
0.1294 0.0894 -0.7695 0.365 -0.593 0.718 80 57 43 0 0
0.1273 0.1014 -0.7870 -0.638 -0.759 -0.132 80 56 43 0 0
0.1310 0.0857 -0.7966 0.513 -0.805 0.300 88 65 53 0 0
0.1308 0.0872 -0.8035 0.383 -0.736 -0.559 89 66 53 0 0
0.1339 0.0731 -0.8041 0.682 -0.719 0.135 83 60 47 0 0
0.1343 0.0713 -0.8065 0.637 -0.769 -0.057 88 65 53 0 0
0.1368 0.0620 -0.8246 0.028 -0.555 0.831 77 55 43 0 0
0.1382 0.0709 -0.9435 0.683 -0.687 0.249 57 27 11 0 0
0.1384 0.0707 -0.9498 0.006 -1.000 -0.008 67 37 21 0 0
0.1596 -0.0191 -1.0197 0.559 -0.808 -0.183 71 36 11 0 0
0.1606 -0.0099 -1.1290 0.759 -0.646 0.081 90 64 41 0 0
0.0878 0.1609 0.0779 0.802 -0.555 0.221 91 61 37 0 0
0.0883 0.1589 0.0748 0.661 -0.581 0.475 93 62 38 0 0
0.0901 0.1516 0.0657 0.577 -0.766 0.283 93 63 37 0 0
0.0861 0.1723 0.0490 -0.066 -0.997 0.034 95 63 38 0 0
0.0864 0.1713 0.0460 0.027 -0.959 0.283 92 60 35 0 0
0.0866 0.1707 0.0430 0.243 -0.926 0.289 95 63 38 0 0
0.0869 0.1698 0.0400 0.224 -0.967 0.123 96 65 38 0 0
0.0890 0.1702 -0.0433 0.708 -0.593 0.385 83 54 38 0 0
0.1074 0.0916 -0.0916 0.328 -0.944 0.037 75 46 30 0 0
0.1074 0.0919 -0.0945 0.116 -0.857 0.501 76 53 42 0 0
0.1166 0.0510 -0.1072 0.169 -0.707 0.687 102 77 69 0 0
0.1220 0.0286 -0.1286 0.475 -0.864 0.166 92 52 18 0 0
0.1217 0.0320 -0.1429 -0.041 -0.918 0.395 58 24 10 0 0
0.1212 0.0345 -0.1459 0.506 -0.863 0.004 65 34 19 0 0
0.1140 0.0778 -0.2245 -0.240 -0.942 0.236 66 48 38 0 0
0.1100 0.1000 -0.2565 0.127 -0.977 -0.169 63 41 30 0 0
0.1113 0.0954 -0.2648 0.137 -0.991 0.003 64 40 29 0 0
0.1120 0.0925 -0.2674 -0.023 -0.968 -0.249 62 39 27 0 0
0.1132 0.0906 -0.2969 0.404 -0.870 -0.282 55 31 21 0 0
0.1095 0.1122 -0.3332 0.710 -0.676 -0.196 72 45 34 0 0
0.1096 0.1123 -0.3362 0.755 -0.630 -0.180 56 34 25 0 0
0.1095 0.1131 -0.3394 0.755 -0.630 -0.180 33 16 11 0 0
0.1273 0.0408 -0.4213 0.308 -0.909 0.282 83 45 20 0 0
0.1045 0.1614 -0.5423 0.969 -0.219 0.112 99 75 61 0 0
0.1047 0.1612 -0.5454 0.969 -0.234 0.073 103 80 65 0 0
0.1028 0.1722 -0.5644 0.284 -0.956 -0.078 103 79 59 0 0
0.1029 0.1723 -0.5677 0.222 -0.973 -0.057 103 79 60 0 0
0.1027 0.1737 -0.5712 -0.069 -0.995 -0.068 104 80 61 0 0
0.1026 0.1745 -0.5747 -0.035 -0.986 -0.164 103 79 63 0 0
0.1029 0.1736 -0.5777 -0.074 -0.993 -0.096 106 83 67 0 0
0.1031 0.1730 -0.5807 -0.007 -1.000 0.007 109 85 71 0 0
0.1056 0.1614 -0.5806 0.967 -0.250 0.042 107 84 68 0 0
0.1063 0.1587 -0.5831 0.980 -0.180 0.088 103 80 64 0 0
0.1063 0.1589 -0.5863 0.980 -0.168 0.109 103 80 64 0 0
0.1065 0.1583 -0.5894 0.984 -0.174 0.031 99 76 61 0 0
0.1066 0.1583 -0.5926 0.984 -0.174 0.031 99 77 63 0 0
0.1063 0.1602 -0.5963 0.976 -0.212 -0.053 101 78 65 0 0
0.1059 0.1632 -0.6068 0.958 -0.286 -0.023 94 72 59 0 0
0.1060 0.1635 -0.6101 0.958 -0.286 -0.023 96 73 60 0 0
0.1060 0.1637 -0.6134 0.954 -0.298 -0.016 104 81 68 0 0
0.1164 0.1281 -0.7110 0.772 -0.484 0.412 85 58 41 0 0
0.1169 0.1263 -0.7168 0.721 -0.562 0.406 79 53 34 0 0
0.1157 0.1340 -0.7324 -0.129 -0.987 -0.093 77 50 33 0 0
0.1265 0.0901 -0.7796 -0.060 -0.967 0.248 81 57 44 0 0
0.1351 0.0709 -0.9439 0.477 -0.869 0.130 57 27 10 0 0
0.1401 0.0489 -0.9522 -0.246 -0.852 0.463 84 60 49 0 0
0.1405 0.0483 -0.9647 0.195 -0.831 0.520 90 73 66 0 0
0.1509 0.0035 -0.9888 0.457 -0.887 0.062 82 65 57 0 0
0.1560 -0.0139 -1.0387 0.453 -0.890 0.054 87 55 29 0 0
0.1601 -0.0195 -1.1426 0.299 -0.831 -0.470 86 64 41 0 0
0.0828 0.1656 0.1104 0.419 -0.643 -0.641 166 153 145 0 0
0.0873 0.1504 0.0656 0.250 -0.963 0.104 95 62 37 0 0
0.0831 0.1717 0.0489 -0.068 -0.967 0.246 95 63 38 0 0
0.0865 0.1691 -0.0553 0.528 -0.797 0.294 78 51 35 0 0
0.1096 0.0687 -0.0995 0.588 -0.458 0.666 84 65 59 0 0
0.1193 0.0272 -0.1259 0.216 -0.955 0.201 98 56 23 0 0
0.1199 0.0262 -0.1370 0.222 -0.974 -0.033 72 34 15 0 0
0.1112 0.0753 -0.2126 -0.180 -0.905 0.385 65 47 37 0 0
0.1111 0.0765 -0.2186 0.106 -0.975 0.198 66 48 38 0 0
0.1111 0.0771 -0.2216 -0.071 -0.978 0.194 66 48 38 0 0
0.1112 0.0771 -0.2245 0.005 -0.944 0.331 65 47 37 0 0
0.1089 0.0901 -0.2466 0.555 -0.832 0.025 65 45 34 0 0
0.1103 0.0902 -0.2970 0.169 -0.980 -0.109 57 34 24 0 0
0.1128 0.0822 -0.3255 0.261 -0.922 0.286 71 41 25 0 0
0.1071 0.1115 -0.3514 0.654 -0.662 0.366 62 36 27 0 0
0.1192 0.0619 -0.3993 0.631 -0.725 0.277 71 38 28 0 0
0.1195 0.0610 -0.4021 0.631 -0.725 0.277 76 43 33 0 0
0.1223 0.0499 -0.4176 0.583 -0.795 -0.168 81 39 15 0 0
0.1248 0.0391 -0.4241 0.308 -0.909 0.282 75 37 14 0 0
0.1252 0.0380 -0.4268 0.370 -0.928 0.043 71 33 10 0 0
0.1253 0.0378 -0.4298 0.215 -0.976 0.038 72 38 16 0 0
0.1038 0.1518 -0.5559 0.863 -0.504 -0.018 101 75 55 0 0
0.1039 0.1520 -0.5591 0.866 -0.497 -0.060 100 74 54 0 0
0.1039 0.1524 -0.5624 0.866 -0.497 -0.060 100 74 54 0 0
0.1039 0.1527 -0.5657 0.866 -0.497 -0.060 99 73 52 0 0
0.1039 0.1531 -0.5690 0.866 -0.497 -0.060 99 72 52 0 0
0.1039 0.1535 -0.5723 0.866 -0.497 -0.060 102 75 57 0 0
0.1047 0.1503 -0.5778 0.962 -0.272 0.009 104 77 60 0 0
0.1065 0.1422 -0.5786 0.899 -0.424 0.109 105 78 60 0 0
0.1064 0.1435 -0.5822 0.776 -0.623 0.102 105 79 61 0 0
0.1065 0.1431 -0.5853 0.733 -0.679 -0.035 103 77 59 0 0
0.1066 0.1433 -0.5885 0.693 -0.718 -0.070 101 78 59 0 0
0.1069 0.1423 -0.5914 0.666 -0.745 -0.042 103 77 60 0 0
0.1070 0.1423 -0.5946 0.512 -0.838 0.190 101 74 57 0 0
0.1072 0.1417 -0.5976 0.512 -0.838 0.190 98 71 55 0 0
0.1041 0.1571 -0.6085 0.958 -0.286 -0.023 96 70 54 0 0
0.1041 0.1576 -0.6119 0.954 -0.298 -0.016 100 74 58 0 0
0.1041 0.1578 -0.6152 0.956 -0.292 -0.014 102 75 60 0 0
0.1143 0.1237 -0.7162 0.693 -0.581 0.426 74 46 29 0 0
0.1165 0.1151 -0.7291 0.452 -0.598 0.662 73 46 29 0 0
0.1191 0.1043 -0.7378 0.507 -0.695 0.510 75 49 36 0 0
0.1261 0.0809 -0.8081 0.417 -0.763 0.494 81 58 43 0 0
0.1317 0.0566 -0.8199 0.593 -0.691 0.413 81 55 40 0 0
0.1321 0.0700 -0.9439 0.069 -0.965 0.254 64 32 16 0 0
0.1381 0.0451 -0.9635 0.188 -0.899 0.396 90 73 65 0 0
0.1413 0.0310 -0.9690 0.213 -0.962 0.173 93 79 70 0 0
0.1484 0.0010 -0.9879 0.405 -0.914 -0.033 83 64 57 0 0
0.1562 -0.0210 -1.1011 0.268 -0.962 0.045 71 36 18 0 0
0.1586 -0.0275 -1.1350 0.554 -0.792 0.256 87 62 40 0 0
0.1574 -0.0212 -1.1421 0.549 -0.699 -0.458 86 64 43 0 0
0.0799 0.1650 0.1103 0.623 -0.387 0.680 141 121 107 0 0
0.0831 0.1544 0.0775 0.675 -0.724 0.146 88 56 33 0 0
0.0845 0.1495 0.0656 0.016 -0.978 0.209 89 55 30 0 0
0.0843 0.1657 -0.0583 0.244 -0.426 0.871 81 54 39 0 0
0.1172 0.0258 -0.1399 0.338 -0.864 -0.373 64 28 11 0 0
0.1080 0.0778 -0.2247 0.599 -0.740 -0.305 62 44 35 0 0
0.1083 0.0833 -0.2813 0.528 -0.815 0.239 63 41 30 0 0
0.1071 0.0910 -0.2973 0.169 -0.986 -0.004 55 33 22 0 0
0.1169 0.0585 -0.3988 0.449 -0.844 0.292 71 38 28 0 0
0.1171 0.0581 -0.4017 0.519 -0.842 -0.148 72 38 27 0 0
0.1171 0.0585 -0.4047 0.368 -0.644 0.671 94 65 54 0 0
0.1220 0.0383 -0.4242 0.079 -0.907 0.413 72 34 11 0 0
0.1223 0.0373 -0.4269 0.215 -0.976 0.038 72 34 11 0 0
0.1222 0.0382 -0.4301 -0.061 -0.981 0.185 72 39 16 0 0
0.1002 0.1504 -0.5273 0.817 -0.577 -0.028 84 58 40 0 0
0.0998 0.1526 -0.5310 0.732 -0.677 -0.078 88 61 43 0 0
0.0994 0.1554 -0.5381 0.604 -0.740 -0.297 91 65 44 0 0
0.0992 0.1567 -0.5416 0.604 -0.740 -0.297 91 65 44 0 0
0.0990 0.1580 -0.5451 0.604 -0.740 -0.297 89 62 41 0 0
0.0995 0.1560 -0.5478 0.680 -0.681 0.272 89 61 40 0 0
0.0998 0.1551 -0.5507 0.680 -0.681 0.272 92 64 43 0 0
0.1011 0.1504 -0.5590 0.806 -0.549 0.223 93 65 43 0 0
0.1014 0.1493 -0.5619 0.740 -0.653 0.160 95 67 45 0 0
0.1012 0.1507 -0.5654 0.746 -0.665 -0.032 98 70 48 0 0
0.1017 0.1486 -0.5680 0.781 -0.613 0.122 102 73 52 0 0
0.1022 0.1465 -0.5706 0.801 -0.565 0.197 102 72 51 0 0
0.1026 0.1453 -0.5735 0.803 -0.579 0.143 99 70 48 0 0
0.1027 0.1452 -0.5766 0.794 -0.561 0.234 96 68 47 0 0
0.1030 0.1439 -0.5794 0.782 -0.607 0.138 95 67 46 0 0
0.1041 0.1398 -0.5846 0.732 -0.628 -0.264 101 74 52 0 0
0.1045 0.1397 -0.6005 0.331 -0.943 -0.013 94 67 45 0 0
0.1046 0.1398 -0.6037 0.331 -0.943 -0.013 92 64 43 0 0
0.1049 0.1388 -0.6066 0.427 -0.890 0.157 95 68 46 0 0
0.1051 0.1382 -0.6095 0.418 -0.895 0.156 97 67 49 0 0
0.1053 0.1377 -0.6126 0.418 -0.895 0.156 95 65 46 0 0
0.1057 0.1363 -0.6153 0.148 -0.985 -0.083 92 62 42 0 0
0.1052 0.1388 -0.6193 0.231 -0.951 -0.208 94 65 45 0 0
0.1050 0.1400 -0.6229 0.677 -0.731 -0.090 98 70 50 0 0
0.1050 0.1404 -0.6262 0.677 -0.731 -0.090 95 67 46 0 0
0.1053 0.1395 -0.6291 0.765 -0.644 0.035 94 66 44 0 0
0.1048 0.1424 -0.6332 0.775 -0.620 0.122 93 65 44 0 0
0.1045 0.1441 -0.6369 0.760 -0.650 0.030 90 62 42 0 0
0.1043 0.1454 -0.6405 0.895 -0.420 0.148 92 64 44 0 0
0.1045 0.1450 -0.6436 0.907 -0.408 0.106 92 64 44 0 0
0.1047 0.1446 -0.6467 0.907 -0.408 0.106 90 60 39 0 0
0.1061 0.1382 -0.6478 0.963 -0.266 -0.042 84 54 35 0 0
0.1145 0.1103 -0.7309 0.540 -0.715 0.444 73 46 29 0 0
0.1154 0.1064 -0.7326 0.690 -0.682 0.242 73 46 31 0 0
0.1164 0.1025 -0.7375 0.381 -0.824 0.418 74 48 33 0 0
0.1165 0.1021 -0.7405 0.194 -0.980 0.053 77 51 36 0 0
0.1237 0.0777 -0.8071 0.652 -0.627 0.428 76 50 34 0 0
0.1333 0.0397 -0.8537 0.372 -0.786 0.494 82 41 16 0 0
0.1336 0.0387 -0.8564 0.289 -0.885 0.364 79 44 20 0 0
0.1411 0.0192 -0.9792 0.057 -0.909 -0.413 96 82 73 0 0
0.1461 -0.0023 -0.9897 0.304 -0.936 -0.175 82 64 54 0 0
0.1529 -0.0303 -1.0149 0.129 -0.973 0.189 67 30 11 0 0
0.1489 -0.0031 -1.0871 0.345 -0.927 0.147 71 48 34 0 0
0.1498 -0.0066 -1.0914 0.190 -0.892 0.411 51 33 21 0 0
0.1501 -0.0078 -1.0938 0.403 -0.843 0.356 50 31 21 0 0
0.1548 -0.0235 -1.1412 0.541 -0.690 -0.480 86 64 42 0 0
0.0777 0.1611 0.1100 0.603 -0.371 0.706 133 106 88 0 0
0.0809 0.1500 0.0831 0.918 -0.386 0.092 94 62 39 0 0
0.0808 0.1511 0.0773 0.833 -0.520 0.191 92 60 37 0 0
0.0810 0.1504 0.0744 0.624 -0.672 0.399 91 59 36 0 0
0.0817 0.1484 0.0655 0.165 -0.975 0.150 89 57 31 0 0
0.0812 0.1548 0.0306 0.598 -0.463 0.654 87 55 32 0 0
0.1125 0.0368 -0.1634 0.611 -0.759 0.223 63 43 36 0 0
0.1068 0.0668 -0.2004 0.249 -0.959 0.134 60 41 34 0 0
0.1032 0.0918 -0.2708 0.254 -0.967 -0.035 60 40 29 0 0
0.1048 0.0846 -0.2728 0.540 -0.837 0.082 61 40 29 0 0
0.1050 0.0842 -0.2757 0.476 -0.841 -0.257 63 40 30 0 0
0.1014 0.1126 -0.3763 0.201 -0.809 0.553 80 57 50 0 0
0.1144 0.0571 -0.4046 0.334 -0.706 0.624 93 62 51 0 0
0.1197 0.0357 -0.4268 0.455 -0.878 0.148 71 33 10 0 0
0.0971 0.1507 -0.5308 0.552 -0.832 0.052 85 58 37 0 0
0.0999 0.1411 -0.5567 0.665 -0.716 -0.212 95 65 41 0 0
0.0989 0.1461 -0.5613 0.282 -0.942 -0.181 96 66 42 0 0
0.0989 0.1465 -0.5646 0.460 -0.877 0.137 96 65 42 0 0
0.1017 0.1379 -0.5971 0.460 -0.887 0.051 95 64 40 0 0
0.1018 0.1378 -0.6002 0.460 -0.887 0.051 96 66 40 0 0
0.1022 0.1371 -0.6095 0.451 -0.881 0.143 95 61 37 0 0
0.1024 0.1364 -0.6125 0.418 -0.895 0.156 90 57 32 0 0
0.1026 0.1359 -0.6155 0.418 -0.895 0.156 91 58 33 0 0
0.1029 0.1349 -0.6184 0.615 -0.785 0.072 94 62 38 0 0
0.1022 0.1384 -0.6227 0.549 -0.796 -0.256 91 59 35 0 0
0.1061 0.1277 -0.6799 0.812 -0.582 -0.054 74 45 28 0 0
0.1098 0.1146 -0.7104 0.624 -0.665 0.410 71 42 26 0 0
0.1109 0.1112 -0.7220 0.239 -0.764 0.599 74 47 29 0 0
0.1121 0.1068 -0.7299 0.228 -0.931 0.286 74 47 29 0 0
0.1378 0.0198 -0.9736 0.498 -0.851 0.168 91 77 68 0 0
0.1396 0.0122 -0.9791 0.673 -0.733 0.097 97 80 72 0 0
0.1502 -0.0313 -1.0148 0.546 -0.838 0.022 66 29 10 0 0
0.1500 -0.0246 -1.0654 0.130 -0.990 0.054 89 62 43 0 0
0.1519 -0.0264 -1.1209 0.190 -0.982 -0.003 87 59 37 0 0
0.1523 -0.0273 -1.1267 0.129 -0.990 -0.060 83 56 34 0 0
0.1512 -0.0193 -1.1507 0.376 -0.707 -0.599 76 57 37 0 0
0.0747 0.1607 0.1129 0.558 -0.531 0.637 160 146 138 0 0
0.0754 0.1577 0.1098 0.524 -0.431 0.735 140 105 86 0 0
0.0792 0.1426 0.0943 0.894 -0.428 0.130 87 56 36 0 0
0.0774 0.1568 0.0424 0.773 -0.362 0.521 88 56 33 0 0
0.0785 0.1527 0.0364 0.914 -0.372 0.165 88 56 32 0 0
0.0789 0.1510 0.0334 0.895 -0.380 -0.233 89 57 34 0 0
0.0794 0.1495 0.0304 0.821 -0.398 0.409 91 59 36 0 0
0.0803 0.1457 0.0244 0.708 -0.614 0.348 83 51 28 0 0
0.0810 0.1432 0.0214 0.685 -0.685 0.247 85 53 30 0 0
0.0812 0.1427 0.0185 0.615 -0.757 0.222 89 57 34 0 0
0.0824 0.1378 0.0125 0.607 -0.763 0.223 86 54 31 0 0
0.0828 0.1366 0.0096 0.423 -0.728 0.540 82 50 29 0 0
0.0795 0.1571 -0.0375 0.854 -0.495 -0.162 78 50 33 0 0
0.0791 0.1613 -0.0584 0.881 -0.294 0.370 79 52 37 0 0
0.1019 0.0634 -0.0966 -0.155 -0.754 0.638 101 83 77 0 0
0.1098 0.0356 -0.1634 0.505 -0.813 0.288 63 43 34 0 0
0.1064 0.0574 -0.2170 0.274 -0.957 -0.099 61 42 35 0 0
0.1022 0.0829 -0.2727 0.540 -0.837 0.082 62 40 29 0 0
0.0991 0.0979 -0.2837 0.470 -0.879 -0.072 53 35 25 0 0
0.1032 0.0805 -0.2931 0.424 -0.783 0.455 50 30 19 0 0
0.0984 0.1120 -0.3734 0.329 -0.765 0.553 52 37 29 0 0
0.0988 0.1102 -0.3761 0.329 -0.765 0.553 61 41 33 0 0
0.1043 0.0873 -0.3899 0.377 -0.691 0.617 71 43 34 0 0
0.1117 0.0556 -0.4016 0.370 -0.929 -0.019 76 41 29 0 0
0.0949 0.1461 -0.5299 0.387 -0.873 -0.297 82 51 30 0 0
0.1068 0.1146 -0.7140 0.407 -0.763 0.503 77 47 31 0 0
0.1082 0.1091 -0.7216 0.293 -0.793 0.535 72 44 24 0 0
0.1201 0.0627 -0.7796 0.412 -0.909 -0.062 70 39 23 0 0
0.1306 0.0364 -0.9573 -0.220 -0.971 0.097 87 67 58 0 0
0.1306 0.0367 -0.9606 0.101 -0.915 0.390 90 74 68 0 0
0.1371 0.0099 -0.9784 0.673 -0.733 0.097 92 75 67 0 0
0.1421 -0.0102 -0.9989 0.554 -0.833 0.008 72 41 23 0 0
0.1459 -0.0232 -1.0355 0.156 -0.962 0.226 81 46 22 0 0
0.1461 -0.0236 -1.0384 0.016 -0.983 0.180 86 53 28 0 0
0.1463 -0.0241 -1.0412 0.113 -0.994 0.001 90 60 34 0 0
0.1465 -0.0246 -1.0440 0.180 -0.973 0.145 92 63 39 0 0
0.1466 -0.0250 -1.0469 0.180 -0.973 0.145 94 67 43 0 0
0.1484 -0.0265 -1.0993 0.345 -0.929 -0.131 70 38 19 0 0
0.1476 -0.0215 -1.1119 0.394 -0.891 0.227 84 47 19 0 0
0.1490 -0.0270 -1.1211 0.190 -0.982 -0.003 87 60 38 0 0
0.0784 0.1406 0.0272 0.467 -0.783 0.411 85 53 30 0 0
0.0781 0.1421 0.0243 0.201 -0.949 0.244 85 53 30 0 0
0.0785 0.1409 0.0214 0.063 -0.966 0.251 83 51 28 0 0
0.0786 0.1404 0.0184 0.342 -0.871 0.353 85 53 30 0 0
0.0794 0.1373 0.0154 0.277 -0.932 -0.233 85 53 30 0 0
0.0798 0.1359 0.0125 0.420 -0.839 0.347 83 51 28 0 0
0.0940 0.0839 -0.0860 0.510 -0.824 -0.246 66 34 21 0 0
0.1020 0.0621 -0.2031 -0.318 -0.907 0.274 60 41 34 0 0
0.0990 0.0796 -0.2371 0.058 -0.997 0.040 60 41 34 0 0
0.1003 0.0801 -0.2932 0.276 -0.886 0.372 50 30 20 0 0
0.1007 0.0787 -0.2960 0.340 -0.932 0.123 50 30 19 0 0
0.1015 0.0783 -0.3227 0.360 -0.916 0.176 64 31 12 0 0
0.1087 0.0556 -0.4018 0.048 -0.968 0.245 70 34 22 0 0
0.1114 0.0453 -0.4175 0.317 -0.947 0.050 81 38 13 0 0
0.1013 0.1218 -0.6881 0.762 -0.642 -0.084 74 41 23 0 0
0.1050 0.1096 -0.7221 0.228 -0.735 0.638 68 38 18 0 0
0.1047 0.1114 -0.7291 -0.141 -0.935 0.325 68 37 19 0 0
0.1140 0.0764 -0.7824 0.419 -0.907 -0.039 68 35 16 0 0
0.1238 0.0465 -0.9023 0.518 -0.784 0.343 72 46 31 0 0
0.1295 0.0271 -0.9530 0.059 -0.917 -0.394 83 62 54 0 0
0.1322 0.0174 -0.9733 0.582 -0.771 0.257 97 82 76 0 0
0.1338 0.0110 -0.9794 0.298 -0.953 -0.058 94 77 69 0 0
0.1338 0.0112 -0.9827 0.180 -0.983 0.035 97 80 72 0 0
0.1442 -0.0271 -1.0493 0.190 -0.971 0.146 94 68 45 0 0
0.1444 -0.0275 -1.0522 0.190 -0.971 0.146 92 66 43 0 0
0.1440 -0.0252 -1.0598 0.458 -0.889 -0.017 93 67 44 0 0
0.1444 -0.0264 -1.0622 0.387 -0.920 -0.065 91 64 43 0 0
0.1443 -0.0259 -1.0657 0.233 -0.954 -0.187 89 62 44 0 0
0.1447 -0.0229 -1.1052 0.451 -0.890 0.066 75 40 17 0 0
0.1448 -0.0227 -1.1117 0.394 -0.891 0.227 87 50 22 0 0
0.1450 -0.0233 -1.1145 0.394 -0.891 0.227 88 55 27 0 0
0.1453 -0.0240 -1.1172 0.413 -0.865 0.285 91 63 37 0 0
0.1453 -0.0189 -1.1617 0.753 -0.650 0.101 108 101 89 0 0
0.0754 0.1382 0.0475 0.789 -0.614 -0.011 95 63 40 0 0
0.0758 0.1385 0.0271 0.670 -0.648 0.363 88 56 33 0 0
0.0753 0.1410 0.0242 0.527 -0.736 0.425 85 53 30 0 0
0.0758 0.1394 0.0213 0.510 -0.715 0.479 85 53 30 0 0
0.0760 0.1389 0.0183 0.678 -0.686 0.264 83 51 28 0 0
0.0765 0.1369 0.0154 0.610 -0.656 -0.445 85 53 30 0 0
0.0774 0.1331 0.0124 0.736 -0.671 0.093 87 55 32 0 0
0.0778 0.1316 0.0094 0.619 -0.592 0.517 89 57 36 0 0
0.0936 0.0735 -0.0914 0.568 -0.635 0.524 51 23 9 0 0
0.1061 0.0241 -0.1430 -0.169 -0.808 0.564 66 33 14 0 0
0.0991 0.0622 -0.2062 0.420 -0.855 0.304 59 40 33 0 0
0.1004 0.0565 -0.2085 0.664 -0.744 0.067 59 40 33 0 0
0.0964 0.0786 -0.2459 0.019 -0.972 0.236 60 41 34 0 0
0.0948 0.0882 -0.2678 -0.182 -0.922 0.342 58 38 27 0 0
0.0950 0.0876 -0.2707 0.313 -0.772 0.553 59 39 28 0 0
0.0971 0.0786 -0.2725 0.630 -0.771 0.088 56 36 25 0 0
0.0975 0.0793 -0.2933 0.276 -0.886 0.372 47 27 19 0 0
0.0977 0.0788 -0.2962 0.218 -0.959 0.182 48 28 20 0 0
0.0988 0.0768 -0.3226 0.511 -0.848 0.140 61 28 9 0 0
0.0990 0.0762 -0.3255 0.616 -0.784 -0.079 66 37 16 0 0
0.1062 0.0538 -0.4046 0.163 -0.887 0.432 80 48 38 0 0
0.0983 0.1165 -0.6485 0.584 -0.811 0.036 85 49 24 0 0
0.1005 0.1116 -0.6881 0.584 -0.798 0.146 70 37 18 0 0
0.1006 0.1113 -0.6912 0.604 -0.750 0.267 69 36 16 0 0
0.1020 0.1090 -0.7222 0.244 -0.807 0.538 63 31 12 0 0
0.1019 0.1101 -0.7290 0.286 -0.882 0.374 64 33 15 0 0
0.1125 0.0721 -0.8064 0.443 -0.896 -0.033 61 32 14 0 0
0.1224 0.0352 -0.8691 0.228 -0.921 0.316 82 54 38 0 0
0.1226 0.0347 -0.8720 0.449 -0.893 0.046 82 54 40 0 0
0.1343 -0.0025 -0.9978 0.377 -0.892 -0.248 81 57 46 0 0
0.1386 -0.0195 -1.0167 0.523 -0.784 0.334 64 27 9 0 0
0.1422 -0.0270 -1.0907 0.435 -0.874 -0.218 58 35 24 0 0
0.0763 0.1151 0.0983 0.722 -0.461 0.516 104 71 45 0 0
0.0731 0.1345 0.0503 0.845 -0.531 0.056 100 69 46 0 0
0.0732 0.1344 0.0474 0.831 -0.552 0.072 99 67 44 0 0
0.0734 0.1338 0.0444 0.813 -0.576 0.092 98 66 43 0 0
0.0731 0.1371 0.0270 0.822 -0.532 0.203 88 56 33 0 0
0.0734 0.1362 0.0241 0.807 -0.474 0.353 86 54 31 0 0
0.0729 0.1387 0.0212 0.708 -0.547 0.447 87 55 32 0 0
0.0736 0.1358 0.0182 0.868 -0.482 -0.118 82 50 27 0 0
0.1020 0.0267 -0.1208 0.583 -0.747 0.321 136 106 89 0 0
0.1031 0.0243 -0.1432 -0.215 -0.976 0.005 64 30 13 0 0
0.1025 0.0279 -0.1519 0.158 -0.987 0.006 64 44 36 0 0
0.0980 0.0582 -0.2437 0.765 -0.504 0.402 58 39 32 0 0
0.0947 0.0761 -0.2723 0.324 -0.923 -0.210 55 35 24 0 0
0.0947 0.0764 -0.2753 0.462 -0.874 -0.153 51 32 21 0 0
0.0956 0.0749 -0.2987 0.397 -0.914 -0.080 48 28 21 0 0
0.1033 0.0532 -0.4047 0.163 -0.887 0.432 82 50 40 0 0
0.0913 0.1139 -0.4726 0.449 -0.838 -0.309 77 46 25 0 0
0.0934 0.1054 -0.4799 0.475 -0.880 -0.001 81 49 26 0 0
0.0952 0.1189 -0.6686 0.381 -0.919 0.102 71 38 17 0 0
0.1000 0.1042 -0.7272 0.401 -0.826 0.396 59 29 11 0 0
0.1148 0.0491 -0.8160 0.063 -0.957 -0.281 56 28 13 0 0
0.1193 0.0380 -0.8897 0.294 -0.899 0.323 76 51 36 0 0
0.1194 0.0379 -0.8928 -0.014 -0.974 -0.226 71 46 31 0 0
0.1184 0.0431 -0.9016 0.636 -0.760 0.133 68 42 28 0 0
0.1224 0.0330 -0.9665 0.131 -0.990 0.054 92 77 70 0 0
0.1255 0.0195 -0.9690 0.255 -0.624 0.739 93 80 74 0 0
0.1340 -0.0131 -1.0113 0.377 -0.841 0.387 68 32 12 0 0
0.1370 -0.0187 -1.0772 0.550 -0.811 -0.199 87 60 44 0 0
0.1400 -0.0314 -1.0823 0.490 -0.826 -0.279 43 25 17 0 0
0.1395 -0.0284 -1.0904 0.435 -0.874 -0.218 53 30 20 0 0
0.0715 0.1248 0.0787 0.805 -0.445 0.393 84 52 31 0 0
0.0720 0.1234 0.0758 0.795 -0.512 0.325 88 56 35 0 0
0.0709 0.1308 0.0501 0.799 -0.602 0.019 92 62 38 0 0
0.0710 0.1308 0.0472 0.799 -0.602 0.019 88 58 34 0 0
0.0711 0.1305 0.0443 0.813 -0.576 0.092 89 59 35 0 0
0.0703 0.1350 0.0357 0.350 -0.855 -0.382 87 55 32 0 0
0.0710 0.1326 0.0327 0.741 -0.604 -0.293 88 56 33 0 0
0.0705 0.1350 0.0299 0.542 -0.725 0.425 85 53 30 0 0
0.0709 0.1335 0.0269 0.757 -0.628 0.182 87 55 32 0 0
0.0708 0.1340 0.0240 0.680 -0.715 0.160 88 56 33 0 0
0.0889 0.0682 -0.0914 0.272 -0.779 0.565 55 24 13 0 0
0.0995 0.0252 -0.1208 0.052 -0.929 0.367 137 108 92 0 0
0.1012 0.0182 -0.1260 0.267 -0.955 0.126 93 48 21 0 0
0.1011 0.0187 -0.1289 0.270 -0.950 0.158 85 41 15 0 0
0.0933 0.0653 -0.2388 0.547 -0.533 0.645 57 38 31 0 0
0.0949 0.0590 -0.2468 0.060 -0.946 -0.320 58 39 32 0 0
0.0905 0.0901 -0.3521 0.394 -0.861 -0.321 45 25 16 0 0
0.0886 0.0999 -0.3659 0.447 -0.889 0.099 36 20 12 0 0
0.0926 0.0852 -0.3903 0.100 -0.915 0.391 74 46 35 0 0
0.1004 0.0526 -0.4048 0.163 -0.887 0.432 82 52 41 0 0
0.1067 0.0268 -0.4201 0.462 -0.869 0.177 75 34 11 0 0
0.0883 0.1131 -0.4727 0.475 -0.862 -0.179 78 46 25 0 0
0.0902 0.1054 -0.4771 0.075 -0.994 -0.082 79 47 23 0 0
0.0904 0.1048 -0.4800 0.226 -0.973 -0.044 82 50 25 0 0
0.0905 0.1049 -0.4831 0.433 -0.900 -0.048 80 48 25 0 0
0.0889 0.1179 -0.5392 0.612 -0.774 0.163 88 52 26 0 0
0.0892 0.1172 -0.5422 0.539 -0.826 0.165 88 52 26 0 0
0.0922 0.1173 -0.6621 0.473 -0.856 0.208 67 32 10 0 0
0.0924 0.1169 -0.6651 0.205 -0.971 0.123 71 36 16 0 0
0.0948 0.1074 -0.6746 0.438 -0.861 0.258 68 35 16 0 0
0.0950 0.1067 -0.6776 0.438 -0.861 0.258 68 35 16 0 0
0.0953 0.1060 -0.6805 0.311 -0.940 0.141 68 36 15 0 0
0.0983 0.0984 -0.7318 -0.030 -0.933 -0.358 59 30 14 0 0
0.0974 0.1031 -0.7367 0.488 -0.659 -0.572 58 29 13 0 0
0.0972 0.1042 -0.7403 0.564 -0.761 -0.320 57 28 12 0 0
