ply
format ascii 1.0
element vertex 896
property float x
property float y
property float z
property float nx
property float ny
property float nz
property uchar diffuse_red
property uchar diffuse_green
property uchar diffuse_blue
property uchar class
property uchar detection
end_header
0.0525 0.2678 -0.7741 0.466 0.600 0.650 83 53 36 0 0
0.0538 0.2694 -0.7765 0.469 0.554 0.688 78 48 31 0 0
0.0606 0.2780 -0.7913 0.127 0.991 0.035 74 42 25 0 0
0.0555 0.2731 -0.8102 0.495 0.844 -0.205 71 41 23 0 0
0.0569 0.2748 -0.8125 0.113 0.984 0.138 70 40 23 0 0
0.0917 0.3162 -0.8462 0.496 0.861 0.114 87 47 18 0 0
0.0879 0.3132 -0.8704 0.690 0.724 -0.000 99 71 49 0 0
0.0884 0.3140 -0.8731 0.746 0.665 0.038 95 68 47 0 0
0.0884 0.3141 -0.8762 0.746 0.665 0.038 95 68 46 0 0
0.0810 0.3092 -0.9440 -0.270 0.914 0.303 75 47 31 0 0
0.0943 0.3257 -0.9684 0.517 0.853 0.066 88 71 63 0 0
0.0973 0.3291 -0.9693 0.888 0.391 0.244 94 77 69 0 0
0.1161 0.3527 -1.0102 0.648 0.545 0.532 64 26 5 0 0
0.1243 0.3637 -1.0403 0.518 0.849 0.104 94 60 34 0 0
0.1215 0.3621 -1.0704 0.515 0.852 -0.091 99 72 50 0 0
0.1173 0.3583 -1.0896 0.579 0.811 0.083 39 18 12 0 0
0.0748 0.2454 0.0440 0.964 0.083 0.255 131 95 89 0 0
0.0913 0.2667 -0.0047 0.342 0.937 -0.069 57 25 8 0 0
0.0911 0.2667 -0.0075 0.445 0.895 -0.039 54 23 7 0 0
0.0909 0.2666 -0.0104 0.357 0.890 0.282 50 20 6 0 0
0.0756 0.2536 -0.0968 0.313 0.839 0.445 90 63 52 0 0
0.0764 0.2548 -0.0996 0.313 0.839 0.445 69 38 29 0 0
0.1003 0.2824 -0.1065 0.323 0.556 0.766 74 38 22 0 0
0.1028 0.2854 -0.1091 0.309 0.840 0.447 74 36 18 0 0
0.1132 0.2976 -0.1139 0.690 0.555 0.465 131 103 94 0 0
0.1144 0.2998 -0.1307 0.582 0.760 0.290 75 33 8 0 0
0.1152 0.3013 -0.1419 0.618 0.774 -0.137 65 33 14 0 0
0.1160 0.3023 -0.1446 0.386 0.922 0.016 66 39 25 0 0
0.1141 0.3012 -0.1646 0.831 0.406 -0.379 63 45 35 0 0
0.0715 0.2583 -0.2729 0.770 0.637 -0.036 65 37 24 0 0
0.0734 0.2610 -0.2814 0.751 0.606 -0.262 64 36 22 0 0
0.0574 0.2467 -0.3569 0.254 0.965 -0.064 50 29 16 0 0
0.0466 0.2532 -0.7127 0.668 0.744 -0.006 70 35 15 0 0
0.0465 0.2532 -0.7159 0.668 0.744 -0.006 69 35 15 0 0
0.0464 0.2533 -0.7191 0.668 0.744 -0.006 70 39 18 0 0
0.0562 0.2668 -0.7640 0.193 0.971 -0.143 70 38 16 0 0
0.0551 0.2658 -0.7677 -0.286 0.958 -0.023 72 40 18 0 0
0.0893 0.3105 -0.8742 0.537 0.825 0.177 95 68 47 0 0
0.1197 0.3566 -1.0896 0.579 0.811 0.083 34 12 7 0 0
0.0609 0.2227 0.0878 0.253 0.961 0.114 149 123 108 0 0
0.0666 0.2296 0.0817 0.510 0.858 0.051 98 65 45 0 0
0.0950 0.2665 -0.0020 0.502 0.862 -0.063 62 27 7 0 0
0.0960 0.2680 -0.0076 0.863 0.497 -0.088 55 23 7 0 0
0.0800 0.2540 -0.0910 0.583 0.808 -0.079 62 24 7 0 0
0.0796 0.2537 -0.0939 0.521 0.844 -0.128 63 30 17 0 0
0.0797 0.2539 -0.0968 0.611 0.746 0.264 82 56 45 0 0
0.0801 0.2546 -0.0996 0.718 0.651 0.248 71 39 30 0 0
0.1022 0.2803 -0.1066 0.368 0.553 0.747 71 33 18 0 0
0.1042 0.2826 -0.1093 0.378 0.573 0.727 90 51 36 0 0
0.1161 0.2964 -0.1111 0.832 0.041 0.553 109 73 66 0 0
0.0764 0.2591 -0.2666 0.879 0.454 0.146 67 40 28 0 0
0.0612 0.2465 -0.3566 0.478 0.872 -0.102 47 26 14 0 0
0.0636 0.2501 -0.3740 0.920 0.287 0.268 61 39 29 0 0
0.0489 0.2511 -0.7128 0.668 0.744 -0.006 70 35 15 0 0
0.0488 0.2512 -0.7160 0.668 0.744 -0.006 70 35 15 0 0
0.0487 0.2512 -0.7192 0.668 0.744 -0.006 68 36 16 0 0
0.0486 0.2513 -0.7224 0.668 0.744 -0.006 70 38 18 0 0
0.0485 0.2514 -0.7256 0.668 0.744 -0.006 71 38 18 0 0
0.0605 0.2672 -0.7660 -0.199 0.973 -0.120 70 38 16 0 0
0.0624 0.2704 -0.7838 0.875 0.371 0.311 62 31 13 0 0
0.0663 0.2752 -0.7908 0.819 0.558 0.135 80 47 29 0 0
0.0835 0.3027 -0.9394 0.737 0.669 -0.096 66 37 21 0 0
0.1079 0.3325 -0.9741 0.629 0.524 0.574 89 72 64 0 0
0.1080 0.3327 -0.9771 0.830 0.225 0.510 88 71 63 0 0
0.1210 0.3495 -1.0131 0.885 0.405 0.229 68 29 8 0 0
0.1296 0.3604 -1.0337 0.732 0.663 0.158 89 55 30 0 0
0.1220 0.3547 -1.0897 0.579 0.769 0.273 37 15 9 0 0
0.1296 0.3645 -1.1108 0.602 0.787 0.137 99 62 34 0 0
0.1298 0.3648 -1.1137 0.602 0.787 0.137 100 64 36 0 0
0.1300 0.3652 -1.1166 0.633 0.749 0.198 102 67 37 0 0
0.1280 0.3641 -1.1370 0.756 0.595 0.273 103 70 45 0 0
0.0641 0.2217 0.0905 0.337 0.931 0.139 154 128 115 0 0
0.0713 0.2315 0.0642 0.431 0.873 0.227 69 31 12 0 0
0.0911 0.2558 0.0320 0.056 0.998 0.035 165 144 137 0 0
0.0972 0.2649 -0.0077 0.472 0.876 0.102 58 23 8 0 0
0.0973 0.2652 -0.0106 0.863 0.497 -0.088 56 22 10 0 0
0.0834 0.2536 -0.0939 0.284 0.958 0.049 67 34 18 0 0
0.0834 0.2537 -0.0968 0.284 0.958 0.049 89 63 51 0 0
0.1047 0.2787 -0.1067 0.311 0.510 0.802 66 27 12 0 0
0.1066 0.2811 -0.1094 0.333 0.542 0.771 89 52 35 0 0
0.1186 0.2958 -0.1281 0.448 0.882 0.147 76 31 6 0 0
0.1167 0.2957 -0.1650 0.449 0.624 -0.640 62 44 34 0 0
0.0796 0.2583 -0.2665 0.689 0.702 -0.180 67 39 28 0 0
0.0824 0.2682 -0.3932 0.375 0.738 0.561 54 26 15 0 0
0.0835 0.2696 -0.3958 0.375 0.738 0.561 66 36 26 0 0
0.0461 0.2356 -0.5681 0.592 0.777 0.213 73 38 19 0 0
0.0464 0.2361 -0.5711 0.608 0.788 0.100 73 38 19 0 0
0.0465 0.2364 -0.5741 0.608 0.788 0.100 76 41 21 0 0
0.0492 0.2468 -0.7140 0.417 0.750 0.513 70 35 15 0 0
0.0631 0.2659 -0.7723 0.091 0.835 0.542 64 31 12 0 0
0.0705 0.2753 -0.7898 0.745 0.582 -0.326 65 32 16 0 0
0.0697 0.2745 -0.7934 0.778 0.621 -0.091 70 37 20 0 0
0.0947 0.3069 -0.8614 0.246 0.968 -0.053 99 70 43 0 0
0.0942 0.3073 -0.8803 0.770 0.607 0.200 91 64 45 0 0
0.1094 0.3296 -0.9748 0.862 0.390 0.324 90 73 66 0 0
0.1177 0.3396 -0.9806 0.313 0.784 0.536 90 71 65 0 0
0.1203 0.3426 -0.9816 0.358 0.889 0.287 92 73 67 0 0
0.1292 0.3609 -1.1350 0.457 0.870 0.187 106 72 45 0 0
0.1302 0.3621 -1.1371 0.572 0.738 0.359 102 70 45 0 0
0.0167 0.1606 0.1301 -0.464 0.840 0.281 184 184 186 0 0
0.0576 0.2093 0.0998 0.147 0.576 0.804 157 131 116 0 0
0.0613 0.2138 0.0966 0.514 0.726 0.457 159 132 120 0 0
0.0740 0.2302 0.0641 0.431 0.873 0.227 66 27 10 0 0
0.0998 0.2621 0.0204 0.279 0.810 0.516 84 43 22 0 0
0.1003 0.2635 0.0063 0.624 0.764 0.164 65 29 9 0 0
0.1007 0.2642 0.0006 0.555 0.832 -0.005 63 28 8 0 0
0.0835 0.2468 -0.0451 0.961 -0.172 -0.215 9 7 5 0 0
0.0855 0.2518 -0.0969 0.442 0.838 0.320 89 65 53 0 0
0.0856 0.2520 -0.0998 0.686 0.698 0.205 71 39 28 0 0
0.1228 0.2972 -0.1449 0.477 0.874 -0.090 63 36 21 0 0
0.1210 0.2959 -0.1592 0.170 0.750 -0.639 62 43 36 0 0
0.1176 0.2921 -0.1624 0.485 0.767 -0.420 62 43 36 0 0
0.1165 0.2910 -0.1654 0.141 0.864 -0.483 61 43 35 0 0
0.0977 0.2717 -0.2082 0.973 0.211 0.097 58 38 30 0 0
0.0898 0.2634 -0.2240 0.883 0.436 0.173 60 37 29 0 0
0.0911 0.2650 -0.2267 0.770 0.391 0.504 59 37 29 0 0
0.0757 0.2499 -0.2767 0.387 0.913 -0.129 66 37 23 0 0
0.0666 0.2437 -0.3596 0.295 0.955 0.035 46 25 15 0 0
0.0666 0.2439 -0.3626 0.713 0.682 0.162 35 18 11 0 0
0.1017 0.2862 -0.3999 0.541 0.637 0.549 68 31 16 0 0
0.1031 0.2880 -0.4024 0.579 0.662 0.477 80 46 35 0 0
0.1038 0.2889 -0.4051 0.576 0.807 0.129 90 66 56 0 0
0.1042 0.2896 -0.4079 0.565 0.774 0.286 105 81 74 0 0
0.1066 0.2929 -0.4189 0.702 0.658 0.272 73 32 10 0 0
0.0480 0.2327 -0.5590 0.587 0.807 0.073 66 35 16 0 0
0.0477 0.2325 -0.5622 0.610 0.788 0.076 70 39 20 0 0
0.0486 0.2338 -0.5681 0.592 0.777 0.213 63 30 12 0 0
0.0488 0.2343 -0.5711 0.648 0.741 0.176 69 35 16 0 0
0.0490 0.2346 -0.5742 0.608 0.788 0.100 73 39 20 0 0
0.0833 0.2867 -0.8146 0.807 0.545 -0.229 68 37 19 0 0
0.0854 0.2892 -0.8163 0.587 0.806 0.073 66 35 17 0 0
0.0966 0.3053 -0.8773 0.730 0.672 -0.127 91 64 45 0 0
0.0962 0.3050 -0.8807 0.770 0.607 0.200 91 64 45 0 0
0.0969 0.3059 -0.8833 0.692 0.669 0.272 87 60 41 0 0
0.0972 0.3064 -0.8862 0.728 0.685 -0.023 85 58 38 0 0
0.0934 0.3058 -0.9577 -0.013 0.996 0.087 88 69 57 0 0
0.1117 0.3280 -0.9779 0.574 0.654 0.492 95 78 72 0 0
0.1210 0.3389 -0.9830 0.409 0.892 0.191 91 71 66 0 0
0.1231 0.3414 -0.9844 0.422 0.905 0.047 93 70 66 0 0
0.1230 0.3415 -0.9875 0.528 0.846 -0.077 84 61 53 0 0
0.1356 0.3579 -1.0233 0.635 0.727 0.260 78 40 13 0 0
0.1307 0.3560 -1.0954 0.242 0.970 -0.030 55 24 8 0 0
0.0854 0.2401 0.0407 0.772 0.477 0.420 191 170 163 0 0
0.0876 0.2497 -0.0970 0.800 0.598 -0.051 81 57 46 0 0
0.0877 0.2500 -0.0999 0.686 0.698 0.205 72 41 29 0 0
0.1261 0.2967 -0.1420 0.083 0.950 0.300 66 33 13 0 0
0.1269 0.2977 -0.1448 0.080 0.906 0.416 64 37 21 0 0
0.1201 0.2907 -0.1625 0.632 0.661 -0.404 61 42 35 0 0
0.1024 0.2723 -0.2021 0.675 0.726 -0.133 60 40 31 0 0
0.1002 0.2699 -0.2054 0.667 0.559 -0.493 59 39 28 0 0
0.0930 0.2631 -0.2327 0.731 0.538 0.421 59 39 30 0 0
0.0837 0.2553 -0.2903 0.623 0.768 0.150 51 27 13 0 0
0.0709 0.2433 -0.3441 0.280 0.837 -0.471 37 20 11 0 0
0.0696 0.2428 -0.3625 0.503 0.864 -0.004 39 22 15 0 0
0.0813 0.2571 -0.3771 0.169 0.929 0.331 48 24 13 0 0
0.0768 0.2560 -0.4567 0.515 0.109 -0.850 77 48 30 0 0
0.0836 0.2821 -0.8097 0.709 0.658 0.255 66 35 17 0 0
0.0851 0.2840 -0.8118 0.427 0.861 0.275 65 34 16 0 0
0.0849 0.2840 -0.8151 0.807 0.545 -0.229 64 33 15 0 0
0.0870 0.2864 -0.8169 0.504 0.835 0.218 63 32 14 0 0
0.1018 0.3064 -0.8723 0.374 0.927 0.011 90 63 43 0 0
0.0992 0.3039 -0.8803 0.811 0.580 0.074 91 64 45 0 0
0.0993 0.3041 -0.8833 0.847 0.451 0.281 88 61 42 0 0
0.0993 0.3043 -0.8864 0.812 0.580 0.061 81 54 35 0 0
0.0981 0.3031 -0.8904 0.556 0.802 -0.220 82 54 33 0 0
0.0895 0.2946 -0.9184 0.631 0.768 0.111 106 80 50 0 0
0.0893 0.2946 -0.9217 0.536 0.844 -0.036 100 72 42 0 0
0.0905 0.2960 -0.9240 0.836 0.545 0.069 94 64 36 0 0
0.0983 0.3067 -0.9558 -0.041 0.999 -0.032 80 60 49 0 0
0.1103 0.3216 -0.9747 0.752 0.587 0.299 92 75 68 0 0
0.1275 0.3428 -1.0012 0.223 0.900 0.375 71 33 11 0 0
0.1372 0.3554 -1.0271 0.553 0.826 0.114 89 52 24 0 0
0.1371 0.3557 -1.0332 0.629 0.777 -0.026 96 62 35 0 0
0.1367 0.3558 -1.0459 0.666 0.740 -0.094 103 71 43 0 0
0.1352 0.3554 -1.0718 0.544 0.801 -0.251 90 62 43 0 0
0.1317 0.3523 -1.0904 0.484 0.820 0.305 43 19 13 0 0
0.1319 0.3527 -1.0934 0.315 0.885 0.344 50 23 12 0 0
0.1314 0.3523 -1.0969 0.299 0.939 -0.172 57 27 10 0 0
0.1390 0.3623 -1.1210 0.620 0.776 0.112 110 74 48 0 0
0.1369 0.3610 -1.1415 0.448 0.890 -0.088 92 67 50 0 0
0.0669 0.2110 0.1020 -0.078 0.898 0.433 149 119 102 0 0
0.0811 0.2290 0.0723 0.658 0.654 0.372 70 32 12 0 0
0.1049 0.2593 0.0202 0.397 0.915 0.069 82 41 19 0 0
0.1058 0.2607 0.0145 0.537 0.796 0.279 66 28 7 0 0
0.1051 0.2610 -0.0080 0.539 0.842 0.022 54 20 8 0 0
0.0897 0.2478 -0.0971 0.648 0.755 -0.100 91 67 55 0 0
0.1290 0.2954 -0.1364 0.807 0.403 0.433 69 31 11 0 0
0.0948 0.2607 -0.2329 0.731 0.538 0.421 58 38 29 0 0
0.1008 0.2684 -0.2463 0.868 -0.132 -0.479 57 37 28 0 0
0.0882 0.2546 -0.2634 0.580 0.808 -0.101 63 40 26 0 0
0.0862 0.2537 -0.2904 0.409 0.849 0.335 51 27 13 0 0
0.0778 0.2481 -0.3699 0.306 0.934 0.185 43 25 17 0 0
0.0781 0.2486 -0.3728 0.306 0.934 0.185 48 28 18 0 0
0.0769 0.2475 -0.3792 0.299 0.948 0.112 43 18 10 0 0
0.0537 0.2308 -0.5775 0.333 0.911 0.244 75 40 21 0 0
0.0568 0.2412 -0.7077 0.586 0.731 0.350 62 29 11 0 0
0.0577 0.2426 -0.7135 0.468 0.854 0.227 64 31 13 0 0
0.0811 0.2729 -0.7753 0.397 0.648 -0.650 56 25 10 0 0
0.0831 0.2753 -0.7772 0.657 0.385 -0.648 56 25 10 0 0
0.0921 0.2935 -0.9277 0.637 0.771 -0.007 87 58 34 0 0
0.1127 0.3197 -0.9715 0.644 0.697 0.316 94 77 70 0 0
0.1373 0.3496 -1.0013 0.657 0.751 0.061 73 31 9 0 0
0.1387 0.3540 -1.0523 0.419 0.907 0.049 108 73 46 0 0
0.1376 0.3535 -1.0687 0.554 0.809 -0.196 93 62 40 0 0
0.1331 0.3493 -1.0881 0.562 0.805 -0.188 42 19 11 0 0
0.1335 0.3500 -1.0909 0.649 0.720 0.243 45 20 14 0 0
0.1407 0.3597 -1.1184 0.588 0.761 0.275 106 70 43 0 0
0.1423 0.3619 -1.1263 0.701 0.707 -0.097 109 75 48 0 0
0.1391 0.3591 -1.1416 0.669 0.702 -0.245 96 72 54 0 0
0.1380 0.3582 -1.1489 0.558 0.811 -0.176 70 55 42 0 0
0.0803 0.2232 0.0810 0.741 0.548 0.387 91 55 33 0 0
0.0812 0.2245 0.0752 0.845 0.487 0.224 70 31 9 0 0
0.0833 0.2271 0.0722 0.701 0.681 0.213 68 30 11 0 0
0.1051 0.2551 0.0229 0.437 0.595 0.674 92 56 32 0 0
0.1072 0.2576 0.0201 0.451 0.892 -0.039 81 39 17 0 0
0.0890 0.2397 -0.0426 0.223 0.724 -0.653 15 9 7 0 0
0.1256 0.2861 -0.1174 0.921 0.327 0.213 151 127 122 0 0
0.1247 0.2872 -0.1598 0.719 0.637 -0.278 61 42 35 0 0
0.1241 0.2867 -0.1627 0.719 0.637 -0.278 60 41 34 0 0
0.1108 0.2729 -0.1960 0.524 0.852 0.011 62 42 35 0 0
0.1107 0.2730 -0.1988 0.524 0.852 0.011 61 41 34 0 0
0.0969 0.2670 -0.3949 0.416 0.891 0.183 55 26 14 0 0
0.0600 0.2295 -0.5015 0.628 0.773 0.089 61 31 15 0 0
0.0597 0.2297 -0.5108 0.610 0.791 0.052 63 34 18 0 0
0.0597 0.2299 -0.5139 0.518 0.853 0.061 70 41 26 0 0
0.0597 0.2301 -0.5170 0.518 0.853 0.061 54 26 10 0 0
0.0582 0.2315 -0.5797 0.370 0.907 -0.201 77 42 22 0 0
0.0582 0.2324 -0.5984 0.451 0.891 0.053 78 44 22 0 0
0.0624 0.2419 -0.6872 0.572 0.819 -0.047 63 31 12 0 0
0.0622 0.2418 -0.6904 0.572 0.819 -0.047 63 30 11 0 0
0.0605 0.2410 -0.7134 0.468 0.854 0.227 63 30 13 0 0
0.0671 0.2490 -0.7191 0.597 0.802 -0.005 60 27 11 0 0
0.1027 0.2991 -0.8874 0.540 0.829 -0.149 87 60 40 0 0
0.1374 0.3454 -1.0031 0.844 0.514 0.153 75 34 9 0 0
0.1383 0.3468 -1.0085 0.751 0.659 -0.036 70 28 6 0 0
0.1374 0.3494 -1.0802 0.586 0.781 -0.215 72 44 28 0 0
0.1364 0.3484 -1.0842 0.595 0.799 -0.086 63 38 26 0 0
0.1404 0.3566 -1.1519 0.333 0.942 -0.043 92 83 70 0 0
0.0682 0.2039 0.0935 0.979 0.149 -0.138 154 124 113 0 0
0.0684 0.2043 0.0906 0.974 0.222 0.054 177 151 144 0 0
0.0853 0.2251 0.0721 0.557 0.701 0.446 66 29 10 0 0
0.0930 0.2359 0.0346 0.867 0.422 0.264 147 123 111 0 0
0.1091 0.2555 0.0200 0.610 0.717 0.338 82 41 19 0 0
0.1125 0.2599 0.0115 0.270 0.962 0.040 65 27 8 0 0
0.0912 0.2378 -0.0427 0.353 0.571 -0.741 15 8 7 0 0
0.0966 0.2463 -0.0856 0.509 0.743 0.436 62 28 10 0 0
0.1253 0.2814 -0.1177 0.531 0.815 -0.232 157 131 125 0 0
0.1274 0.2842 -0.1231 0.364 0.930 0.057 102 66 48 0 0
0.1131 0.2710 -0.1932 0.364 0.927 -0.088 63 43 36 0 0
0.1128 0.2708 -0.1961 0.537 0.843 0.044 62 42 35 0 0
0.1128 0.2710 -0.1989 0.463 0.886 0.042 61 41 34 0 0
0.0903 0.2491 -0.2848 0.424 0.905 -0.019 59 33 18 0 0
0.0906 0.2497 -0.2906 0.600 0.781 0.173 59 33 18 0 0
0.0850 0.2473 -0.3694 0.589 0.755 0.289 47 28 21 0 0
0.0951 0.2601 -0.3903 0.216 0.412 0.885 59 31 22 0 0
0.1167 0.2864 -0.4101 0.514 0.718 0.469 94 64 48 0 0
0.0623 0.2276 -0.5015 0.628 0.773 0.089 55 27 13 0 0
0.0609 0.2310 -0.5983 0.544 0.837 0.064 72 37 13 0 0
0.0596 0.2296 -0.6021 0.562 0.816 -0.138 73 38 14 0 0
0.0590 0.2305 -0.6337 0.475 0.853 0.217 87 48 22 0 0
0.0694 0.2485 -0.7476 0.671 0.631 0.389 53 24 9 0 0
0.1104 0.3068 -0.9521 -0.013 0.998 0.059 72 53 47 0 0
0.1316 0.3330 -0.9821 0.507 0.847 0.160 94 77 70 0 0
0.1358 0.3385 -0.9941 0.646 0.637 0.420 82 49 30 0 0
0.1391 0.3473 -1.0901 0.763 0.640 0.085 46 22 13 0 0
0.1424 0.3513 -1.0933 0.209 0.968 0.141 65 31 14 0 0
0.0855 0.2206 0.0750 0.546 0.741 0.391 71 33 13 0 0
0.0947 0.2334 0.0346 0.748 0.658 -0.080 148 122 110 0 0
0.1076 0.2509 -0.0111 0.449 0.868 0.212 52 20 7 0 0
0.1090 0.2534 -0.0282 0.596 0.687 0.416 52 29 20 0 0
0.1285 0.2806 -0.1148 0.529 0.825 0.201 126 99 91 0 0
0.1288 0.2811 -0.1176 0.435 0.878 0.199 151 124 118 0 0
0.0944 0.2485 -0.2668 0.666 0.746 -0.024 59 35 23 0 0
0.0943 0.2485 -0.2697 0.666 0.746 -0.024 58 35 21 0 0
0.0941 0.2485 -0.2727 0.679 0.732 0.060 58 33 20 0 0
0.0930 0.2480 -0.2907 0.589 0.799 0.125 55 29 16 0 0
0.0865 0.2447 -0.3727 0.834 0.539 -0.120 37 18 11 0 0
0.0858 0.2439 -0.3759 0.665 0.634 -0.394 39 17 9 0 0
0.1164 0.2811 -0.4022 0.788 0.365 0.495 72 35 22 0 0
0.0647 0.2255 -0.4985 0.606 0.722 0.332 53 25 11 0 0
0.0648 0.2258 -0.5016 0.609 0.776 0.163 55 27 13 0 0
0.0624 0.2278 -0.5957 0.736 0.654 0.175 72 37 16 0 0
0.0617 0.2289 -0.6336 0.642 0.737 0.211 83 47 21 0 0
0.0620 0.2295 -0.6366 0.642 0.737 0.211 77 40 15 0 0
0.0613 0.2291 -0.6463 0.729 0.664 0.166 68 31 9 0 0
0.0600 0.2278 -0.6501 0.627 0.773 0.092 66 29 9 0 0
0.0752 0.2506 -0.7488 0.640 0.520 0.566 54 25 9 0 0
0.0752 0.2507 -0.7519 0.804 0.517 -0.292 53 24 9 0 0
0.1077 0.2954 -0.8810 0.753 0.647 0.119 85 58 37 0 0
0.1080 0.2959 -0.8839 0.773 0.629 0.079 87 58 40 0 0
0.1078 0.2959 -0.8904 0.810 0.576 0.114 86 57 39 0 0
0.1028 0.2914 -0.9158 0.635 0.768 0.084 96 68 44 0 0
0.1008 0.2903 -0.9392 0.676 0.731 -0.095 52 28 15 0 0
0.1113 0.3036 -0.9595 0.216 0.941 0.259 77 60 53 0 0
0.1336 0.3309 -0.9823 0.567 0.788 0.238 97 80 72 0 0
0.1331 0.3308 -0.9951 0.693 0.697 -0.186 78 50 35 0 0
0.1424 0.3422 -1.0029 0.552 0.828 -0.096 74 30 6 0 0
0.1476 0.3545 -1.1247 0.701 0.702 0.126 89 65 44 0 0
0.1478 0.3548 -1.1277 0.701 0.702 0.126 91 66 46 0 0
0.0978 0.2319 0.0487 0.759 0.647 0.074 124 91 76 0 0
0.0974 0.2321 0.0373 0.681 0.689 0.247 151 120 113 0 0
0.1133 0.2527 -0.0028 0.723 0.577 0.380 68 32 10 0 0
0.1140 0.2537 -0.0056 0.723 0.577 0.380 59 26 7 0 0
0.1006 0.2420 -0.0858 0.439 0.756 0.486 59 25 7 0 0
0.1331 0.2818 -0.1175 0.223 0.954 0.199 152 122 118 0 0
0.1311 0.2816 -0.1601 0.216 0.743 -0.634 63 44 37 0 0
0.1292 0.2795 -0.1632 0.216 0.743 -0.634 62 43 36 0 0
0.1160 0.2660 -0.2022 0.501 0.815 -0.291 57 37 29 0 0
0.0986 0.2522 -0.3314 0.824 0.497 -0.271 61 37 22 0 0
0.0971 0.2506 -0.3347 0.435 0.697 -0.570 39 18 10 0 0
0.0915 0.2445 -0.3451 0.251 0.874 -0.416 55 32 20 0 0
0.0876 0.2415 -0.3761 0.648 0.658 -0.384 42 22 13 0 0
0.0993 0.2560 -0.3905 0.673 0.147 0.725 55 29 16 0 0
0.1164 0.2767 -0.4029 0.816 0.236 0.527 69 33 21 0 0
0.1176 0.2783 -0.4055 0.816 0.236 0.527 92 67 57 0 0
0.0690 0.2248 -0.4763 0.576 0.792 0.202 66 37 21 0 0
0.0675 0.2243 -0.5015 0.377 0.921 0.099 52 24 10 0 0
0.0682 0.2255 -0.5074 0.402 0.890 0.215 57 28 12 0 0
0.0680 0.2270 -0.5415 0.531 0.786 0.315 63 32 14 0 0
0.0656 0.2284 -0.6267 0.755 0.655 -0.004 78 40 17 0 0
0.0647 0.2282 -0.6427 0.486 0.874 0.033 67 32 10 0 0
0.0650 0.2292 -0.6552 0.427 0.881 0.203 62 30 12 0 0
0.0658 0.2302 -0.6579 0.653 0.737 0.171 60 28 11 0 0
0.0660 0.2306 -0.6609 0.532 0.804 0.265 57 25 8 0 0
0.0663 0.2311 -0.6639 0.653 0.737 0.171 58 26 8 0 0
0.0800 0.2506 -0.7318 0.473 0.655 0.590 48 18 7 0 0
0.1096 0.2926 -0.8752 0.504 0.863 0.033 87 60 39 0 0
0.1097 0.2932 -0.8813 0.753 0.647 0.119 82 55 34 0 0
0.1098 0.2934 -0.8844 0.630 0.776 -0.003 84 55 37 0 0
0.1054 0.2893 -0.9063 0.677 0.724 -0.133 72 39 20 0 0
0.1031 0.2883 -0.9393 0.688 0.725 -0.038 47 23 12 0 0
0.1135 0.3015 -0.9597 0.317 0.884 0.345 76 59 52 0 0
0.1148 0.3032 -0.9617 0.358 0.914 0.191 80 63 56 0 0
0.1260 0.3169 -0.9717 0.611 0.721 0.328 95 79 73 0 0
0.1266 0.3176 -0.9744 0.611 0.721 0.328 91 74 67 0 0
0.1371 0.3303 -0.9814 0.136 0.983 0.121 96 79 71 0 0
0.1451 0.3409 -1.0057 0.690 0.681 -0.246 78 34 11 0 0
0.1452 0.3412 -1.0086 0.379 0.923 -0.069 78 34 9 0 0
0.1432 0.3427 -1.0844 0.749 0.655 -0.099 70 46 34 0 0
0.1429 0.3426 -1.0878 0.749 0.655 -0.099 53 31 22 0 0
0.1431 0.3429 -1.0907 0.802 0.597 -0.027 44 20 12 0 0
0.1490 0.3515 -1.1225 0.559 0.825 0.081 85 56 37 0 0
0.1491 0.3518 -1.1255 0.559 0.825 0.081 84 56 36 0 0
0.1492 0.3522 -1.1316 0.670 0.739 -0.064 90 62 42 0 0
0.0602 0.1800 0.1119 0.381 0.081 0.921 122 96 84 0 0
0.1091 0.2440 -0.0142 0.523 0.851 -0.037 55 25 12 0 0
0.1102 0.2454 -0.0170 0.683 0.702 -0.201 54 26 13 0 0
0.1095 0.2448 -0.0227 0.741 0.657 -0.136 59 33 17 0 0
0.1091 0.2445 -0.0256 0.752 0.638 -0.165 60 35 21 0 0
0.1015 0.2384 -0.0802 0.058 0.882 0.467 70 44 32 0 0
0.1072 0.2513 -0.2040 0.570 0.676 -0.467 55 36 28 0 0
0.0996 0.2463 -0.2815 0.594 0.719 0.360 52 27 14 0 0
0.0908 0.2406 -0.3729 0.703 0.582 0.408 47 28 18 0 0
0.0916 0.2416 -0.3757 0.703 0.582 0.408 44 22 10 0 0
0.0913 0.2414 -0.3788 0.763 0.614 0.204 44 22 11 0 0
0.0907 0.2409 -0.3819 0.455 0.887 -0.081 47 22 13 0 0
0.1284 0.2868 -0.4145 0.580 0.632 0.514 69 31 8 0 0
0.0712 0.2223 -0.4703 0.767 0.641 -0.018 61 33 17 0 0
0.0726 0.2259 -0.5067 0.482 0.756 0.443 61 33 17 0 0
0.0704 0.2259 -0.5571 0.361 0.930 0.065 79 46 27 0 0
0.0711 0.2285 -0.5941 0.624 0.743 0.241 71 36 16 0 0
0.0712 0.2291 -0.6034 0.779 0.598 0.190 70 35 15 0 0
0.0679 0.2278 -0.6550 0.643 0.764 -0.051 60 28 10 0 0
0.0677 0.2278 -0.6582 0.686 0.722 -0.092 59 27 10 0 0
0.0680 0.2282 -0.6612 0.804 0.588 0.093 58 26 10 0 0
0.0681 0.2286 -0.6643 0.804 0.588 0.093 56 27 10 0 0
0.1160 0.2932 -0.8292 0.834 0.480 0.273 59 26 11 0 0
0.1147 0.2919 -0.8331 0.899 0.311 0.309 61 27 12 0 0
0.1182 0.3027 -0.9641 0.341 0.872 0.351 87 69 64 0 0
0.1188 0.3035 -0.9667 0.341 0.872 0.351 86 70 65 0 0
0.1393 0.3283 -0.9816 0.612 0.712 0.344 97 79 72 0 0
0.1458 0.3373 -1.0070 0.760 0.650 -0.032 82 37 11 0 0
0.1461 0.3378 -1.0098 0.655 0.734 0.179 81 37 8 0 0
0.1494 0.3418 -1.0132 0.462 0.809 0.362 84 39 9 0 0
0.1500 0.3427 -1.0158 0.435 0.807 0.400 85 40 10 0 0
0.1525 0.3461 -1.0260 0.572 0.761 0.307 79 35 10 0 0
0.0786 0.1985 0.0843 0.837 0.143 0.529 109 80 62 0 0
0.1004 0.2259 0.0514 0.342 0.752 0.563 125 98 85 0 0
0.1167 0.2485 -0.0143 0.701 0.683 -0.204 63 30 12 0 0
0.0824 0.2099 -0.0523 0.047 0.656 -0.754 7 5 3 0 0
0.1057 0.2387 -0.0773 0.332 0.705 0.627 80 60 51 0 0
0.1040 0.2370 -0.0861 0.703 0.566 0.431 61 27 11 0 0
0.1420 0.2841 -0.1285 0.548 0.810 0.207 82 36 10 0 0
0.1436 0.2863 -0.1340 0.569 0.751 0.335 69 31 10 0 0
0.1442 0.2871 -0.1367 0.488 0.723 0.489 64 27 5 0 0
0.1447 0.2878 -0.1395 0.475 0.637 0.607 64 27 8 0 0
0.1375 0.2798 -0.1487 0.109 0.740 0.664 61 43 34 0 0
0.1409 0.2840 -0.1540 -0.079 0.927 0.367 62 45 37 0 0
0.1389 0.2819 -0.1570 0.023 0.949 -0.314 62 45 37 0 0
0.1374 0.2803 -0.1600 0.341 0.769 -0.541 62 45 37 0 0
0.0986 0.2400 -0.2705 0.589 0.790 0.172 51 28 14 0 0
0.0992 0.2408 -0.2733 0.570 0.752 0.330 50 27 13 0 0
0.0993 0.2411 -0.2763 0.634 0.649 0.420 49 26 12 0 0
0.1000 0.2421 -0.2791 0.634 0.649 0.420 48 25 11 0 0
0.1009 0.2433 -0.2818 0.817 0.498 0.291 49 26 12 0 0
0.1046 0.2496 -0.3223 0.620 0.769 0.158 72 38 18 0 0
0.1046 0.2499 -0.3252 0.679 0.734 0.008 70 37 19 0 0
0.1007 0.2456 -0.3322 0.953 0.272 -0.135 51 26 16 0 0
0.1000 0.2449 -0.3353 0.881 0.122 0.458 37 16 9 0 0
0.0982 0.2430 -0.3387 0.819 0.490 0.297 29 12 5 0 0
0.0935 0.2395 -0.3819 0.455 0.887 -0.081 43 19 11 0 0
0.1207 0.2727 -0.4002 0.681 0.617 0.395 63 25 10 0 0
0.1301 0.2844 -0.4148 0.626 0.697 0.350 65 27 4 0 0
0.1289 0.2835 -0.4240 0.733 0.629 0.258 69 31 10 0 0
0.1287 0.2837 -0.4328 0.654 0.738 -0.166 79 50 30 0 0
0.0792 0.2283 -0.4928 0.578 0.813 0.069 61 34 18 0 0
0.0737 0.2239 -0.5351 0.625 0.722 0.296 53 24 10 0 0
0.0742 0.2247 -0.5380 0.625 0.722 0.296 58 29 14 0 0
0.0750 0.2265 -0.5562 0.798 0.549 -0.249 68 36 18 0 0
0.0727 0.2251 -0.5820 0.565 0.767 0.303 71 38 19 0 0
0.0734 0.2261 -0.5848 0.694 0.691 0.204 73 38 19 0 0
0.0709 0.2270 -0.6642 0.391 0.920 -0.015 54 25 10 0 0
0.1101 0.2818 -0.8316 0.123 0.975 -0.183 59 27 12 0 0
0.1185 0.2915 -0.8291 0.950 0.075 0.304 59 27 12 0 0
0.1191 0.2946 -0.8750 0.259 0.965 0.048 85 57 39 0 0
0.1408 0.3256 -0.9823 0.856 0.492 0.156 105 89 82 0 0
0.1485 0.3359 -1.0067 0.542 0.757 0.364 84 39 11 0 0
0.1490 0.3367 -1.0094 0.601 0.727 0.332 87 42 11 0 0
0.1528 0.3415 -1.0154 0.580 0.801 0.150 85 41 12 0 0
0.1531 0.3419 -1.0182 0.580 0.801 0.150 81 37 10 0 0
0.1555 0.3458 -1.0376 0.677 0.736 0.014 81 49 29 0 0
0.1457 0.3368 -1.0895 0.828 0.552 0.099 45 25 18 0 0
0.1458 0.3370 -1.0925 0.800 0.575 0.175 34 15 9 0 0
0.1455 0.3369 -1.0959 0.836 0.502 0.221 37 16 8 0 0
0.1528 0.3466 -1.1171 0.641 0.704 0.305 85 57 35 0 0
0.1535 0.3476 -1.1195 0.667 0.697 0.263 87 58 36 0 0
0.1534 0.3475 -1.1228 0.577 0.816 0.030 92 64 41 0 0
0.1193 0.2461 0.0054 0.730 0.658 0.187 89 53 28 0 0
0.1198 0.2468 0.0026 0.756 0.654 -0.032 89 53 30 0 0
0.1200 0.2478 -0.0115 0.794 0.595 -0.123 80 48 25 0 0
0.1197 0.2476 -0.0144 0.794 0.595 -0.123 77 44 22 0 0
0.1060 0.2349 -0.0862 0.613 0.709 0.349 62 27 12 0 0
0.1434 0.2814 -0.1287 0.708 0.683 0.178 79 33 7 0 0
0.1410 0.2800 -0.1571 0.690 0.653 -0.314 63 46 38 0 0
0.1386 0.2773 -0.1603 0.889 0.370 -0.270 62 45 37 0 0
0.1150 0.2514 -0.2008 0.146 0.947 -0.287 56 37 30 0 0
0.1119 0.2498 -0.2420 0.652 0.759 0.006 54 34 25 0 0
0.1020 0.2399 -0.2792 0.500 0.772 0.393 49 26 12 0 0
0.1025 0.2406 -0.2821 0.669 0.738 0.086 49 26 12 0 0
0.1076 0.2482 -0.3133 0.597 0.798 -0.085 56 26 10 0 0
0.1056 0.2462 -0.3197 0.636 0.652 -0.412 69 36 17 0 0
0.1069 0.2478 -0.3224 0.620 0.769 0.158 69 37 16 0 0
0.1067 0.2478 -0.3254 0.808 0.575 0.131 68 36 18 0 0
0.1018 0.2423 -0.3326 0.870 0.493 -0.027 52 26 16 0 0
0.0999 0.2404 -0.3390 0.755 0.476 0.451 27 10 5 0 0
0.1224 0.2700 -0.3976 0.857 0.355 0.374 60 26 10 0 0
0.1229 0.2707 -0.4004 0.837 0.535 0.115 62 25 10 0 0
0.1321 0.2824 -0.4149 0.714 0.673 0.195 66 28 7 0 0
0.0779 0.2246 -0.5437 0.491 0.865 0.104 68 37 19 0 0
0.0781 0.2256 -0.5590 0.459 0.886 0.067 56 26 10 0 0
0.0749 0.2233 -0.5884 0.726 0.682 0.087 70 35 16 0 0
0.0757 0.2245 -0.5943 0.687 0.693 0.221 72 37 18 0 0
0.0751 0.2240 -0.5976 0.819 0.574 0.002 71 36 16 0 0
0.0752 0.2246 -0.6070 0.852 0.500 0.154 61 26 8 0 0
0.0756 0.2251 -0.6099 0.582 0.792 -0.186 60 24 7 0 0
0.0751 0.2253 -0.6226 0.530 0.844 0.081 65 30 11 0 0
0.0755 0.2259 -0.6255 0.503 0.840 0.202 65 30 11 0 0
0.0758 0.2263 -0.6285 0.539 0.805 0.248 65 30 11 0 0
0.0754 0.2262 -0.6350 0.561 0.815 -0.146 68 33 14 0 0
0.0732 0.2249 -0.6611 0.677 0.736 0.028 55 23 10 0 0
0.1048 0.2694 -0.8024 0.603 0.530 0.596 50 20 9 0 0
0.1186 0.2872 -0.8306 0.703 0.402 0.587 59 26 11 0 0
0.1223 0.2937 -0.8745 0.473 0.874 0.109 85 56 38 0 0
0.1424 0.3229 -0.9829 0.827 0.454 0.331 101 87 78 0 0
0.1433 0.3242 -0.9852 0.874 0.417 0.248 100 84 77 0 0
0.1528 0.3363 -1.0020 0.759 0.650 0.043 79 33 7 0 0
0.1552 0.3398 -1.0153 0.580 0.801 0.150 81 37 12 0 0
0.1577 0.3438 -1.0378 0.677 0.736 0.014 80 48 28 0 0
0.1575 0.3437 -1.0410 0.609 0.767 0.202 79 50 30 0 0
0.1559 0.3430 -1.0639 0.735 0.675 -0.066 79 52 33 0 0
0.1517 0.3397 -1.0986 0.341 0.878 0.336 37 17 9 0 0
0.1555 0.3450 -1.1137 0.767 0.639 0.057 77 50 30 0 0
0.1559 0.3460 -1.1226 0.550 0.831 0.079 82 56 36 0 0
0.1060 0.2244 0.0369 0.447 0.845 0.293 112 82 64 0 0
0.1083 0.2332 -0.0863 0.566 0.813 0.134 63 29 13 0 0
0.1417 0.2746 -0.1207 0.724 0.680 -0.112 135 104 87 0 0
0.1454 0.2794 -0.1288 0.708 0.683 0.178 76 30 5 0 0
0.1397 0.2739 -0.1548 0.939 0.020 0.344 61 44 36 0 0
0.1153 0.2492 -0.2419 0.875 0.483 0.041 56 36 27 0 0
0.1142 0.2481 -0.2450 0.386 0.832 -0.398 56 36 27 0 0
0.1034 0.2374 -0.2884 0.547 0.836 0.041 48 24 12 0 0
0.1101 0.2467 -0.3134 0.936 0.268 0.226 56 27 10 0 0
0.1021 0.2382 -0.3332 0.559 0.776 0.292 53 28 18 0 0
0.0939 0.2296 -0.3563 0.440 0.882 -0.171 39 20 13 0 0
0.1237 0.2671 -0.3979 0.857 0.355 0.374 61 26 11 0 0
0.0827 0.2242 -0.5150 0.244 0.880 0.408 53 25 12 0 0
0.0772 0.2229 -0.6197 0.483 0.869 0.109 69 34 15 0 0
0.0783 0.2246 -0.6285 0.539 0.805 0.248 61 26 9 0 0
0.0790 0.2255 -0.6313 0.585 0.811 0.012 62 26 10 0 0
0.0791 0.2258 -0.6344 0.620 0.723 0.305 62 27 11 0 0
0.0766 0.2257 -0.6921 0.427 0.850 0.308 48 20 9 0 0
0.0920 0.2465 -0.7431 0.441 0.896 0.050 51 23 9 0 0
0.0951 0.2516 -0.7694 0.312 0.945 -0.098 47 19 7 0 0
0.1143 0.2764 -0.8103 0.538 0.733 0.416 58 29 15 0 0
0.1150 0.2773 -0.8129 0.538 0.733 0.416 58 29 15 0 0
0.1262 0.2935 -0.8703 0.824 0.566 -0.013 86 58 38 0 0
0.1536 0.3325 -1.0003 0.560 0.589 0.583 81 36 12 0 0
0.1551 0.3345 -1.0051 0.483 0.873 0.071 85 39 10 0 0
0.1572 0.3372 -1.0095 0.580 0.801 0.150 86 40 14 0 0
0.1574 0.3376 -1.0124 0.580 0.801 0.150 82 37 13 0 0
0.1576 0.3380 -1.0153 0.580 0.801 0.150 75 32 10 0 0
0.1607 0.3433 -1.0463 0.773 0.584 0.247 80 52 31 0 0
0.1545 0.3385 -1.0982 0.341 0.878 0.336 36 17 10 0 0
0.1436 0.2724 -0.1209 0.782 0.618 0.088 135 105 87 0 0
0.1452 0.2745 -0.1235 0.709 0.677 0.198 96 57 35 0 0
0.1290 0.2587 -0.1937 0.829 0.535 -0.166 60 40 33 0 0
0.1284 0.2582 -0.1967 0.537 0.828 -0.164 58 39 32 0 0
0.1290 0.2590 -0.1995 0.324 0.892 -0.315 57 38 31 0 0
0.1175 0.2474 -0.2420 0.754 0.657 -0.003 56 36 27 0 0
0.1186 0.2488 -0.2447 0.508 0.683 -0.525 57 37 28 0 0
0.1105 0.2405 -0.2727 0.670 0.741 0.057 60 35 22 0 0
0.1109 0.2411 -0.2755 0.640 0.757 0.132 56 30 17 0 0
0.1117 0.2442 -0.3166 0.421 0.897 -0.136 63 30 13 0 0
0.1184 0.2562 -0.3975 0.539 0.350 0.766 59 31 16 0 0
0.1334 0.2751 -0.4191 0.402 0.907 0.123 65 27 8 0 0
0.0851 0.2221 -0.5120 0.302 0.890 0.342 50 22 10 0 0
0.0866 0.2245 -0.5237 0.584 0.786 0.201 50 22 10 0 0
0.0869 0.2250 -0.5266 0.584 0.786 0.201 51 23 11 0 0
0.0879 0.2263 -0.5293 0.633 0.774 -0.006 52 24 12 0 0
0.0799 0.2176 -0.5450 0.615 0.788 0.022 54 25 11 0 0
0.0800 0.2179 -0.5480 0.668 0.741 0.066 50 21 7 0 0
0.0817 0.2219 -0.5876 0.680 0.731 -0.056 67 31 12 0 0
0.0815 0.2226 -0.6095 0.268 0.963 -0.032 67 32 12 0 0
0.0830 0.2286 -0.6932 0.567 0.678 0.468 46 18 6 0 0
0.0941 0.2443 -0.7433 0.473 0.739 0.479 48 20 8 0 0
0.0971 0.2479 -0.7447 0.551 0.817 -0.173 48 20 8 0 0
0.0973 0.2484 -0.7477 0.442 0.881 0.169 48 20 8 0 0
0.0965 0.2475 -0.7513 0.648 0.608 0.459 48 20 8 0 0
0.1002 0.2527 -0.7647 0.173 0.942 -0.286 46 20 7 0 0
0.0996 0.2521 -0.7682 0.817 0.559 0.146 46 20 7 0 0
0.1243 0.2851 -0.8393 0.294 0.832 0.471 69 34 14 0 0
0.1281 0.2911 -0.8707 0.388 0.922 -0.016 87 60 39 0 0
0.1192 0.2838 -0.9363 0.830 0.523 0.196 47 21 12 0 0
0.1196 0.2844 -0.9392 0.830 0.523 0.196 46 22 12 0 0
0.1463 0.3185 -0.9835 0.655 0.434 0.619 100 85 78 0 0
0.1621 0.3392 -1.0226 0.682 0.669 0.296 66 28 9 0 0
0.1628 0.3401 -1.0251 0.546 0.837 0.032 66 28 9 0 0
0.1595 0.3397 -1.0957 0.714 0.690 0.120 37 18 12 0 0
0.1604 0.3408 -1.0981 0.821 0.570 -0.042 46 21 12 0 0
0.1602 0.3408 -1.1013 0.821 0.570 -0.042 53 26 13 0 0
0.1082 0.2235 -0.0752 0.914 0.368 0.171 102 87 78 0 0
0.1491 0.2750 -0.1291 0.639 0.652 0.407 83 37 11 0 0
0.1495 0.2757 -0.1318 0.646 0.755 0.112 73 34 9 0 0
0.1452 0.2718 -0.1577 0.710 0.697 0.099 62 43 36 0 0
0.1394 0.2657 -0.1755 0.909 0.404 0.104 62 43 36 0 0
0.1300 0.2553 -0.1911 0.655 0.751 -0.086 60 40 33 0 0
0.1302 0.2556 -0.1940 0.673 0.694 0.255 60 40 33 0 0
0.1306 0.2562 -0.1968 0.673 0.694 0.255 58 39 32 0 0
0.1132 0.2395 -0.2785 0.653 0.738 -0.169 56 30 17 0 0
0.1091 0.2354 -0.2942 0.213 0.830 0.515 55 32 18 0 0
0.1149 0.2432 -0.3135 0.937 0.335 0.097 61 27 8 0 0
0.1138 0.2421 -0.3167 0.677 0.736 0.025 68 35 17 0 0
0.1063 0.2361 -0.3782 0.564 0.630 0.534 42 17 10 0 0
0.1203 0.2538 -0.3977 0.539 0.350 0.766 57 29 14 0 0
0.1360 0.2738 -0.4220 0.563 0.762 0.319 68 30 9 0 0
0.1339 0.2721 -0.4374 0.765 0.212 -0.609 79 48 30 0 0
0.0851 0.2160 -0.4822 0.501 0.851 0.155 54 28 13 0 0
0.0853 0.2164 -0.4852 0.501 0.851 0.155 43 17 6 0 0
0.0846 0.2160 -0.4947 0.555 0.824 -0.115 50 23 11 0 0
0.0826 0.2160 -0.5449 0.655 0.754 0.042 56 27 13 0 0
0.0878 0.2234 -0.5674 0.914 0.405 -0.007 67 34 19 0 0
0.0829 0.2190 -0.5975 0.393 0.857 0.334 67 32 13 0 0
0.0895 0.2295 -0.6504 0.322 0.939 0.123 53 24 10 0 0
0.0995 0.2457 -0.7353 0.635 0.772 -0.014 48 20 8 0 0
0.0994 0.2457 -0.7385 0.635 0.772 -0.014 48 20 8 0 0
0.0993 0.2457 -0.7417 0.635 0.772 -0.014 47 19 7 0 0
0.1008 0.2489 -0.7689 0.157 0.981 -0.116 45 19 6 0 0
0.1268 0.2838 -0.8485 0.201 0.964 0.175 69 31 7 0 0
0.1169 0.2762 -0.9336 0.541 0.825 0.165 64 36 24 0 0
0.1596 0.3306 -1.0022 0.405 0.776 0.483 88 41 12 0 0
0.1608 0.3321 -1.0043 0.410 0.911 0.040 87 42 13 0 0
0.1611 0.3368 -1.0902 0.773 0.588 0.239 28 13 7 0 0
0.1611 0.3370 -1.0933 0.507 0.833 0.220 28 13 8 0 0
0.1616 0.3376 -1.0960 0.714 0.690 0.120 37 19 12 0 0
0.1617 0.3379 -1.0989 0.714 0.690 0.120 47 22 12 0 0
0.1627 0.3392 -1.1012 0.708 0.706 0.008 56 29 14 0 0
0.1633 0.3407 -1.1161 0.543 0.816 0.197 85 59 35 0 0
0.1635 0.3411 -1.1189 0.728 0.685 0.021 85 58 36 0 0
0.1094 0.2204 -0.0753 0.440 0.782 0.441 100 86 78 0 0
0.1472 0.2698 -0.1578 0.710 0.697 0.099 61 42 35 0 0
0.1323 0.2537 -0.1941 0.500 0.731 0.464 59 39 32 0 0
0.1327 0.2542 -0.1969 0.673 0.694 0.255 58 39 32 0 0
0.1336 0.2556 -0.2025 0.612 0.668 0.424 56 37 30 0 0
0.1336 0.2557 -0.2054 0.554 0.729 0.402 55 36 29 0 0
0.1151 0.2372 -0.2787 0.951 0.275 0.138 56 30 17 0 0
0.1167 0.2410 -0.3166 0.584 0.783 0.215 68 36 15 0 0
0.1221 0.2515 -0.3979 0.539 0.350 0.766 56 28 13 0 0
0.1300 0.2610 -0.3983 0.552 0.414 0.724 61 26 14 0 0
0.1384 0.2719 -0.4162 0.695 0.719 0.003 73 34 10 0 0
0.1398 0.2736 -0.4186 0.716 0.691 0.101 68 30 7 0 0
0.1075 0.2368 -0.4567 0.189 0.459 -0.868 70 39 22 0 0
0.0880 0.2148 -0.4852 0.519 0.832 0.196 53 27 14 0 0
0.0846 0.2136 -0.5420 0.786 0.610 0.105 55 26 12 0 0
0.0848 0.2139 -0.5451 0.786 0.610 0.105 56 27 13 0 0
0.0869 0.2169 -0.5534 0.603 0.794 0.077 59 29 11 0 0
0.0896 0.2204 -0.5585 0.802 0.588 0.108 63 30 13 0 0
0.0831 0.2159 -0.6268 0.963 0.227 0.146 67 32 12 0 0
0.0937 0.2340 -0.7370 0.599 0.621 0.506 48 20 8 0 0
0.1076 0.2528 -0.7788 0.421 0.804 0.420 45 19 6 0 0
0.1085 0.2539 -0.7813 0.435 0.842 0.320 45 18 6 0 0
0.1214 0.2699 -0.7918 0.388 0.901 -0.193 50 22 10 0 0
0.1284 0.2804 -0.8336 0.826 0.412 0.385 61 28 11 0 0
0.1296 0.2819 -0.8359 0.925 0.310 0.219 65 29 13 0 0
0.1586 0.3246 -0.9989 0.823 0.558 0.103 75 35 8 0 0
0.1651 0.3333 -1.0148 0.314 0.891 0.329 65 24 6 0 0
0.1575 0.3282 -1.0988 0.658 0.567 0.495 28 13 7 0 0
0.0858 0.1798 0.0812 0.621 0.526 0.580 99 71 49 0 0
0.1059 0.2081 -0.0034 0.951 -0.053 0.305 117 97 87 0 0
0.1224 0.2320 -0.0863 0.755 0.652 0.070 57 23 10 0 0
0.1337 0.2509 -0.1943 0.393 0.431 0.812 58 39 32 0 0
0.1347 0.2523 -0.1970 0.673 0.694 0.255 57 38 31 0 0
0.1350 0.2527 -0.1999 0.513 0.702 0.495 57 38 31 0 0
0.1331 0.2516 -0.2232 0.995 0.100 -0.011 58 36 28 0 0
0.1331 0.2517 -0.2261 0.942 0.241 0.232 58 36 26 0 0
0.0995 0.2178 -0.3606 0.847 0.385 0.368 35 17 10 0 0
0.1283 0.2543 -0.3967 0.842 0.259 0.474 55 27 14 0 0
0.1320 0.2587 -0.3985 0.552 0.414 0.724 60 26 13 0 0
0.1295 0.2580 -0.4437 0.640 0.065 -0.766 75 46 28 0 0
0.1207 0.2477 -0.4498 0.516 0.033 -0.856 74 42 24 0 0
0.1098 0.2349 -0.4568 0.332 0.345 -0.878 70 41 21 0 0
0.0849 0.2091 -0.5399 0.668 0.734 0.123 48 20 8 0 0
0.0902 0.2179 -0.5903 0.431 0.865 0.257 65 34 14 0 0
0.0893 0.2171 -0.5969 0.560 0.751 0.349 64 31 13 0 0
0.0908 0.2201 -0.6211 0.472 0.881 0.038 68 32 12 0 0
0.0874 0.2167 -0.6353 0.695 0.717 0.055 58 26 11 0 0
0.0968 0.2313 -0.7022 0.661 0.665 0.348 51 23 10 0 0
0.1111 0.2524 -0.7812 0.812 0.506 0.292 47 20 8 0 0
0.1142 0.2562 -0.7824 0.727 0.250 0.640 48 20 8 0 0
0.1236 0.2692 -0.8199 0.651 0.571 0.499 52 24 12 0 0
0.1282 0.2750 -0.8261 0.797 0.604 -0.008 55 27 12 0 0
0.1257 0.2761 -0.9087 0.932 0.353 -0.086 77 45 23 0 0
0.1249 0.2766 -0.9375 0.641 0.758 -0.116 46 24 12 0 0
0.1285 0.2810 -0.9410 0.672 0.740 -0.010 43 20 9 0 0
0.1492 0.3076 -0.9745 0.546 0.823 -0.158 104 87 79 0 0
0.1488 0.3073 -0.9780 0.546 0.823 -0.158 99 82 76 0 0
0.1579 0.3186 -0.9860 0.898 0.396 0.191 94 74 66 0 0
0.1597 0.3208 -0.9876 0.768 0.465 0.441 86 61 52 0 0
0.1692 0.3349 -1.0409 0.655 0.751 0.082 85 55 33 0 0
0.1664 0.3343 -1.0989 0.624 0.781 -0.031 44 18 8 0 0
0.1668 0.3353 -1.1078 0.637 0.724 0.267 86 57 35 0 0
0.1674 0.3361 -1.1104 0.678 0.669 0.304 90 62 37 0 0
0.1676 0.3365 -1.1133 0.702 0.704 0.111 94 66 40 0 0
0.1246 0.2302 -0.0864 0.845 0.526 0.096 60 25 12 0 0
0.1572 0.2713 -0.1236 0.541 0.572 0.616 99 58 33 0 0
0.1501 0.2644 -0.1582 0.725 0.688 -0.033 59 42 34 0 0
0.1273 0.2405 -0.2335 0.171 0.847 0.503 54 36 26 0 0
0.1176 0.2311 -0.2793 0.415 0.886 0.207 55 29 16 0 0
0.1198 0.2357 -0.3201 0.685 0.724 0.079 68 33 13 0 0
0.1215 0.2412 -0.3908 0.309 0.548 0.778 52 25 16 0 0
0.1265 0.2476 -0.3981 0.415 0.423 0.805 54 25 14 0 0
0.1348 0.2576 -0.3984 0.336 0.635 0.696 60 27 13 0 0
0.1437 0.2693 -0.4190 0.847 0.518 0.119 71 33 12 0 0
0.1028 0.2220 -0.4602 0.672 0.006 -0.740 69 40 20 0 0
0.0928 0.2108 -0.4792 0.464 0.856 0.227 59 33 18 0 0
0.0928 0.2110 -0.4822 0.577 0.804 0.142 55 29 14 0 0
0.0868 0.2081 -0.5712 0.847 0.527 0.066 58 27 10 0 0
0.0902 0.2129 -0.5853 0.819 0.573 0.030 66 35 15 0 0
0.0893 0.2142 -0.6356 0.699 0.709 -0.088 57 25 12 0 0
0.0858 0.2102 -0.6405 0.660 0.681 -0.317 56 25 12 0 0
0.0966 0.2264 -0.7037 0.688 0.682 0.248 53 25 11 0 0
0.1140 0.2509 -0.7778 0.374 0.927 0.041 48 20 8 0 0
0.1252 0.2661 -0.8111 0.336 0.939 0.077 48 20 9 0 0
0.1253 0.2663 -0.8141 0.336 0.939 0.077 48 20 9 0 0
0.1253 0.2665 -0.8172 0.336 0.939 0.077 51 22 11 0 0
0.1278 0.2698 -0.8249 0.319 0.746 0.584 50 22 10 0 0
0.1307 0.2790 -0.9412 0.649 0.751 0.120 43 19 9 0 0
0.1299 0.2786 -0.9544 0.397 0.891 -0.221 53 32 22 0 0
0.1290 0.2778 -0.9582 0.451 0.893 -0.002 58 40 31 0 0
0.1383 0.2887 -0.9541 0.273 0.883 0.381 68 52 45 0 0
0.1414 0.2929 -0.9609 0.742 0.482 0.466 78 63 57 0 0
0.1514 0.3056 -0.9747 0.670 0.722 -0.173 97 80 73 0 0
0.1520 0.3067 -0.9835 0.693 0.685 0.228 108 91 84 0 0
0.1599 0.3162 -0.9832 0.932 0.351 -0.090 97 80 73 0 0
0.1614 0.3184 -0.9881 0.768 0.465 0.441 84 60 51 0 0
0.1673 0.3258 -0.9955 0.548 0.696 0.465 75 31 12 0 0
0.1741 0.3348 -1.0111 0.258 0.875 0.410 60 20 3 0 0
0.1722 0.3334 -1.0312 0.659 0.751 0.031 84 48 29 0 0
0.1722 0.3343 -1.0496 0.581 0.812 0.055 92 64 40 0 0
0.1724 0.3347 -1.0525 0.605 0.778 0.167 93 65 41 0 0
0.1698 0.3321 -1.0640 0.713 0.699 0.054 90 62 38 0 0
0.1686 0.3325 -1.1022 0.577 0.812 0.090 71 41 23 0 0
0.1691 0.3332 -1.1048 0.781 0.621 0.060 85 56 34 0 0
0.0955 0.1839 0.0488 0.862 0.147 -0.486 110 90 76 0 0
0.0948 0.1832 0.0459 0.918 0.168 -0.359 110 90 79 0 0
0.0935 0.1817 0.0431 0.977 0.202 0.072 111 91 80 0 0
0.0919 0.1833 -0.0299 0.936 -0.095 0.338 99 81 73 0 0
0.1280 0.2298 -0.0893 0.720 0.429 0.545 55 19 8 0 0
0.1322 0.2355 -0.1005 0.663 0.720 -0.206 85 54 43 0 0
0.1357 0.2398 -0.1031 0.686 0.639 0.347 101 69 58 0 0
0.1583 0.2682 -0.1238 0.700 0.412 0.584 98 57 31 0 0
0.1367 0.2462 -0.2091 0.058 0.906 -0.420 56 36 29 0 0
0.1302 0.2389 -0.2218 0.750 0.661 0.030 56 37 29 0 0
0.1223 0.2320 -0.2759 0.394 0.906 0.155 56 30 17 0 0
0.1173 0.2265 -0.2859 0.932 0.325 0.160 52 25 13 0 0
0.1033 0.2127 -0.3520 0.220 0.881 -0.419 43 21 10 0 0
0.1021 0.2114 -0.3553 0.220 0.881 -0.419 45 24 15 0 0
0.1444 0.2658 -0.4225 0.512 0.826 0.237 73 35 14 0 0
0.1449 0.2667 -0.4282 0.419 0.906 -0.054 73 38 16 0 0
0.0953 0.2093 -0.4823 0.577 0.804 0.142 60 34 19 0 0
0.0914 0.2075 -0.5424 0.424 0.892 0.154 57 28 14 0 0
0.0876 0.2046 -0.5783 0.735 0.669 -0.112 62 29 12 0 0
0.0890 0.2065 -0.5807 0.716 0.579 0.390 64 31 12 0 0
0.0898 0.2075 -0.5835 0.716 0.579 0.390 65 32 13 0 0
0.0888 0.2069 -0.5964 0.781 0.606 0.150 65 34 15 0 0
0.0889 0.2072 -0.5995 0.673 0.617 0.408 64 32 14 0 0
0.0995 0.2246 -0.6941 0.460 0.864 -0.203 49 21 9 0 0
0.1157 0.2478 -0.7690 0.471 0.489 0.734 49 21 9 0 0
0.1167 0.2491 -0.7715 0.630 0.688 0.360 50 22 8 0 0
0.1168 0.2494 -0.7745 0.773 0.610 0.175 50 22 10 0 0
0.1171 0.2499 -0.7774 0.772 0.634 -0.055 50 22 10 0 0
0.1286 0.2659 -0.8197 0.232 0.905 0.357 49 21 10 0 0
0.1407 0.2825 -0.8610 0.760 0.650 -0.011 89 60 37 0 0
0.1439 0.2867 -0.8679 0.640 0.636 0.430 89 61 40 0 0
0.1330 0.2759 -0.9162 0.453 0.890 -0.045 96 70 46 0 0
0.1349 0.2787 -0.9273 0.480 0.821 0.310 72 43 31 0 0
0.1343 0.2781 -0.9309 0.857 0.417 0.304 56 30 19 0 0
0.1345 0.2786 -0.9370 0.647 0.674 -0.356 42 19 8 0 0
0.1330 0.2771 -0.9413 0.649 0.751 0.120 42 18 8 0 0
0.1327 0.2770 -0.9478 0.716 0.637 -0.286 43 19 9 0 0
0.1300 0.2740 -0.9530 0.670 0.695 0.262 45 21 11 0 0
0.1311 0.2754 -0.9553 0.544 0.670 0.506 49 27 17 0 0
0.1306 0.2750 -0.9588 0.699 0.705 -0.121 61 42 33 0 0
0.1416 0.2880 -0.9533 0.225 0.916 0.332 72 54 48 0 0
0.1455 0.2931 -0.9595 0.906 0.231 0.355 76 61 55 0 0
0.1674 0.3210 -0.9881 0.329 0.914 0.237 78 52 38 0 0
0.1670 0.3206 -0.9916 0.836 0.546 0.065 75 46 27 0 0
0.1716 0.3272 -1.0122 0.667 0.705 0.242 59 20 3 0 0
0.1716 0.3274 -1.0153 0.672 0.715 0.193 60 21 4 0 0
0.1739 0.3305 -1.0225 0.677 0.598 0.428 64 26 5 0 0
0.1746 0.3327 -1.0526 0.614 0.709 0.346 98 70 46 0 0
0.1709 0.3305 -1.0991 0.577 0.812 0.090 53 24 12 0 0
0.1709 0.3307 -1.1022 0.748 0.660 0.068 75 44 25 0 0
0.1696 0.3307 -1.1344 0.642 0.767 0.022 94 68 41 0 0
0.1604 0.3209 -1.1620 0.394 0.905 0.161 87 78 67 0 0
0.1787 0.3428 -1.1567 0.777 0.601 -0.185 180 179 175 0 0
0.1310 0.2293 -0.0951 0.664 0.199 0.721 83 57 45 0 0
0.1357 0.2352 -0.1005 0.497 0.813 0.303 88 57 46 0 0
0.1375 0.2375 -0.1032 0.675 0.509 0.534 95 63 52 0 0
0.1435 0.2491 -0.1941 0.228 0.810 0.540 59 40 33 0 0
0.1321 0.2366 -0.2190 0.847 0.508 -0.157 53 33 26 0 0
0.1255 0.2293 -0.2348 0.997 0.027 0.079 54 36 26 0 0
0.1205 0.2255 -0.2828 0.554 0.803 0.221 56 30 17 0 0
0.1215 0.2269 -0.2855 0.552 0.796 -0.248 57 29 17 0 0
0.1096 0.2151 -0.3420 0.524 0.767 -0.369 30 13 6 0 0
0.1088 0.2144 -0.3482 0.472 0.641 -0.605 47 25 13 0 0
0.1060 0.2113 -0.3520 0.570 0.686 -0.452 46 24 13 0 0
0.1063 0.2117 -0.3549 0.314 0.916 -0.251 44 22 13 0 0
0.1314 0.2441 -0.3922 -0.010 0.896 0.444 52 24 12 0 0
0.1305 0.2430 -0.3955 0.204 0.774 0.600 54 25 12 0 0
0.1471 0.2650 -0.4312 0.883 0.465 0.063 74 40 21 0 0
0.1469 0.2649 -0.4342 0.764 0.638 -0.090 76 46 28 0 0
0.1291 0.2438 -0.4465 0.108 0.385 -0.916 79 55 31 0 0
0.1219 0.2353 -0.4521 0.235 0.310 -0.921 70 43 20 0 0
0.0929 0.2009 -0.4687 0.897 0.267 0.352 66 38 20 0 0
0.0931 0.2041 -0.5304 0.685 0.694 0.221 52 24 10 0 0
0.0940 0.2058 -0.5424 0.396 0.917 0.058 56 27 13 0 0
0.0900 0.2022 -0.5690 0.628 0.771 -0.106 56 24 9 0 0
0.0895 0.2018 -0.5723 0.514 0.845 -0.144 57 26 9 0 0
0.0891 0.2015 -0.5756 0.514 0.845 -0.144 60 28 10 0 0
0.0891 0.2016 -0.5787 0.580 0.814 -0.002 62 29 12 0 0
0.0890 0.2017 -0.5819 0.580 0.814 -0.002 63 30 12 0 0
0.0907 0.2046 -0.5998 0.878 0.475 0.056 66 35 17 0 0
0.0908 0.2049 -0.6029 0.878 0.475 0.056 63 30 13 0 0
0.1021 0.2242 -0.7191 0.638 0.751 0.171 51 23 11 0 0
0.1316 0.2648 -0.8194 0.173 0.916 0.362 49 20 11 0 0
0.1378 0.2735 -0.8430 0.553 0.828 0.094 58 25 10 0 0
0.1360 0.2753 -0.9283 0.666 0.733 0.136 68 39 27 0 0
0.1361 0.2757 -0.9313 0.765 0.640 0.073 52 26 15 0 0
0.1342 0.2746 -0.9578 0.509 0.813 -0.281 65 45 37 0 0
0.1440 0.2862 -0.9534 0.474 0.809 0.348 68 50 43 0 0
0.1444 0.2869 -0.9561 0.458 0.862 0.217 69 53 48 0 0
0.1449 0.2876 -0.9589 0.451 0.828 0.334 72 57 52 0 0
0.1688 0.3180 -0.9858 0.586 0.810 -0.017 82 60 51 0 0
0.1697 0.3191 -0.9882 0.701 0.711 -0.059 81 56 42 0 0
0.1686 0.3180 -0.9922 0.824 0.562 0.070 76 46 28 0 0
0.1763 0.3288 -1.0224 0.614 0.780 0.120 67 29 8 0 0
0.1762 0.3291 -1.0317 0.784 0.608 0.125 82 45 26 0 0
0.1719 0.3288 -1.1345 0.490 0.869 0.065 90 64 38 0 0
0.1805 0.3404 -1.1572 0.856 0.486 -0.178 179 178 174 0 0
0.1896 0.3516 -1.1605 0.794 -0.294 0.533 199 197 195 0 0
0.1234 0.2242 -0.2769 0.280 0.958 0.066 58 32 19 0 0
0.1229 0.2238 -0.2829 0.447 0.875 0.184 58 32 19 0 0
0.1118 0.2130 -0.3391 0.477 0.878 -0.032 30 13 6 0 0
0.1115 0.2128 -0.3422 0.523 0.841 -0.135 32 14 6 0 0
0.1112 0.2126 -0.3453 0.707 0.706 -0.044 57 34 22 0 0
0.1107 0.2124 -0.3544 0.753 0.627 -0.197 44 23 12 0 0
0.1110 0.2129 -0.3573 0.672 0.672 -0.310 38 18 8 0 0
0.1293 0.2368 -0.3907 0.553 0.438 0.709 53 27 14 0 0
0.1344 0.2431 -0.3921 0.808 0.162 0.567 53 24 12 0 0
0.1305 0.2409 -0.4469 0.309 0.209 -0.928 82 55 34 0 0
0.0961 0.2000 -0.4685 0.998 -0.059 -0.016 68 41 22 0 0
0.0971 0.2042 -0.5298 0.699 0.690 -0.187 55 27 13 0 0
0.0944 0.2016 -0.5433 0.803 0.455 0.385 54 25 9 0 0
0.0928 0.1998 -0.5471 0.552 0.833 0.045 53 24 9 0 0
0.0947 0.2045 -0.5960 0.810 0.585 -0.045 66 34 14 0 0
0.1027 0.2197 -0.7107 0.696 0.706 0.127 51 23 11 0 0
0.1024 0.2194 -0.7141 0.523 0.850 0.066 49 21 9 0 0
0.1024 0.2196 -0.7172 0.523 0.850 0.066 48 20 8 0 0
0.1224 0.2465 -0.7710 0.778 0.594 0.204 50 22 10 0 0
0.1449 0.2787 -0.8706 0.623 0.759 -0.190 86 58 37 0 0
0.1444 0.2783 -0.8741 0.623 0.759 -0.190 80 52 31 0 0
0.1355 0.2691 -0.9086 0.608 0.748 -0.267 76 44 21 0 0
0.1376 0.2739 -0.9539 0.509 0.813 -0.281 57 35 22 0 0
0.1465 0.2846 -0.9532 0.526 0.772 0.357 64 47 40 0 0
0.1470 0.2853 -0.9560 0.547 0.786 0.288 70 53 46 0 0
0.1713 0.3162 -0.9827 0.525 0.779 0.343 96 78 69 0 0
0.1710 0.3160 -0.9860 0.608 0.794 -0.026 86 65 55 0 0
0.1695 0.3150 -1.0026 0.429 0.893 0.133 80 38 11 0 0
0.1763 0.3237 -1.0122 0.796 0.536 0.281 63 24 5 0 0
0.1763 0.3238 -1.0153 0.699 0.711 0.076 61 24 5 0 0
0.1764 0.3241 -1.0182 0.699 0.711 0.076 61 24 5 0 0
0.1792 0.3290 -1.0495 0.439 0.839 0.321 93 65 41 0 0
0.1798 0.3298 -1.0521 0.393 0.877 0.276 95 67 44 0 0
0.1745 0.3272 -1.1311 0.651 0.758 0.039 100 73 46 0 0
0.1725 0.3265 -1.1674 0.789 0.537 0.297 179 178 176 0 0
0.1302 0.2188 -0.0870 0.955 0.288 0.077 57 24 12 0 0
0.1312 0.2201 -0.0898 0.892 0.259 0.370 52 19 6 0 0
0.1623 0.2593 -0.1158 0.857 0.432 0.281 145 118 104 0 0
0.1591 0.2574 -0.1557 0.242 0.963 0.115 61 44 35 0 0
0.1474 0.2451 -0.2001 0.768 0.095 -0.634 58 39 32 0 0
0.1246 0.2232 -0.3245 0.865 0.450 -0.224 71 39 18 0 0
0.1123 0.2096 -0.3547 0.926 0.378 0.007 44 23 12 0 0
0.1325 0.2362 -0.3935 0.317 0.846 -0.429 52 24 12 0 0
0.1358 0.2403 -0.3954 0.953 0.303 0.029 58 28 17 0 0
0.1448 0.2523 -0.4161 0.627 0.619 0.473 77 36 16 0 0
0.1467 0.2554 -0.4331 0.682 0.654 0.326 72 41 21 0 0
0.1455 0.2541 -0.4365 0.517 0.833 -0.199 73 44 26 0 0
0.0968 0.1962 -0.4692 0.986 -0.164 -0.001 70 43 24 0 0
0.1008 0.2028 -0.5046 0.414 0.824 0.386 54 28 15 0 0
0.0963 0.1977 -0.5157 0.630 0.658 0.412 52 24 10 0 0
0.0978 0.2032 -0.5927 0.517 0.819 0.248 61 30 10 0 0
0.1049 0.2176 -0.7109 0.696 0.706 0.127 49 21 9 0 0
0.1050 0.2180 -0.7171 0.523 0.850 0.066 48 20 8 0 0
0.1450 0.2726 -0.8383 0.713 0.518 0.473 55 23 10 0 0
0.1457 0.2748 -0.8687 0.869 0.493 0.042 87 59 38 0 0
0.1471 0.2766 -0.8708 0.665 0.739 -0.106 87 59 38 0 0
0.1452 0.2746 -0.8753 0.733 0.678 -0.049 82 54 33 0 0
0.1448 0.2742 -0.8786 0.733 0.657 -0.175 81 53 32 0 0
0.1390 0.2686 -0.9077 0.571 0.806 -0.159 74 42 20 0 0
0.1399 0.2712 -0.9415 0.396 0.747 0.535 45 21 11 0 0
0.1491 0.2830 -0.9531 0.522 0.786 0.332 67 50 42 0 0
0.1496 0.2838 -0.9558 0.522 0.786 0.332 74 57 50 0 0
0.1502 0.2847 -0.9584 0.474 0.809 0.348 74 59 52 0 0
0.1506 0.2852 -0.9612 0.427 0.750 0.505 79 65 58 0 0
0.1722 0.3136 -1.0023 0.429 0.893 0.133 80 36 8 0 0
0.1740 0.3158 -1.0039 0.627 0.771 -0.115 83 39 14 0 0
0.1733 0.3152 -1.0075 0.655 0.716 0.243 81 37 9 0 0
0.1783 0.3216 -1.0156 0.600 0.784 0.160 63 24 6 0 0
0.1785 0.3220 -1.0184 0.699 0.711 0.076 63 24 6 0 0
0.1787 0.3225 -1.0213 0.600 0.784 0.160 64 25 6 0 0
0.1792 0.3233 -1.0271 0.630 0.776 0.047 72 34 11 0 0
0.1794 0.3237 -1.0299 0.631 0.719 0.291 78 41 18 0 0
0.1759 0.3228 -1.1009 0.676 0.706 -0.209 58 30 16 0 0
0.1747 0.3245 -1.1676 0.770 0.597 0.226 179 178 176 0 0
0.1841 0.3357 -1.1613 0.831 0.270 0.486 186 185 183 0 0
0.1300 0.2139 -0.0873 0.764 0.395 0.511 60 27 16 0 0
0.1325 0.2171 -0.0900 0.849 0.382 0.365 54 20 8 0 0
0.1445 0.2328 -0.1092 0.700 0.386 0.601 114 85 74 0 0
0.1655 0.2599 -0.1383 0.707 0.456 0.540 63 30 10 0 0
0.1271 0.2165 -0.2155 0.663 0.716 0.221 53 34 27 0 0
0.1273 0.2168 -0.2184 0.443 0.818 0.366 52 33 26 0 0
0.1273 0.2198 -0.2801 0.938 0.277 0.209 59 33 20 0 0
0.1277 0.2205 -0.2830 0.830 0.528 0.176 59 33 20 0 0
0.1471 0.2505 -0.4162 0.401 0.914 0.068 76 35 14 0 0
0.1502 0.2550 -0.4328 0.571 0.820 -0.023 75 44 24 0 0
0.1478 0.2523 -0.4366 0.680 0.656 -0.327 74 46 27 0 0
0.0959 0.1908 -0.4797 0.860 0.510 0.019 54 28 13 0 0
0.0974 0.1955 -0.5411 0.603 0.795 -0.074 55 28 9 0 0
0.0979 0.1964 -0.5471 0.252 0.902 0.352 53 24 9 0 0
0.0998 0.1994 -0.5618 0.601 0.799 0.008 62 30 13 0 0
0.1166 0.2289 -0.7494 0.786 0.479 -0.391 48 20 8 0 0
0.1365 0.2571 -0.8303 0.742 0.602 -0.295 50 21 11 0 0
0.1439 0.2665 -0.8376 0.204 0.614 0.762 54 22 8 0 0
0.1468 0.2720 -0.8789 0.733 0.657 -0.175 81 53 32 0 0
0.1440 0.2715 -0.9402 0.836 0.409 0.367 51 27 15 0 0
0.1426 0.2701 -0.9476 0.583 0.798 -0.154 51 26 15 0 0
0.1509 0.2804 -0.9504 0.554 0.743 0.376 60 41 33 0 0
0.1516 0.2813 -0.9530 0.522 0.786 0.332 68 51 43 0 0
0.1739 0.3103 -0.9875 0.803 0.512 -0.305 85 65 55 0 0
0.1827 0.3232 -1.0321 0.625 0.780 0.042 85 51 29 0 0
0.1781 0.3210 -1.1042 0.790 0.590 -0.169 68 39 22 0 0
0.1796 0.3235 -1.1183 0.746 0.656 0.113 92 66 40 0 0
0.1878 0.3358 -1.1661 0.655 -0.108 0.748 194 193 191 0 0
0.1472 0.2316 -0.1121 0.672 0.559 0.486 114 84 73 0 0
0.1318 0.2178 -0.2181 0.763 0.251 0.595 52 33 26 0 0
0.1351 0.2234 -0.2526 -0.201 0.949 -0.244 54 34 25 0 0
0.1396 0.2355 -0.3929 0.459 0.651 -0.604 54 25 14 0 0
0.1471 0.2454 -0.4052 0.321 0.938 0.131 71 39 27 0 0
0.1476 0.2462 -0.4109 0.349 0.905 -0.243 108 84 70 0 0
0.1482 0.2472 -0.4166 0.654 0.744 0.135 73 32 11 0 0
0.1530 0.2539 -0.4326 0.467 0.856 -0.221 79 48 28 0 0
0.1520 0.2528 -0.4360 0.467 0.668 -0.580 77 50 31 0 0
0.1070 0.2110 -0.7220 0.656 0.753 -0.054 46 18 6 0 0
0.1465 0.2648 -0.8344 0.526 0.589 0.614 55 22 9 0 0
0.1480 0.2669 -0.8395 0.221 0.668 0.710 65 31 11 0 0
0.1460 0.2669 -0.8905 0.648 0.719 -0.251 86 56 36 0 0
