ply
format ascii 1.0
element vertex 887
property float x
property float y
property float z
property float nx
property float ny
property float nz
property uchar diffuse_red
property uchar diffuse_green
property uchar diffuse_blue
property uchar class
property uchar detection
end_header
0.0187 0.3076 -0.4366 0.024 0.998 -0.064 90 60 39 0 0
0.0187 0.3077 -0.4396 -0.042 0.982 0.184 90 59 38 0 0
0.0288 0.2352 -0.4921 -0.158 0.978 0.138 56 29 13 0 0
0.0288 0.2324 -0.5183 -0.190 0.960 0.207 55 27 13 0 0
0.0287 0.2326 -0.5215 -0.188 0.968 0.169 56 28 14 0 0
0.0282 0.2352 -0.5271 -0.181 0.978 0.106 59 30 16 0 0
0.0281 0.2347 -0.5368 -0.116 0.991 0.073 58 31 13 0 0
0.0280 0.2314 -0.5730 -0.271 0.959 0.089 70 35 14 0 0
0.0278 0.2325 -0.5759 -0.236 0.936 0.261 71 36 14 0 0
0.0276 0.2332 -0.5789 -0.236 0.936 0.261 72 37 15 0 0
0.0266 0.2340 -0.6270 0.025 0.999 -0.038 85 46 17 0 0
0.0265 0.2340 -0.6302 0.023 0.998 -0.055 84 45 16 0 0
0.0263 0.2349 -0.6364 -0.269 0.918 0.292 85 46 17 0 0
0.0262 0.2353 -0.6395 -0.240 0.953 0.184 85 46 17 0 0
0.0249 0.2398 -0.6704 -0.039 0.975 0.219 76 38 14 0 0
0.0248 0.2402 -0.6735 -0.139 0.988 0.072 75 37 15 0 0
0.0236 0.2442 -0.7045 -0.310 0.949 -0.049 63 28 8 0 0
0.0162 0.2828 -0.7865 0.492 0.799 0.347 57 24 9 0 0
0.0156 0.2859 -0.7917 0.236 0.865 0.443 61 28 13 0 0
0.0156 0.2849 -0.8018 -0.743 0.587 0.321 58 26 11 0 0
0.0153 0.2870 -0.8041 -0.734 0.603 0.313 56 25 9 0 0
0.0149 0.2865 -0.8303 -0.230 0.970 0.086 60 24 10 0 0
0.0109 0.3047 -0.8935 -0.172 0.985 -0.019 72 43 27 0 0
0.0105 0.3027 -0.9336 -0.012 0.998 0.056 88 56 35 0 0
-0.0025 0.3762 -1.0269 -0.281 0.956 0.086 96 58 22 0 0
-0.0025 0.3759 -1.0302 -0.152 0.986 0.069 100 63 26 0 0
-0.0037 0.3798 -1.0634 -0.055 0.959 0.279 96 66 41 0 0
-0.0034 0.3744 -1.0925 0.145 0.833 0.533 45 20 11 0 0
-0.0041 0.3782 -1.1032 -0.053 0.949 0.310 70 31 11 0 0
-0.0040 0.3700 -1.1640 -0.415 0.906 0.080 151 146 139 0 0
-0.0030 0.3620 -1.1758 -0.276 0.674 -0.685 186 184 181 0 0
-0.0018 0.3534 -1.1847 -0.276 0.674 -0.685 191 190 188 0 0
0.0443 0.2236 0.0996 0.113 0.986 0.122 145 111 94 0 0
0.0442 0.2240 0.0967 0.113 0.986 0.122 144 114 96 0 0
0.0441 0.2240 0.0938 -0.110 0.910 0.400 134 105 89 0 0
0.0405 0.2450 0.0698 -0.179 0.975 0.130 66 29 10 0 0
0.0404 0.2454 0.0669 -0.179 0.975 0.130 62 25 8 0 0
0.0378 0.2596 0.0493 -0.485 0.552 0.678 104 67 45 0 0
0.0352 0.2740 0.0261 0.128 0.792 0.597 124 92 70 0 0
0.0349 0.2755 0.0232 0.092 0.843 0.530 102 67 39 0 0
0.0333 0.2790 -0.0373 0.265 0.952 0.154 28 14 7 0 0
0.0332 0.2794 -0.0402 0.059 0.962 -0.266 19 11 7 0 0
0.0342 0.2722 -0.0433 0.012 0.946 -0.325 11 7 4 0 0
0.0246 0.3246 -0.1270 0.089 0.930 0.357 85 40 15 0 0
0.0307 0.2671 -0.2872 0.013 0.998 0.057 60 32 18 0 0
0.0296 0.2716 -0.3107 0.059 0.826 0.561 50 21 8 0 0
0.0289 0.2753 -0.3161 -0.104 0.943 0.315 62 29 9 0 0
0.0284 0.2780 -0.3217 0.081 0.996 0.046 74 42 20 0 0
0.0282 0.2786 -0.3246 -0.326 0.906 -0.269 74 43 24 0 0
0.0300 0.2657 -0.3361 -0.018 0.798 -0.603 40 20 12 0 0
0.0313 0.2549 -0.3597 -0.158 0.967 0.200 34 18 9 0 0
0.0309 0.2566 -0.3655 0.028 0.891 0.452 18 8 3 0 0
0.0323 0.2353 -0.4701 -0.062 0.994 -0.096 74 48 27 0 0
0.0323 0.2355 -0.4732 -0.217 0.975 0.046 52 24 11 0 0
0.0320 0.2323 -0.5153 -0.026 0.957 0.290 48 22 9 0 0
0.0315 0.2347 -0.5242 -0.146 0.954 0.261 57 32 12 0 0
0.0314 0.2347 -0.5274 -0.147 0.989 0.012 58 31 15 0 0
0.0313 0.2349 -0.5337 -0.116 0.991 0.073 52 24 10 0 0
0.0312 0.2351 -0.5369 -0.116 0.991 0.073 53 25 10 0 0
0.0309 0.2313 -0.5861 -0.064 0.962 0.266 72 37 15 0 0
0.0305 0.2331 -0.5952 0.069 0.994 0.082 71 35 13 0 0
0.0303 0.2337 -0.5982 0.016 0.991 0.131 71 35 13 0 0
0.0302 0.2340 -0.6014 -0.148 0.988 0.049 75 38 13 0 0
0.0301 0.2341 -0.6045 -0.244 0.938 0.244 78 41 14 0 0
0.0295 0.2352 -0.6300 -0.159 0.979 0.128 90 53 24 0 0
0.0294 0.2358 -0.6331 -0.178 0.969 0.169 90 53 24 0 0
0.0292 0.2363 -0.6361 -0.178 0.969 0.169 88 51 22 0 0
0.0292 0.2360 -0.6394 -0.203 0.952 0.228 85 48 19 0 0
0.0285 0.2392 -0.6513 -0.019 0.989 0.144 86 48 21 0 0
0.0284 0.2397 -0.6544 -0.019 0.989 0.144 82 42 16 0 0
0.0282 0.2404 -0.6574 -0.163 0.962 0.220 81 41 15 0 0
0.0239 0.2590 -0.7381 -0.384 0.919 0.095 63 31 10 0 0
0.0209 0.2746 -0.7708 -0.085 0.975 0.204 59 27 8 0 0
0.0181 0.2882 -0.8071 0.015 0.886 -0.463 56 24 9 0 0
0.0127 0.3136 -0.8926 0.101 0.994 0.051 72 44 30 0 0
0.0137 0.3018 -0.9376 0.084 0.995 0.056 81 49 28 0 0
0.0052 0.3517 -0.9830 0.153 0.836 0.526 93 71 63 0 0
0.0024 0.3679 -0.9966 -0.144 0.964 0.223 79 37 12 0 0
-0.0006 0.3787 -1.0708 -0.044 0.998 -0.040 93 63 43 0 0
0.0001 0.3730 -1.0807 -0.697 0.713 0.073 69 43 33 0 0
-0.0013 0.3723 -1.1661 -0.385 0.633 -0.671 176 171 168 0 0
0.0440 0.2427 0.0785 -0.005 0.994 -0.112 85 51 32 0 0
0.0434 0.2454 0.0727 -0.164 0.967 0.197 73 35 14 0 0
0.0433 0.2457 0.0698 -0.275 0.923 0.270 66 29 10 0 0
0.0429 0.2481 0.0639 -0.251 0.933 0.257 65 28 7 0 0
0.0379 0.2758 0.0261 0.148 0.719 0.679 115 82 61 0 0
0.0363 0.2809 -0.0200 -0.179 0.982 0.064 51 28 17 0 0
0.0360 0.2816 -0.0257 -0.179 0.967 0.183 55 33 22 0 0
0.0359 0.2818 -0.0344 0.060 0.998 -0.019 38 20 12 0 0
0.0286 0.3137 -0.1656 -0.090 0.992 -0.092 65 47 37 0 0
0.0316 0.2762 -0.3252 0.262 0.946 -0.191 74 43 24 0 0
0.0344 0.2545 -0.3599 0.122 0.980 0.160 31 15 8 0 0
0.0343 0.2550 -0.3629 0.122 0.980 0.160 23 10 6 0 0
0.0340 0.2565 -0.3656 0.028 0.891 0.452 19 9 4 0 0
0.0242 0.3113 -0.4330 -0.294 0.942 -0.160 87 56 35 0 0
0.0291 0.2779 -0.4503 -0.078 0.389 -0.918 76 43 24 0 0
0.0350 0.2353 -0.4956 -0.037 0.997 0.064 53 27 12 0 0
0.0351 0.2325 -0.5155 0.016 0.919 0.394 47 21 7 0 0
0.0343 0.2341 -0.5437 -0.035 0.995 0.092 59 29 13 0 0
0.0342 0.2344 -0.5468 -0.035 0.995 0.092 65 34 16 0 0
0.0342 0.2347 -0.5500 -0.035 0.995 0.092 58 29 12 0 0
0.0329 0.2391 -0.5838 0.040 0.986 0.165 71 36 14 0 0
0.0331 0.2364 -0.5944 -0.229 0.973 0.008 72 36 14 0 0
0.0324 0.2367 -0.6297 0.003 0.983 0.181 91 54 25 0 0
0.0323 0.2373 -0.6328 0.003 0.983 0.181 91 54 25 0 0
0.0317 0.2394 -0.6450 0.159 0.978 0.137 88 51 22 0 0
0.0319 0.2373 -0.6554 -0.242 0.955 0.168 84 44 18 0 0
0.0317 0.2378 -0.6585 -0.242 0.955 0.168 82 42 16 0 0
0.0316 0.2383 -0.6616 0.076 0.953 0.292 83 43 17 0 0
0.0315 0.2389 -0.6646 0.062 0.991 0.117 84 44 19 0 0
0.0313 0.2399 -0.6675 0.069 0.997 0.042 79 40 17 0 0
0.0308 0.2417 -0.6799 0.053 0.955 0.292 70 34 12 0 0
0.0276 0.2565 -0.7263 -0.352 0.856 0.378 63 30 11 0 0
0.0274 0.2576 -0.7291 -0.352 0.856 0.378 65 32 13 0 0
0.0272 0.2587 -0.7319 -0.352 0.856 0.378 62 29 10 0 0
0.0272 0.2582 -0.7354 -0.147 0.936 0.321 61 28 9 0 0
0.0270 0.2591 -0.7383 -0.147 0.936 0.321 63 30 10 0 0
0.0252 0.2694 -0.7504 -0.125 0.934 0.335 61 28 11 0 0
0.0238 0.2758 -0.7705 0.002 0.944 0.331 63 31 12 0 0
0.0212 0.2888 -0.8039 -0.041 0.887 0.459 56 24 9 0 0
0.0192 0.2999 -0.8216 -0.089 0.980 0.180 56 22 8 0 0
0.0184 0.3037 -0.8296 0.254 0.858 0.447 61 25 9 0 0
0.0182 0.3051 -0.8322 0.254 0.858 0.447 61 26 8 0 0
0.0167 0.3131 -0.8446 -0.065 0.974 0.215 83 40 11 0 0
0.0166 0.3134 -0.8477 -0.043 0.900 0.433 86 44 13 0 0
0.0160 0.3124 -0.8902 -0.010 0.992 0.129 73 45 31 0 0
0.0166 0.3081 -0.8956 -0.096 0.985 -0.141 72 44 30 0 0
0.0173 0.3015 -0.9118 -0.184 0.939 0.289 67 37 22 0 0
0.0173 0.3012 -0.9186 0.186 0.962 0.200 79 47 29 0 0
0.0157 0.3081 -0.9445 -0.177 0.939 0.294 57 30 11 0 0
0.0080 0.3529 -0.9858 0.101 0.995 0.010 93 74 64 0 0
0.0079 0.3527 -0.9891 -0.309 0.705 0.639 98 79 70 0 0
0.0035 0.3774 -1.0203 -0.268 0.955 0.125 89 48 18 0 0
0.0034 0.3778 -1.0233 -0.268 0.955 0.125 92 52 21 0 0
0.0010 0.3831 -1.1137 -0.332 0.943 0.018 91 55 30 0 0
0.0007 0.3832 -1.1267 -0.304 0.943 0.133 97 63 36 0 0
0.0006 0.3840 -1.1295 -0.046 0.999 -0.011 100 67 40 0 0
0.0002 0.3862 -1.1313 -0.140 0.980 0.139 103 72 43 0 0
0.0018 0.3728 -1.1628 -0.285 0.948 0.143 152 146 140 0 0
0.0006 0.3802 -1.1613 -0.544 0.578 -0.609 175 170 167 0 0
0.0412 0.2735 0.0260 0.211 0.470 0.857 119 86 67 0 0
0.0395 0.2790 -0.0172 -0.095 0.979 0.182 50 26 15 0 0
0.0390 0.2821 -0.0229 0.075 0.976 0.207 53 31 21 0 0
0.0388 0.2823 -0.0316 0.464 0.867 0.180 46 26 19 0 0
0.0387 0.2819 -0.0374 0.436 0.882 -0.177 27 13 6 0 0
0.0314 0.3140 -0.1657 -0.090 0.992 -0.092 64 46 36 0 0
0.0346 0.2762 -0.3254 0.366 0.931 -0.008 69 38 18 0 0
0.0369 0.2600 -0.3405 0.524 0.839 -0.147 31 14 5 0 0
0.0359 0.2624 -0.3800 -0.284 0.940 0.191 40 17 10 0 0
0.0352 0.2663 -0.3822 -0.149 0.987 -0.058 45 20 10 0 0
0.0270 0.3142 -0.4173 -0.124 0.981 0.150 62 25 6 0 0
0.0271 0.3120 -0.4330 -0.159 0.983 -0.091 88 57 34 0 0
0.0385 0.2348 -0.4769 0.034 0.999 -0.005 48 22 9 0 0
0.0385 0.2348 -0.4801 0.034 0.999 -0.005 43 16 7 0 0
0.0373 0.2351 -0.5468 -0.194 0.963 0.187 58 29 13 0 0
0.0372 0.2350 -0.5501 -0.141 0.968 0.205 57 28 11 0 0
0.0344 0.2399 -0.6710 -0.130 0.981 0.143 71 33 12 0 0
0.0341 0.2410 -0.6771 -0.127 0.969 0.214 69 32 12 0 0
0.0333 0.2446 -0.6888 -0.078 0.963 0.257 62 29 10 0 0
0.0331 0.2455 -0.6917 -0.107 0.984 0.140 62 29 11 0 0
0.0317 0.2512 -0.7221 -0.602 0.769 0.216 60 27 10 0 0
0.0315 0.2518 -0.7251 -0.501 0.864 0.053 61 28 11 0 0
0.0302 0.2599 -0.7317 -0.352 0.856 0.378 61 28 10 0 0
0.0301 0.2597 -0.7351 -0.209 0.913 0.351 60 27 9 0 0
0.0299 0.2605 -0.7380 -0.185 0.949 0.253 60 27 10 0 0
0.0294 0.2615 -0.7571 0.050 0.920 0.388 61 28 11 0 0
0.0264 0.2782 -0.7795 0.181 0.983 -0.025 57 24 9 0 0
0.0222 0.3002 -0.8217 -0.089 0.980 0.180 56 21 7 0 0
0.0216 0.3033 -0.8300 0.201 0.916 0.348 61 25 9 0 0
0.0211 0.3059 -0.8353 0.254 0.858 0.447 61 25 6 0 0
0.0208 0.3073 -0.8379 0.254 0.858 0.447 63 26 7 0 0
0.0197 0.3133 -0.8448 0.077 0.971 0.228 82 39 10 0 0
0.0196 0.3140 -0.8477 0.077 0.971 0.228 84 42 10 0 0
0.0200 0.3050 -0.9039 -0.221 0.918 -0.330 66 38 23 0 0
0.0203 0.3021 -0.9118 -0.228 0.920 0.319 64 36 19 0 0
0.0202 0.3030 -0.9146 -0.228 0.920 0.319 72 42 26 0 0
0.0205 0.3003 -0.9193 0.090 0.989 0.117 79 47 28 0 0
0.0204 0.3007 -0.9224 0.016 1.000 0.010 83 51 30 0 0
0.0116 0.3496 -0.9847 0.314 0.833 0.456 89 68 59 0 0
0.0110 0.3526 -0.9895 0.358 0.922 0.146 94 76 65 0 0
0.0091 0.3645 -0.9926 -0.072 0.825 0.560 84 54 36 0 0
0.0086 0.3662 -1.0078 -0.099 0.950 0.297 77 33 6 0 0
0.0083 0.3675 -1.0102 -0.200 0.921 0.334 78 34 7 0 0
0.0041 0.3828 -1.1143 0.069 0.970 0.235 88 52 27 0 0
0.0039 0.3835 -1.1171 0.069 0.970 0.235 91 56 32 0 0
0.0038 0.3842 -1.1199 0.069 0.970 0.235 94 60 34 0 0
0.0036 0.3844 -1.1295 0.015 1.000 0.003 99 66 39 0 0
0.0525 0.2284 0.0964 -0.157 0.840 0.520 148 118 101 0 0
0.0423 0.2801 -0.0201 0.084 0.874 0.478 53 29 19 0 0
0.0448 0.2593 -0.0675 0.471 0.625 0.623 10 5 5 0 0
0.0328 0.3270 -0.1357 -0.285 0.958 0.020 70 33 14 0 0
0.0343 0.3142 -0.1658 -0.090 0.992 -0.092 64 46 35 0 0
0.0343 0.3140 -0.1687 -0.090 0.992 -0.092 62 44 33 0 0
0.0399 0.2701 -0.2509 -0.385 0.842 0.378 58 36 25 0 0
0.0399 0.2681 -0.2693 -0.029 0.999 0.039 65 37 23 0 0
0.0399 0.2681 -0.2723 0.132 0.973 0.187 64 36 22 0 0
0.0400 0.2668 -0.2786 -0.092 0.992 0.086 63 35 21 0 0
0.0387 0.2707 -0.3173 -0.469 0.880 0.070 62 27 8 0 0
0.0379 0.2748 -0.3257 0.285 0.950 -0.126 71 40 20 0 0
0.0386 0.2639 -0.3829 0.175 0.977 0.121 44 20 10 0 0
0.0414 0.2358 -0.4832 -0.035 0.993 0.112 55 29 14 0 0
0.0413 0.2348 -0.4961 -0.005 1.000 -0.003 50 24 9 0 0
0.0412 0.2332 -0.5188 -0.133 0.991 -0.026 56 30 14 0 0
0.0410 0.2331 -0.5348 -0.228 0.974 -0.009 56 28 13 0 0
0.0409 0.2328 -0.5381 -0.157 0.967 0.202 53 25 10 0 0
0.0408 0.2334 -0.5411 -0.157 0.967 0.202 55 26 11 0 0
0.0404 0.2347 -0.5503 -0.247 0.968 0.047 60 30 13 0 0
0.0381 0.2378 -0.6589 -0.065 0.995 0.081 82 42 17 0 0
0.0375 0.2403 -0.6710 -0.130 0.981 0.143 68 30 11 0 0
0.0336 0.2587 -0.7259 -0.352 0.856 0.378 59 27 8 0 0
0.0332 0.2606 -0.7284 -0.287 0.820 0.496 58 27 9 0 0
0.0335 0.2585 -0.7325 0.223 0.859 0.461 58 27 9 0 0
0.0330 0.2610 -0.7380 -0.018 0.989 0.145 59 27 9 0 0
0.0328 0.2617 -0.7410 -0.045 0.985 -0.164 59 27 9 0 0
0.0306 0.2727 -0.7723 -0.056 0.996 -0.064 58 27 8 0 0
0.0297 0.2772 -0.7801 -0.173 0.975 0.138 55 22 7 0 0
0.0247 0.3033 -0.8303 0.018 0.909 0.417 61 25 9 0 0
0.0244 0.3046 -0.8329 0.018 0.909 0.417 61 25 8 0 0
0.0243 0.3049 -0.8360 -0.038 0.835 0.548 62 26 7 0 0
0.0227 0.3142 -0.8446 -0.168 0.983 0.067 77 34 5 0 0
0.0226 0.3147 -0.8477 -0.208 0.977 0.052 79 37 6 0 0
0.0222 0.3158 -0.8568 -0.092 0.957 0.276 85 49 22 0 0
0.0225 0.3138 -0.8610 -0.293 0.956 -0.017 84 48 21 0 0
0.0224 0.3139 -0.8641 -0.045 0.998 -0.033 82 48 23 0 0
0.0234 0.3018 -0.9188 -0.046 0.976 0.211 78 48 29 0 0
0.0121 0.3644 -0.9929 0.076 0.927 0.368 82 50 34 0 0
0.0114 0.3671 -1.0107 -0.486 0.837 0.251 79 36 9 0 0
0.0090 0.3801 -1.0322 -0.091 0.991 0.094 98 61 28 0 0
0.0089 0.3804 -1.0353 -0.091 0.991 0.094 100 67 33 0 0
0.0088 0.3807 -1.0383 -0.091 0.991 0.094 104 71 41 0 0
0.0087 0.3810 -1.0414 -0.091 0.991 0.094 105 73 45 0 0
0.0087 0.3806 -1.0448 -0.129 0.992 -0.011 110 77 49 0 0
0.0085 0.3799 -1.0613 -0.239 0.962 0.132 98 66 45 0 0
0.0074 0.3814 -1.1090 -0.180 0.954 0.241 81 42 17 0 0
0.0067 0.3843 -1.1267 -0.046 0.999 -0.011 96 62 35 0 0
0.0065 0.3849 -1.1295 -0.061 0.994 0.092 97 65 37 0 0
0.0064 0.3852 -1.1326 -0.061 0.994 0.092 100 69 41 0 0
0.0063 0.3844 -1.1494 -0.004 0.945 -0.326 74 63 49 0 0
0.0075 0.3751 -1.1653 -0.924 0.183 -0.336 173 169 166 0 0
0.0472 0.2631 -0.0644 0.032 0.964 0.265 9 5 4 0 0
0.0470 0.2640 -0.0703 0.280 0.854 0.439 18 7 8 0 0
0.0459 0.2692 -0.0818 0.297 0.893 0.340 44 19 10 0 0
0.0441 0.2791 -0.0988 0.320 0.692 0.646 67 37 27 0 0
0.0366 0.3229 -0.1247 0.152 0.964 0.219 89 51 24 0 0
0.0361 0.3239 -0.1447 -0.040 0.992 -0.116 65 38 23 0 0
0.0375 0.3111 -0.1837 -0.208 0.879 -0.430 62 44 32 0 0
0.0397 0.2964 -0.1912 -0.150 0.968 0.201 62 42 34 0 0
0.0417 0.2711 -0.3113 -0.090 0.916 -0.390 54 24 12 0 0
0.0421 0.2619 -0.3804 0.348 0.928 0.136 42 19 10 0 0
0.0418 0.2635 -0.3831 0.196 0.976 0.099 43 19 9 0 0
0.0334 0.3109 -0.4244 -0.172 0.972 -0.158 69 33 11 0 0
0.0334 0.3103 -0.4307 0.115 0.993 0.016 88 56 35 0 0
0.0447 0.2352 -0.4771 -0.035 0.993 0.112 52 25 15 0 0
0.0445 0.2348 -0.4931 -0.005 1.000 -0.003 56 30 15 0 0
0.0445 0.2348 -0.4963 -0.005 1.000 -0.003 50 24 9 0 0
0.0431 0.2348 -0.5794 -0.239 0.971 -0.024 68 33 11 0 0
0.0422 0.2402 -0.5809 -0.223 0.948 -0.229 68 33 11 0 0
0.0428 0.2360 -0.5854 -0.413 0.908 -0.066 68 34 9 0 0
0.0407 0.2404 -0.6680 -0.044 0.993 0.111 70 32 12 0 0
0.0406 0.2407 -0.6711 -0.044 0.993 0.111 67 30 11 0 0
0.0400 0.2431 -0.6833 -0.046 0.986 0.158 62 28 8 0 0
0.0398 0.2441 -0.6861 -0.060 0.995 0.081 60 28 10 0 0
0.0393 0.2462 -0.6919 0.053 0.998 0.037 58 27 9 0 0
0.0363 0.2604 -0.7352 -0.047 0.958 0.282 58 27 9 0 0
0.0361 0.2611 -0.7382 -0.018 0.989 0.145 58 27 9 0 0
0.0337 0.2729 -0.7724 -0.056 0.996 -0.064 57 26 8 0 0
0.0336 0.2726 -0.7758 -0.212 0.974 0.082 56 24 9 0 0
0.0314 0.2856 -0.7833 -0.565 0.786 0.251 57 24 9 0 0
0.0257 0.3144 -0.8480 -0.241 0.970 -0.020 78 37 7 0 0
0.0254 0.3147 -0.8608 -0.316 0.928 0.196 84 48 22 0 0
0.0254 0.3146 -0.8641 -0.307 0.952 -0.021 83 48 25 0 0
0.0254 0.3141 -0.8676 -0.195 0.954 -0.228 82 49 27 0 0
0.0256 0.3106 -0.8887 -0.147 0.968 0.205 72 45 30 0 0
0.0265 0.3014 -0.9226 -0.233 0.937 0.261 85 57 33 0 0
0.0264 0.3022 -0.9255 -0.233 0.937 0.261 88 61 35 0 0
0.0249 0.3090 -0.9449 0.058 0.958 0.282 53 25 12 0 0
0.0151 0.3652 -0.9928 0.014 0.921 0.388 88 53 37 0 0
0.0145 0.3679 -0.9977 -0.124 0.939 0.321 82 41 17 0 0
0.0123 0.3791 -1.0235 -0.247 0.938 0.242 87 46 16 0 0
0.0121 0.3798 -1.0263 -0.247 0.938 0.242 92 51 21 0 0
0.0124 0.3777 -1.0307 -0.255 0.958 0.128 95 56 24 0 0
0.0121 0.3796 -1.0328 -0.090 0.990 0.111 100 62 29 0 0
0.0117 0.3809 -1.0385 -0.016 0.997 0.075 105 72 41 0 0
0.0115 0.3802 -1.0582 -0.155 0.984 0.083 104 73 46 0 0
0.0123 0.3727 -1.0822 -0.263 0.964 -0.026 64 40 32 0 0
0.0099 0.3835 -1.1242 0.123 0.987 0.100 95 60 34 0 0
0.0480 0.2850 0.0172 0.080 0.991 0.106 82 41 15 0 0
0.0469 0.2899 -0.0028 -0.049 0.981 -0.189 65 31 12 0 0
0.0496 0.2663 -0.0702 0.007 0.793 0.609 18 8 8 0 0
0.0488 0.2701 -0.0818 -0.123 0.992 0.011 47 22 12 0 0
0.0480 0.2734 -0.0992 0.040 0.698 0.715 67 38 27 0 0
0.0475 0.2758 -0.1020 0.112 0.741 0.663 70 37 23 0 0
0.0388 0.3254 -0.1389 -0.279 0.951 0.131 68 35 17 0 0
0.0442 0.2806 -0.2557 0.063 0.924 -0.378 60 35 25 0 0
0.0451 0.2747 -0.2595 -0.541 0.841 -0.002 62 36 25 0 0
0.0454 0.2708 -0.2752 -0.416 0.876 -0.246 65 37 23 0 0
0.0456 0.2694 -0.2784 -0.018 0.994 0.108 64 36 22 0 0
0.0459 0.2670 -0.2849 -0.002 0.997 0.082 64 36 22 0 0
0.0464 0.2588 -0.3350 0.398 0.718 -0.571 57 34 21 0 0
0.0473 0.2525 -0.3393 0.552 0.778 -0.301 31 13 7 0 0
0.0449 0.2627 -0.3834 0.278 0.948 0.156 44 20 10 0 0
0.0448 0.2633 -0.3864 0.226 0.929 0.292 45 20 10 0 0
0.0475 0.2332 -0.5160 0.038 0.999 -0.007 48 22 7 0 0
0.0445 0.2371 -0.6596 -0.128 0.991 -0.030 76 38 16 0 0
0.0446 0.2359 -0.6633 -0.114 0.980 0.165 73 35 14 0 0
0.0437 0.2408 -0.6713 -0.191 0.958 0.213 65 30 11 0 0
0.0433 0.2424 -0.6805 -0.145 0.972 0.184 62 28 10 0 0
0.0431 0.2429 -0.6835 -0.145 0.972 0.184 60 27 9 0 0
0.0430 0.2435 -0.6866 -0.145 0.972 0.184 58 27 9 0 0
0.0425 0.2459 -0.6955 -0.046 0.987 0.153 58 26 10 0 0
0.0423 0.2464 -0.6985 -0.035 0.999 -0.016 56 24 9 0 0
0.0418 0.2473 -0.7243 -0.127 0.974 -0.186 56 25 8 0 0
0.0395 0.2598 -0.7390 0.271 0.960 0.071 57 26 8 0 0
0.0387 0.2640 -0.7438 -0.039 0.989 0.143 58 27 9 0 0
0.0387 0.2629 -0.7540 -0.409 0.773 0.484 57 25 8 0 0
0.0367 0.2735 -0.7724 -0.091 0.995 0.031 57 26 8 0 0
0.0366 0.2735 -0.7756 -0.091 0.995 0.031 56 24 9 0 0
0.0347 0.2841 -0.7874 -0.336 0.906 0.257 58 26 8 0 0
0.0343 0.2863 -0.7930 -0.185 0.978 0.094 58 27 9 0 0
0.0342 0.2867 -0.7960 -0.266 0.936 0.230 57 25 8 0 0
0.0300 0.3085 -0.8349 -0.244 0.884 0.398 67 31 10 0 0
0.0297 0.3096 -0.8376 -0.153 0.937 0.313 69 33 9 0 0
0.0284 0.3152 -0.8608 -0.108 0.972 0.208 85 49 24 0 0
0.0283 0.3156 -0.8639 -0.233 0.970 0.069 83 49 25 0 0
0.0284 0.3150 -0.8674 -0.242 0.963 -0.117 82 49 28 0 0
0.0286 0.3111 -0.8887 -0.147 0.968 0.205 73 45 31 0 0
0.0298 0.3010 -0.9165 0.147 0.968 -0.204 75 46 30 0 0
0.0296 0.3021 -0.9192 0.112 0.985 0.130 79 50 31 0 0
0.0281 0.3089 -0.9453 0.058 0.958 0.282 51 22 13 0 0
0.0279 0.3098 -0.9481 0.058 0.971 0.230 52 26 13 0 0
0.0247 0.3280 -0.9615 -0.094 0.940 0.327 84 66 56 0 0
0.0187 0.3621 -0.9884 0.232 0.852 0.469 91 68 61 0 0
0.0181 0.3651 -0.9931 0.048 0.920 0.389 88 54 36 0 0
0.0153 0.3787 -1.0272 -0.200 0.980 -0.003 93 52 22 0 0
0.0154 0.3781 -1.0308 -0.134 0.981 0.139 98 59 28 0 0
0.0145 0.3807 -1.0583 -0.232 0.971 0.060 104 73 46 0 0
0.0144 0.3799 -1.0684 0.026 0.956 0.291 97 66 45 0 0
0.0143 0.3802 -1.0714 0.062 0.986 0.157 89 59 40 0 0
0.0154 0.3724 -1.0826 0.166 0.984 -0.066 66 41 32 0 0
0.0142 0.3777 -1.1022 -0.219 0.975 0.031 68 31 13 0 0
0.0135 0.3814 -1.1129 -0.057 0.996 0.073 83 45 22 0 0
0.0641 0.2123 0.0939 0.121 0.593 0.796 132 101 83 0 0
0.0641 0.2125 0.0910 0.571 0.819 -0.050 123 93 74 0 0
0.0603 0.2336 0.0727 0.369 0.853 0.369 69 34 14 0 0
0.0503 0.2878 0.0086 -0.355 0.912 0.207 69 31 12 0 0
0.0498 0.2901 -0.0029 -0.049 0.981 -0.189 66 32 13 0 0
0.0510 0.2805 -0.0232 0.029 0.945 -0.325 56 32 23 0 0
0.0411 0.3301 -0.1329 -0.090 0.901 0.424 72 33 12 0 0
0.0422 0.3214 -0.1509 -0.535 0.844 -0.034 68 46 35 0 0
0.0456 0.2968 -0.1913 0.033 0.991 -0.126 63 43 32 0 0
0.0478 0.2765 -0.2594 -0.393 0.915 -0.089 63 36 25 0 0
0.0492 0.2664 -0.2760 0.212 0.976 0.041 65 37 23 0 0
0.0489 0.2670 -0.2850 0.120 0.992 0.022 62 34 20 0 0
0.0509 0.2496 -0.3399 0.351 0.936 0.017 28 12 5 0 0
0.0508 0.2495 -0.3430 0.368 0.848 0.381 32 17 9 0 0
0.0489 0.2577 -0.3816 0.258 0.966 -0.014 40 18 8 0 0
0.0485 0.2596 -0.3843 0.041 0.999 -0.001 43 19 9 0 0
0.0481 0.2620 -0.3868 -0.030 0.951 0.309 44 20 10 0 0
0.0403 0.3076 -0.4043 -0.167 0.986 0.027 98 72 59 0 0
0.0402 0.3076 -0.4074 -0.167 0.986 0.027 99 77 64 0 0
0.0401 0.3083 -0.4102 -0.150 0.989 -0.003 87 56 38 0 0
0.0402 0.3075 -0.4134 -0.292 0.945 0.151 73 34 13 0 0
0.0400 0.3083 -0.4163 -0.255 0.943 0.212 71 29 8 0 0
0.0393 0.3117 -0.4246 -0.216 0.974 -0.070 76 40 18 0 0
0.0388 0.3139 -0.4301 -0.169 0.945 0.279 89 56 34 0 0
0.0498 0.2308 -0.5939 -0.162 0.984 0.070 70 34 14 0 0
0.0496 0.2316 -0.5969 -0.164 0.955 0.248 74 37 18 0 0
0.0494 0.2323 -0.5999 -0.164 0.955 0.248 75 38 18 0 0
0.0495 0.2316 -0.6033 -0.187 0.977 0.105 76 40 17 0 0
0.0492 0.2317 -0.6195 -0.142 0.983 0.113 75 38 12 0 0
0.0489 0.2332 -0.6222 -0.216 0.976 -0.005 77 40 13 0 0
0.0477 0.2370 -0.6599 -0.272 0.960 0.062 74 36 14 0 0
0.0357 0.2944 -0.8124 -0.407 0.913 0.024 56 24 9 0 0
0.0328 0.3101 -0.8377 -0.153 0.937 0.313 71 34 10 0 0
0.0325 0.3113 -0.8403 -0.270 0.837 0.476 73 35 8 0 0
0.0312 0.3171 -0.8634 -0.271 0.950 0.157 83 49 25 0 0
0.0311 0.3090 -0.9455 0.003 0.947 0.320 49 22 10 0 0
0.0291 0.3206 -0.9558 -0.006 0.890 0.456 84 62 53 0 0
0.0204 0.3688 -1.0010 -0.213 0.899 0.384 81 40 12 0 0
0.0183 0.3797 -1.0205 -0.052 0.982 0.179 84 43 13 0 0
0.0178 0.3810 -1.0359 -0.079 0.997 -0.014 99 64 34 0 0
0.0177 0.3809 -1.0455 -0.059 0.997 0.047 102 68 40 0 0
0.0174 0.3816 -1.0548 -0.129 0.992 -0.011 105 74 46 0 0
0.0174 0.3816 -1.0580 -0.129 0.992 -0.011 101 70 43 0 0
0.0176 0.3796 -1.0624 0.045 0.996 0.078 98 66 44 0 0
0.0173 0.3809 -1.0713 0.133 0.954 0.271 88 58 39 0 0
0.0169 0.3825 -1.0801 -0.381 0.894 0.234 47 27 24 0 0
0.0173 0.3791 -1.0886 -0.315 0.944 -0.098 32 13 10 0 0
0.0626 0.2374 0.0697 -0.095 0.945 0.313 76 40 21 0 0
0.0534 0.2868 0.0085 0.115 0.952 0.282 68 30 11 0 0
0.0541 0.2732 -0.0876 0.345 0.929 0.137 50 22 10 0 0
0.0540 0.2737 -0.0906 0.339 0.932 0.128 55 24 11 0 0
0.0493 0.3000 -0.1093 0.116 0.845 0.523 86 45 26 0 0
0.0442 0.3279 -0.1389 -0.395 0.906 0.151 71 37 18 0 0
0.0443 0.3272 -0.1418 -0.221 0.974 -0.041 68 36 19 0 0
0.0445 0.3258 -0.1448 -0.120 0.895 0.431 69 41 28 0 0
0.0449 0.3229 -0.1509 -0.632 0.774 0.035 68 45 37 0 0
0.0521 0.2662 -0.2852 -0.002 0.994 0.108 63 35 21 0 0
0.0541 0.2486 -0.3403 0.402 0.900 -0.168 26 12 3 0 0
0.0542 0.2478 -0.3435 0.021 0.920 0.391 35 19 11 0 0
0.0537 0.2494 -0.3556 0.063 0.995 0.080 45 25 14 0 0
0.0429 0.3086 -0.4164 -0.169 0.985 0.033 68 30 10 0 0
0.0423 0.3122 -0.4186 -0.265 0.962 -0.062 66 28 9 0 0
0.0537 0.2310 -0.5425 0.163 0.972 0.171 60 29 11 0 0
0.0520 0.2355 -0.6055 -0.172 0.955 0.243 74 39 17 0 0
0.0520 0.2339 -0.6222 -0.269 0.963 -0.021 77 40 14 0 0
0.0510 0.2381 -0.6402 -0.087 0.982 0.167 73 34 13 0 0
0.0489 0.2455 -0.6961 -0.410 0.823 0.394 58 26 11 0 0
0.0477 0.2495 -0.7271 -0.169 0.875 0.453 58 27 9 0 0
0.0458 0.2584 -0.7530 -0.423 0.482 0.767 56 25 7 0 0
0.0430 0.2745 -0.7628 0.239 0.959 0.152 56 24 9 0 0
0.0387 0.2948 -0.8189 -0.157 0.915 0.373 55 23 8 0 0
0.0358 0.3038 -0.9058 -0.161 0.987 0.014 67 38 24 0 0
0.0358 0.3036 -0.9092 -0.040 0.997 0.063 68 38 23 0 0
0.0358 0.3033 -0.9126 -0.138 0.981 -0.140 79 46 31 0 0
0.0342 0.3091 -0.9457 0.218 0.925 0.311 49 21 10 0 0
0.0322 0.3207 -0.9561 -0.006 0.890 0.456 81 62 54 0 0
0.0319 0.3223 -0.9585 0.128 0.718 0.684 82 65 57 0 0
0.0247 0.3624 -0.9920 -0.369 0.918 0.142 88 61 47 0 0
0.0245 0.3634 -0.9947 -0.307 0.903 0.301 84 51 32 0 0
0.0213 0.3799 -1.0207 -0.052 0.982 0.179 85 44 16 0 0
0.0208 0.3815 -1.0326 -0.009 1.000 0.003 93 56 26 0 0
0.0208 0.3816 -1.0358 -0.009 1.000 0.003 97 63 32 0 0
0.0207 0.3816 -1.0390 -0.009 1.000 0.003 99 66 36 0 0
0.0207 0.3811 -1.0457 -0.059 0.997 0.047 101 70 41 0 0
0.0203 0.3825 -1.0546 -0.128 0.991 -0.045 104 73 45 0 0
0.0206 0.3798 -1.0659 0.045 0.996 0.078 100 68 46 0 0
0.0203 0.3806 -1.0751 0.002 0.981 0.193 76 47 31 0 0
0.0201 0.3818 -1.0776 -0.179 0.983 -0.030 66 42 33 0 0
0.0198 0.3834 -1.0798 -0.267 0.961 0.079 43 26 22 0 0
0.0201 0.3808 -1.0879 0.072 0.997 0.018 33 13 8 0 0
0.0185 0.3859 -1.1334 -0.085 0.993 0.081 106 72 46 0 0
0.0757 0.1807 0.1039 -0.257 0.685 0.681 123 93 78 0 0
0.0651 0.2407 0.0695 -0.087 0.836 0.541 76 41 21 0 0
0.0652 0.2395 0.0667 -0.194 0.864 0.464 73 38 18 0 0
0.0565 0.2858 0.0056 0.137 0.989 0.047 66 29 10 0 0
0.0568 0.2750 -0.0876 -0.118 0.986 0.119 48 20 8 0 0
0.0484 0.3226 -0.1193 0.175 0.731 0.660 137 106 90 0 0
0.0521 0.2926 -0.1949 0.496 0.805 -0.326 61 41 33 0 0
0.0526 0.2773 -0.3259 0.204 0.954 0.219 72 40 24 0 0
0.0574 0.2472 -0.3407 0.370 0.901 -0.228 25 12 3 0 0
0.0573 0.2478 -0.3436 0.021 0.920 0.391 39 22 12 0 0
0.0566 0.2502 -0.3617 -0.244 0.897 0.368 29 12 5 0 0
0.0550 0.2586 -0.3755 0.018 0.941 0.338 41 19 8 0 0
0.0452 0.3130 -0.4185 -0.265 0.962 -0.062 64 26 6 0 0
0.0452 0.3113 -0.4341 -0.167 0.954 -0.248 82 51 31 0 0
0.0570 0.2306 -0.5429 0.054 0.972 0.230 63 32 14 0 0
0.0568 0.2313 -0.5458 -0.014 0.993 0.115 66 35 17 0 0
0.0559 0.2333 -0.5806 -0.047 0.997 -0.062 74 39 19 0 0
0.0552 0.2332 -0.6259 0.044 0.991 0.124 83 46 20 0 0
0.0551 0.2336 -0.6290 0.044 0.991 0.124 85 48 22 0 0
0.0548 0.2342 -0.6385 -0.338 0.937 0.088 76 38 16 0 0
0.0465 0.2724 -0.7606 0.274 0.901 0.337 56 24 7 0 0
0.0462 0.2738 -0.7633 0.239 0.959 0.152 56 25 8 0 0
0.0432 0.2888 -0.7959 -0.356 0.918 0.174 53 20 5 0 0
0.0425 0.2916 -0.8109 -0.279 0.941 0.192 56 25 7 0 0
0.0417 0.2953 -0.8190 -0.157 0.915 0.373 54 22 8 0 0
0.0390 0.3099 -0.8350 0.024 0.973 0.231 60 23 6 0 0
0.0374 0.3180 -0.8506 -0.224 0.974 0.020 80 39 11 0 0
0.0370 0.3190 -0.8663 0.067 0.973 0.223 85 53 33 0 0
0.0391 0.3031 -0.8999 -0.395 0.900 0.187 72 43 29 0 0
0.0386 0.3042 -0.9222 -0.282 0.903 0.325 91 64 40 0 0
0.0376 0.3078 -0.9434 -0.232 0.955 0.185 50 22 11 0 0
0.0374 0.3089 -0.9461 -0.148 0.951 0.270 51 23 12 0 0
0.0365 0.3143 -0.9466 -0.380 0.890 0.253 56 28 16 0 0
0.0362 0.3156 -0.9492 -0.177 0.973 0.146 61 33 19 0 0
0.0360 0.3169 -0.9518 -0.067 0.919 0.389 71 46 33 0 0
0.0275 0.3636 -0.9948 -0.370 0.923 0.100 80 47 29 0 0
0.0244 0.3795 -1.0212 0.043 0.981 0.191 87 46 18 0 0
0.0242 0.3806 -1.0238 0.019 0.973 0.229 90 49 21 0 0
0.0243 0.3797 -1.0276 -0.214 0.964 0.157 93 52 23 0 0
0.0241 0.3801 -1.0305 -0.214 0.964 0.157 96 57 26 0 0
0.0240 0.3806 -1.0335 -0.158 0.957 0.241 100 64 33 0 0
0.0239 0.3813 -1.0363 -0.158 0.957 0.241 102 68 37 0 0
0.0238 0.3808 -1.0462 -0.083 0.978 0.190 107 76 47 0 0
0.0231 0.3811 -1.0880 -0.074 0.996 -0.060 35 15 9 0 0
0.0214 0.3866 -1.1366 -0.286 0.958 -0.033 101 69 44 0 0
0.0775 0.1873 0.0977 -0.570 0.785 0.243 110 78 58 0 0
0.0774 0.1875 0.0947 -0.500 0.814 -0.296 109 76 55 0 0
0.0623 0.2621 -0.0678 -0.317 0.942 0.110 13 7 7 0 0
0.0521 0.3129 -0.1665 0.218 0.906 -0.363 63 45 34 0 0
0.0557 0.2776 -0.3230 0.204 0.822 0.532 69 36 16 0 0
0.0557 0.2767 -0.3262 0.204 0.954 0.219 71 40 23 0 0
0.0490 0.3090 -0.4075 -0.287 0.958 -0.020 103 77 63 0 0
0.0490 0.3085 -0.4137 -0.098 0.973 0.208 68 31 10 0 0
0.0487 0.3100 -0.4163 0.057 0.989 0.134 64 26 6 0 0
0.0479 0.3144 -0.4183 -0.329 0.944 -0.029 65 27 7 0 0
0.0479 0.3130 -0.4338 0.102 0.977 0.186 83 52 31 0 0
0.0587 0.2355 -0.5769 -0.270 0.955 0.126 75 40 21 0 0
0.0590 0.2334 -0.5807 -0.047 0.997 -0.062 75 40 21 0 0
0.0584 0.2323 -0.6329 0.079 0.997 0.017 80 43 17 0 0
0.0580 0.2342 -0.6387 0.118 0.980 0.161 77 39 17 0 0
0.0577 0.2357 -0.6414 0.018 0.993 0.116 76 39 18 0 0
0.0570 0.2360 -0.6837 0.000 0.997 0.072 55 22 7 0 0
0.0541 0.2505 -0.7109 0.100 0.979 0.178 57 25 10 0 0
0.0541 0.2500 -0.7144 0.135 0.974 0.183 57 25 10 0 0
0.0474 0.2833 -0.7855 0.071 0.992 0.104 57 25 10 0 0
0.0454 0.2924 -0.8107 -0.123 0.959 0.255 52 20 6 0 0
0.0448 0.2952 -0.8193 -0.335 0.801 0.496 55 23 8 0 0
0.0442 0.2987 -0.8209 -0.338 0.896 0.286 49 20 7 0 0
0.0439 0.3003 -0.8267 -0.242 0.874 0.422 44 15 4 0 0
0.0436 0.3015 -0.8294 0.012 0.895 0.447 50 18 8 0 0
0.0432 0.3037 -0.8316 -0.048 0.830 0.556 53 21 9 0 0
0.0407 0.3173 -0.8480 -0.174 0.983 0.057 82 41 12 0 0
0.0419 0.3037 -0.9162 -0.008 0.992 0.128 86 58 38 0 0
0.0416 0.3046 -0.9224 -0.125 0.969 0.211 96 70 45 0 0
0.0393 0.3157 -0.9494 0.279 0.951 0.134 62 34 20 0 0
0.0373 0.3268 -0.9599 -0.051 0.861 0.507 86 66 56 0 0
0.0362 0.3327 -0.9666 -0.470 0.859 0.205 87 70 62 0 0
0.0315 0.3586 -0.9883 0.029 0.814 0.580 93 74 67 0 0
0.0305 0.3644 -0.9883 -0.401 0.888 0.223 89 69 61 0 0
0.0269 0.3803 -1.0436 0.013 0.996 0.091 106 75 46 0 0
0.0269 0.3805 -1.0467 0.013 0.996 0.091 109 78 49 0 0
0.0262 0.3818 -1.0717 -0.356 0.927 0.119 87 57 38 0 0
0.0801 0.1900 0.0975 -0.268 0.952 -0.145 111 80 58 0 0
0.0676 0.2588 0.0430 -0.133 0.909 0.395 122 88 72 0 0
0.0559 0.3121 -0.1260 -0.135 0.960 0.244 101 62 29 0 0
0.0551 0.3127 -0.1666 -0.043 0.846 -0.532 62 44 34 0 0
0.0585 0.2785 -0.3260 -0.233 0.925 0.299 76 45 27 0 0
0.0526 0.3059 -0.4053 0.338 0.936 0.093 94 71 58 0 0
0.0618 0.2362 -0.5769 -0.070 0.998 0.001 76 41 22 0 0
0.0572 0.2505 -0.7144 0.063 0.980 0.191 57 26 9 0 0
0.0571 0.2511 -0.7174 0.063 0.980 0.191 57 25 10 0 0
0.0516 0.2770 -0.7851 -0.009 1.000 0.012 59 26 10 0 0
0.0487 0.2917 -0.8081 0.237 0.962 0.138 52 20 8 0 0
0.0486 0.2922 -0.8111 0.237 0.962 0.138 53 21 8 0 0
0.0483 0.2938 -0.8136 0.196 0.921 0.338 53 21 9 0 0
0.0478 0.2963 -0.8190 -0.335 0.801 0.496 56 23 10 0 0
0.0472 0.2997 -0.8207 -0.338 0.896 0.286 54 24 10 0 0
0.0469 0.3008 -0.8235 -0.326 0.941 0.088 51 22 10 0 0
0.0437 0.3174 -0.8482 0.081 0.986 0.143 86 45 18 0 0
0.0436 0.3180 -0.8511 -0.174 0.983 0.057 87 45 18 0 0
0.0434 0.3183 -0.8575 -0.242 0.969 -0.045 86 51 24 0 0
0.0434 0.3176 -0.8675 0.031 0.998 -0.053 85 56 35 0 0
0.0433 0.3120 -0.9385 -0.407 0.793 0.452 52 24 11 0 0
0.0404 0.3266 -0.9603 0.061 0.840 0.539 85 66 56 0 0
0.0401 0.3282 -0.9628 0.067 0.857 0.512 85 65 58 0 0
0.0397 0.3305 -0.9648 -0.069 0.941 0.332 86 67 60 0 0
0.0395 0.3311 -0.9678 -0.150 0.958 0.243 87 69 61 0 0
0.0334 0.3652 -0.9881 -0.016 1.000 -0.011 88 67 60 0 0
0.0338 0.3624 -0.9961 -0.163 0.967 0.194 76 43 25 0 0
0.0337 0.3624 -0.9994 -0.081 0.950 0.301 77 38 15 0 0
0.0335 0.3632 -1.0021 -0.081 0.950 0.301 75 33 9 0 0
0.0334 0.3636 -1.0051 0.272 0.881 0.388 73 31 7 0 0
0.0298 0.3805 -1.0502 -0.034 0.991 0.133 111 80 52 0 0
0.0296 0.3813 -1.0594 0.067 0.998 -0.012 99 67 44 0 0
0.0294 0.3822 -1.0621 -0.015 0.999 -0.039 99 67 45 0 0
0.0291 0.3829 -1.0714 -0.197 0.973 0.121 88 57 38 0 0
0.0288 0.3833 -1.0873 -0.442 0.872 0.209 33 15 9 0 0
0.0277 0.3856 -1.1346 -0.074 0.979 0.191 96 65 38 0 0
0.0275 0.3861 -1.1375 -0.005 0.981 0.195 95 66 38 0 0
0.0841 0.1854 0.1036 -0.573 0.750 0.330 128 107 98 0 0
0.0836 0.1880 0.1005 -0.385 0.800 0.460 116 89 72 0 0
0.0704 0.2596 0.0429 -0.367 0.851 0.376 116 82 65 0 0
0.0657 0.2831 0.0025 0.033 0.956 0.290 61 26 7 0 0
0.0656 0.2840 -0.0004 0.033 0.956 0.290 60 26 10 0 0
0.0591 0.3118 -0.1117 0.219 0.965 0.143 99 64 47 0 0
0.0575 0.3172 -0.1518 -0.180 0.940 -0.291 67 45 35 0 0
0.0635 0.2742 -0.2453 -0.117 0.983 -0.143 61 39 28 0 0
0.0635 0.2737 -0.2483 -0.117 0.983 -0.143 61 39 28 0 0
0.0651 0.2642 -0.2527 -0.126 0.985 0.116 62 39 28 0 0
0.0651 0.2641 -0.2557 -0.337 0.923 0.186 63 38 28 0 0
0.0650 0.2644 -0.2587 -0.344 0.936 0.069 66 39 30 0 0
0.0649 0.2646 -0.2617 -0.344 0.936 0.069 67 40 30 0 0
0.0647 0.2651 -0.2707 -0.187 0.982 0.036 66 38 27 0 0
0.0665 0.2477 -0.3472 0.340 0.939 0.056 61 38 25 0 0
0.0547 0.3102 -0.4136 -0.040 0.938 0.344 71 33 12 0 0
0.0675 0.2271 -0.5091 -0.140 0.963 0.229 66 37 21 0 0
0.0665 0.2289 -0.5600 0.034 0.997 0.064 73 40 21 0 0
0.0664 0.2291 -0.5631 0.034 0.997 0.064 73 40 21 0 0
0.0662 0.2298 -0.5661 -0.141 0.975 0.170 70 38 19 0 0
0.0641 0.2361 -0.6320 0.001 0.972 0.237 82 47 20 0 0
0.0639 0.2369 -0.6350 0.001 0.972 0.237 74 38 12 0 0
0.0640 0.2359 -0.6418 0.167 0.986 -0.005 70 34 12 0 0
0.0595 0.2545 -0.7294 -0.193 0.953 0.234 57 25 10 0 0
0.0522 0.2903 -0.8025 0.371 0.928 0.030 57 25 10 0 0
0.0521 0.2905 -0.8056 0.236 0.951 0.197 56 24 11 0 0
0.0520 0.2910 -0.8086 0.237 0.962 0.138 56 24 11 0 0
0.0518 0.2915 -0.8117 0.237 0.962 0.138 57 25 12 0 0
0.0507 0.2975 -0.8187 -0.243 0.790 0.562 56 24 11 0 0
0.0506 0.2980 -0.8218 -0.267 0.842 0.469 56 24 11 0 0
0.0497 0.3026 -0.8294 -0.235 0.876 0.421 54 22 9 0 0
0.0465 0.3189 -0.8510 -0.126 0.991 0.047 86 45 17 0 0
0.0465 0.3183 -0.8609 -0.092 0.979 -0.182 92 62 37 0 0
0.0464 0.3180 -0.8675 0.117 0.991 0.066 84 56 35 0 0
0.0464 0.3166 -0.8876 -0.174 0.979 0.108 79 50 34 0 0
0.0476 0.3088 -0.8979 0.290 0.934 -0.208 72 43 29 0 0
0.0474 0.3068 -0.9283 0.090 0.987 0.132 94 64 40 0 0
0.0473 0.3074 -0.9313 0.031 0.957 0.290 83 52 30 0 0
0.0463 0.3123 -0.9387 -0.133 0.957 0.259 51 23 11 0 0
0.0365 0.3651 -0.9885 -0.182 0.979 0.091 89 65 59 0 0
0.0364 0.3653 -0.9915 -0.182 0.979 0.091 84 53 42 0 0
0.0367 0.3629 -0.9961 -0.163 0.967 0.194 77 45 25 0 0
0.0366 0.3636 -0.9990 -0.225 0.972 0.064 78 40 16 0 0
0.0365 0.3635 -1.0022 -0.081 0.950 0.301 73 33 8 0 0
0.0365 0.3637 -1.0054 -0.028 0.950 0.310 74 32 8 0 0
0.0363 0.3646 -1.0081 -0.030 0.977 0.210 75 33 9 0 0
0.0334 0.3799 -1.0251 0.040 0.995 0.089 87 49 18 0 0
0.0333 0.3802 -1.0282 0.040 0.995 0.089 91 51 22 0 0
0.0331 0.3801 -1.0411 -0.099 0.992 0.083 105 74 45 0 0
0.0328 0.3815 -1.0467 -0.275 0.959 0.071 108 77 49 0 0
0.0327 0.3813 -1.0500 -0.158 0.986 0.059 106 75 47 0 0
0.0327 0.3815 -1.0532 -0.270 0.962 0.041 108 77 48 0 0
0.0326 0.3816 -1.0563 -0.270 0.962 0.041 104 73 46 0 0
0.0324 0.3825 -1.0622 -0.154 0.987 -0.050 96 64 42 0 0
0.0326 0.3802 -1.0701 -0.396 0.888 -0.234 90 60 36 0 0
0.0661 0.2885 -0.1076 0.445 0.807 -0.388 90 54 37 0 0
0.0621 0.3113 -0.1118 0.576 0.799 0.172 87 51 35 0 0
0.0612 0.3121 -0.1610 -0.604 0.787 0.128 63 44 34 0 0
0.0613 0.3114 -0.1640 -0.467 0.880 0.082 62 44 34 0 0
0.0668 0.2721 -0.2487 -0.041 0.998 0.045 62 40 29 0 0
0.0678 0.2656 -0.2557 -0.478 0.878 0.039 64 40 30 0 0
0.0678 0.2653 -0.2587 -0.443 0.896 -0.036 68 41 32 0 0
0.0678 0.2651 -0.2618 -0.459 0.884 -0.089 68 40 31 0 0
0.0677 0.2658 -0.2647 -0.361 0.933 -0.003 67 39 28 0 0
0.0667 0.2714 -0.2669 0.230 0.908 0.349 66 38 27 0 0
0.0677 0.2653 -0.2708 -0.089 0.987 0.135 66 38 27 0 0
0.0681 0.2613 -0.2866 0.140 0.986 0.093 65 37 23 0 0
0.0703 0.2437 -0.3450 0.361 0.928 0.092 57 37 26 0 0
0.0686 0.2517 -0.3682 0.138 0.726 0.673 56 38 26 0 0
0.0712 0.2239 -0.5102 0.166 0.831 0.530 65 36 20 0 0
0.0701 0.2294 -0.5215 0.159 0.964 0.212 56 27 9 0 0
0.0701 0.2295 -0.5247 0.181 0.979 0.092 63 34 16 0 0
0.0704 0.2263 -0.5352 0.472 0.866 0.165 68 39 21 0 0
0.0700 0.2285 -0.5410 0.451 0.874 0.182 69 40 23 0 0
0.0698 0.2293 -0.5440 0.233 0.972 0.034 71 42 24 0 0
0.0696 0.2292 -0.5568 0.068 0.990 -0.124 87 54 35 0 0
0.0699 0.2274 -0.5606 -0.206 0.977 0.050 83 50 31 0 0
0.0695 0.2291 -0.5633 -0.115 0.988 0.106 74 41 22 0 0
0.0696 0.2283 -0.5668 -0.193 0.971 0.142 70 39 19 0 0
0.0695 0.2288 -0.5698 -0.125 0.974 0.189 70 37 18 0 0
0.0706 0.2210 -0.5884 0.188 0.982 0.009 79 44 24 0 0
0.0680 0.2338 -0.6135 -0.041 0.993 0.108 84 49 23 0 0
0.0680 0.2330 -0.6170 0.091 0.995 -0.028 80 44 19 0 0
0.0680 0.2332 -0.6202 -0.008 0.995 -0.099 77 41 16 0 0
0.0680 0.2326 -0.6269 -0.221 0.967 -0.129 80 45 19 0 0
0.0674 0.2344 -0.6458 -0.118 0.990 0.074 68 33 13 0 0
0.0621 0.2567 -0.7353 -0.277 0.911 0.304 59 27 12 0 0
0.0617 0.2593 -0.7375 -0.070 0.755 0.652 56 24 9 0 0
0.0578 0.2774 -0.7855 -0.077 0.941 0.328 63 30 13 0 0
0.0558 0.2873 -0.8040 0.438 0.890 0.131 58 26 12 0 0
0.0556 0.2884 -0.8068 0.240 0.958 0.155 58 26 13 0 0
0.0554 0.2889 -0.8098 0.240 0.958 0.155 58 26 13 0 0
0.0536 0.2986 -0.8217 -0.185 0.809 0.557 56 24 11 0 0
0.0522 0.3069 -0.8213 -0.369 0.927 -0.059 54 25 11 0 0
0.0512 0.3106 -0.8389 0.266 0.863 0.429 65 28 8 0 0
0.0494 0.3196 -0.8541 -0.248 0.965 -0.091 87 49 20 0 0
0.0494 0.3171 -0.8877 -0.054 0.998 -0.020 80 51 34 0 0
0.0494 0.3165 -0.8912 -0.151 0.901 -0.407 74 45 29 0 0
0.0506 0.3062 -0.9289 0.105 0.947 0.303 89 60 36 0 0
0.0497 0.3107 -0.9397 0.062 0.908 0.415 51 23 11 0 0
0.0490 0.3140 -0.9512 -0.169 0.985 0.033 67 38 24 0 0
0.0453 0.3337 -0.9669 0.660 0.717 0.224 96 79 71 0 0
0.0395 0.3651 -0.9888 -0.014 0.975 0.220 88 65 57 0 0
0.0391 0.3670 -0.9941 -0.037 0.977 0.208 76 44 22 0 0
0.0389 0.3677 -1.0002 -0.289 0.920 0.265 75 34 10 0 0
0.0381 0.3721 -1.0009 0.147 0.985 0.088 75 33 9 0 0
0.0371 0.3763 -1.0211 -0.194 0.962 0.192 82 41 11 0 0
0.0365 0.3796 -1.0256 -0.045 0.995 0.088 88 49 18 0 0
0.0367 0.3779 -1.0298 -0.102 0.908 0.406 95 55 25 0 0
0.0361 0.3805 -1.0412 -0.099 0.992 0.083 106 75 46 0 0
0.0350 0.3806 -1.1091 -0.391 0.868 0.306 79 41 18 0 0
0.0350 0.3806 -1.1124 -0.292 0.913 0.283 83 45 22 0 0
0.0892 0.1893 0.0795 -0.313 0.950 -0.002 96 65 44 0 0
0.0825 0.2163 -0.0522 0.336 0.764 0.551 26 20 20 0 0
0.0623 0.3247 -0.1339 0.065 0.959 0.275 75 39 16 0 0
0.0639 0.3137 -0.1610 -0.274 0.947 0.168 64 45 35 0 0
0.0638 0.3141 -0.1639 -0.387 0.922 0.009 63 45 35 0 0
0.0638 0.3135 -0.1697 -0.263 0.934 -0.241 64 44 37 0 0
0.0657 0.3015 -0.1827 -0.466 0.758 -0.456 59 39 32 0 0
0.0694 0.2749 -0.2484 -0.073 0.992 0.106 62 40 29 0 0
0.0706 0.2670 -0.2556 -0.423 0.905 0.031 66 41 31 0 0
0.0706 0.2667 -0.2586 -0.443 0.896 -0.036 68 41 32 0 0
0.0709 0.2649 -0.2619 -0.554 0.832 -0.031 67 39 30 0 0
0.0708 0.2650 -0.2649 -0.526 0.849 0.048 66 38 27 0 0
0.0707 0.2652 -0.2710 0.044 0.992 0.119 67 39 28 0 0
0.0717 0.2589 -0.2811 -0.011 0.966 0.259 65 37 23 0 0
0.0715 0.2598 -0.2840 0.190 0.964 0.186 64 36 22 0 0
0.0712 0.2611 -0.2868 -0.210 0.978 -0.016 61 33 19 0 0
0.0692 0.2695 -0.3250 0.080 0.992 0.100 77 42 22 0 0
0.0601 0.3133 -0.4192 -0.305 0.946 0.108 68 30 9 0 0
0.0742 0.2250 -0.5101 0.488 0.861 0.144 56 27 11 0 0
0.0729 0.2263 -0.5805 0.257 0.927 -0.274 78 43 24 0 0
0.0737 0.2210 -0.5886 -0.196 0.979 -0.052 81 46 26 0 0
0.0734 0.2229 -0.5912 0.125 0.937 0.326 81 46 26 0 0
0.0715 0.2322 -0.6045 0.109 0.986 0.125 77 43 18 0 0
0.0714 0.2326 -0.6076 0.109 0.986 0.125 78 44 19 0 0
0.0713 0.2332 -0.6107 0.066 0.975 0.211 79 45 20 0 0
0.0712 0.2335 -0.6138 0.109 0.986 0.125 77 43 18 0 0
0.0712 0.2332 -0.6172 -0.116 0.991 -0.065 75 39 15 0 0
0.0712 0.2329 -0.6205 -0.116 0.991 -0.065 76 40 16 0 0
0.0712 0.2327 -0.6238 -0.007 0.999 -0.044 76 42 17 0 0
0.0710 0.2332 -0.6269 0.004 0.990 0.141 76 42 17 0 0
0.0711 0.2313 -0.6470 0.270 0.809 0.523 70 35 15 0 0
0.0658 0.2542 -0.7300 0.205 0.962 0.182 54 22 7 0 0
0.0656 0.2551 -0.7329 0.070 0.961 0.269 54 22 7 0 0
0.0654 0.2560 -0.7358 0.018 0.916 0.400 55 23 8 0 0
0.0609 0.2773 -0.7923 0.193 0.956 0.221 62 30 13 0 0
0.0591 0.2863 -0.8047 0.508 0.859 0.056 57 25 11 0 0
0.0589 0.2870 -0.8076 0.541 0.792 0.283 56 24 11 0 0
0.0586 0.2886 -0.8102 0.573 0.744 0.345 55 23 10 0 0
0.0557 0.3042 -0.8227 0.232 0.835 0.499 54 25 10 0 0
0.0556 0.3043 -0.8259 -0.013 0.938 0.346 56 25 10 0 0
0.0539 0.3124 -0.8448 0.067 0.948 0.312 75 36 7 0 0
0.0523 0.3205 -0.8572 -0.242 0.969 -0.045 92 59 30 0 0
0.0547 0.3030 -0.9046 -0.320 0.850 0.418 71 42 26 0 0
0.0546 0.3035 -0.9076 -0.280 0.927 -0.251 71 42 25 0 0
0.0479 0.3361 -0.9692 -0.285 0.719 0.634 99 82 74 0 0
0.0424 0.3654 -0.9953 -0.200 0.892 0.404 79 47 26 0 0
0.0400 0.3769 -1.0210 -0.194 0.962 0.192 80 39 9 0 0
0.0397 0.3785 -1.0233 -0.144 0.989 -0.037 81 40 10 0 0
0.0395 0.3798 -1.0258 -0.045 0.995 0.088 86 47 16 0 0
0.0384 0.3823 -1.0662 0.056 0.974 -0.220 86 56 35 0 0
0.0380 0.3814 -1.1057 -0.283 0.947 0.154 75 37 14 0 0
0.0379 0.3817 -1.1087 -0.391 0.868 0.306 79 41 18 0 0
0.0668 0.3136 -0.1611 -0.346 0.880 0.326 64 46 36 0 0
0.0739 0.2663 -0.2467 -0.392 0.813 0.431 65 39 31 0 0
0.0734 0.2686 -0.2524 -0.520 0.771 0.368 64 37 30 0 0
0.0734 0.2683 -0.2555 -0.423 0.905 0.031 66 39 31 0 0
0.0734 0.2681 -0.2586 -0.443 0.896 -0.036 68 41 30 0 0
0.0737 0.2568 -0.3798 0.311 0.907 0.285 48 24 12 0 0
0.0656 0.3002 -0.4042 -0.291 0.718 0.632 88 61 50 0 0
0.0652 0.3023 -0.4068 -0.291 0.718 0.632 89 66 52 0 0
0.0648 0.3046 -0.4093 -0.425 0.700 0.575 96 68 49 0 0
0.0628 0.3148 -0.4221 -0.056 0.993 0.107 75 35 13 0 0
0.0765 0.2260 -0.5582 0.493 0.866 0.080 72 39 22 0 0
0.0763 0.2267 -0.5612 0.451 0.886 0.110 72 39 22 0 0
0.0760 0.2284 -0.5639 0.320 0.946 0.045 72 39 21 0 0
0.0761 0.2270 -0.5708 0.200 0.980 -0.020 71 38 21 0 0
0.0752 0.2295 -0.6024 -0.088 0.884 0.460 75 40 17 0 0
0.0751 0.2300 -0.6054 -0.214 0.838 0.502 73 38 16 0 0
0.0747 0.2320 -0.6080 -0.198 0.951 0.237 75 40 18 0 0
0.0746 0.2325 -0.6111 -0.291 0.880 0.377 77 44 18 0 0
0.0744 0.2331 -0.6141 -0.113 0.991 0.077 77 44 17 0 0
0.0743 0.2334 -0.6173 -0.113 0.991 0.077 76 42 16 0 0
0.0743 0.2333 -0.6206 -0.116 0.991 -0.065 75 41 17 0 0
0.0742 0.2337 -0.6237 0.117 0.993 0.019 76 41 18 0 0
0.0741 0.2338 -0.6269 0.117 0.993 0.019 76 41 19 0 0
0.0725 0.2390 -0.6739 0.428 0.895 0.123 61 28 11 0 0
0.0712 0.2418 -0.7284 -0.329 0.944 0.014 55 23 10 0 0
0.0631 0.2815 -0.8005 0.020 0.676 0.736 58 27 9 0 0
0.0627 0.2841 -0.8026 0.050 0.726 0.686 57 25 10 0 0
0.0624 0.2851 -0.8054 0.095 0.954 0.285 56 25 11 0 0
0.0622 0.2860 -0.8083 0.095 0.954 0.285 53 24 10 0 0
0.0620 0.2869 -0.8112 0.005 0.991 0.133 51 22 8 0 0
0.0619 0.2873 -0.8142 0.005 0.991 0.133 52 23 9 0 0
0.0617 0.2886 -0.8169 -0.224 0.974 -0.041 53 24 10 0 0
0.0591 0.3025 -0.8237 0.311 0.616 0.724 53 24 10 0 0
0.0591 0.3025 -0.8270 -0.206 0.929 0.307 54 25 11 0 0
0.0582 0.3075 -0.8279 -0.431 0.738 0.519 55 27 11 0 0
0.0576 0.3097 -0.8367 -0.048 0.946 0.319 64 30 12 0 0
0.0574 0.3107 -0.8394 -0.140 0.976 0.164 66 29 8 0 0
0.0571 0.3123 -0.8451 -0.046 0.957 0.286 74 34 7 0 0
0.0564 0.3161 -0.8466 -0.201 0.944 0.263 77 35 8 0 0
0.0555 0.3201 -0.8576 -0.035 0.996 -0.085 94 59 34 0 0
0.0556 0.3187 -0.8648 0.048 0.993 -0.109 93 62 40 0 0
0.0555 0.3194 -0.8677 0.134 0.990 -0.047 91 60 39 0 0
0.0580 0.3011 -0.9189 0.015 0.997 0.070 90 62 41 0 0
0.0432 0.3762 -1.0217 -0.322 0.937 0.137 78 37 9 0 0
0.0427 0.3787 -1.0267 0.040 0.982 0.184 88 49 17 0 0
0.0425 0.3792 -1.0296 0.040 0.982 0.184 92 54 24 0 0
0.0435 0.3683 -1.0945 -0.319 0.879 0.355 33 13 7 0 0
0.0688 0.3200 -0.1519 0.189 0.950 -0.248 66 45 34 0 0
0.0817 0.2357 -0.2973 0.300 0.362 -0.883 71 43 30 0 0
0.0698 0.2940 -0.3996 0.209 0.715 0.668 65 32 18 0 0
0.0657 0.3154 -0.4221 0.152 0.988 -0.011 76 37 14 0 0
0.0801 0.2163 -0.6493 0.297 0.872 -0.389 74 39 19 0 0
0.0799 0.2168 -0.6524 -0.403 0.802 -0.441 74 39 19 0 0
0.0763 0.2356 -0.6721 0.479 0.856 0.193 64 31 14 0 0
0.0756 0.2396 -0.6739 0.257 0.962 0.094 63 30 13 0 0
0.0755 0.2400 -0.6770 0.349 0.937 0.006 61 28 11 0 0
0.0754 0.2401 -0.6802 0.349 0.937 0.006 61 28 11 0 0
0.0759 0.2315 -0.7525 0.583 0.808 0.083 53 24 10 0 0
0.0648 0.2892 -0.8104 -0.188 0.967 0.172 51 22 8 0 0
0.0646 0.2897 -0.8134 -0.188 0.967 0.172 52 23 9 0 0
0.0645 0.2902 -0.8165 -0.157 0.936 0.315 52 23 9 0 0
0.0626 0.3007 -0.8183 0.328 0.860 0.392 53 24 10 0 0
0.0627 0.3000 -0.8219 0.001 0.766 0.643 54 25 11 0 0
0.0609 0.3089 -0.8340 -0.048 0.946 0.319 61 29 10 0 0
0.0607 0.3099 -0.8368 -0.048 0.946 0.319 66 31 11 0 0
0.0606 0.3106 -0.8397 -0.215 0.927 0.308 68 31 9 0 0
0.0603 0.3115 -0.8425 -0.254 0.965 0.063 72 33 7 0 0
0.0593 0.3168 -0.8466 -0.201 0.944 0.263 79 37 10 0 0
0.0610 0.3030 -0.9018 0.011 0.994 -0.113 75 43 27 0 0
0.0610 0.3026 -0.9053 0.129 0.985 0.116 73 41 25 0 0
0.0611 0.3010 -0.9192 -0.022 1.000 0.012 88 60 38 0 0
0.0475 0.3707 -0.9994 -0.309 0.865 0.395 76 35 10 0 0
0.0461 0.3772 -1.0215 -0.322 0.937 0.137 80 39 11 0 0
0.0456 0.3792 -1.0300 0.040 0.982 0.184 92 54 25 0 0
0.0446 0.3832 -1.0469 -0.073 0.975 0.209 107 73 46 0 0
0.0957 0.2060 0.0937 -0.913 0.231 -0.337 182 181 184 0 0
0.0794 0.2689 -0.2557 -0.128 0.992 0.005 69 42 31 0 0
0.0794 0.2689 -0.2587 -0.128 0.992 0.005 70 44 31 0 0
0.0792 0.2694 -0.2616 -0.104 0.980 -0.172 70 44 31 0 0
0.0791 0.2697 -0.2646 -0.234 0.971 0.056 70 44 31 0 0
0.0835 0.2377 -0.3591 0.449 0.826 0.340 58 38 24 0 0
0.0865 0.2124 -0.4690 0.772 0.631 -0.080 94 71 55 0 0
0.0843 0.2163 -0.5809 0.002 0.990 0.140 79 47 24 0 0
0.0846 0.2142 -0.5848 -0.158 0.985 -0.074 81 49 26 0 0
0.0849 0.2121 -0.5887 -0.086 0.996 -0.014 82 50 27 0 0
0.0849 0.2118 -0.5920 -0.174 0.980 -0.094 79 47 24 0 0
0.0844 0.2144 -0.5945 -0.152 0.986 -0.072 78 43 23 0 0
0.0818 0.2277 -0.6131 -0.447 0.878 -0.173 86 50 26 0 0
0.0845 0.2097 -0.6452 -0.239 0.789 -0.566 74 38 15 0 0
0.0852 0.2053 -0.6499 -0.465 0.827 -0.315 75 40 19 0 0
0.0792 0.2321 -0.7359 0.021 0.976 0.217 52 23 9 0 0
0.0693 0.2822 -0.8040 -0.479 0.838 -0.262 56 24 9 0 0
0.0690 0.2835 -0.8066 0.243 0.959 0.149 56 24 10 0 0
0.0654 0.3022 -0.8211 -0.014 0.913 0.408 55 26 12 0 0
0.0627 0.3151 -0.8476 -0.120 0.988 0.100 82 40 12 0 0
0.0630 0.3133 -0.8517 -0.342 0.937 -0.071 85 41 13 0 0
0.0632 0.3049 -0.9438 -0.261 0.935 0.239 54 27 10 0 0
0.0509 0.3688 -1.0007 0.113 0.943 0.314 74 33 9 0 0
0.0486 0.3797 -1.0268 -0.216 0.973 0.082 86 47 14 0 0
0.0485 0.3798 -1.0299 -0.114 0.991 0.065 89 52 22 0 0
0.0489 0.3722 -1.0993 -0.181 0.974 0.139 51 25 15 0 0
0.0488 0.3726 -1.1023 -0.269 0.945 0.188 54 24 9 0 0
0.0978 0.2107 0.0905 -0.929 0.224 -0.293 182 182 185 0 0
0.0984 0.2074 0.0877 -0.925 0.340 -0.171 182 181 183 0 0
0.0957 0.2112 -0.0587 -0.047 0.731 0.681 48 39 38 0 0
0.0875 0.2543 -0.0807 -0.019 0.973 0.229 74 48 37 0 0
0.0794 0.2913 -0.1842 -0.035 0.875 -0.483 62 40 33 0 0
0.0798 0.2888 -0.1874 -0.631 0.656 -0.414 62 40 33 0 0
0.0879 0.2159 -0.5553 0.548 0.830 0.101 84 53 33 0 0
0.0878 0.2131 -0.5951 0.595 0.789 0.154 84 51 29 0 0
0.0877 0.2134 -0.5983 0.502 0.859 0.103 86 52 31 0 0
0.0875 0.2143 -0.6013 0.511 0.859 -0.019 86 53 31 0 0
0.0875 0.2142 -0.6045 0.511 0.859 -0.019 86 52 30 0 0
0.0875 0.2141 -0.6078 0.504 0.856 -0.116 87 53 32 0 0
0.0875 0.2137 -0.6113 0.504 0.856 -0.116 87 53 31 0 0
0.0876 0.2109 -0.6417 -0.370 0.859 -0.353 76 42 19 0 0
0.0887 0.2041 -0.6506 -0.528 0.786 -0.323 74 40 20 0 0
0.0843 0.2264 -0.6725 -0.060 0.997 0.051 64 32 13 0 0
0.0842 0.2268 -0.6756 -0.032 0.997 0.063 64 32 14 0 0
0.0814 0.2405 -0.6968 0.179 0.938 0.298 60 28 14 0 0
0.0675 0.3017 -0.9063 -0.107 0.994 -0.033 74 44 24 0 0
0.0676 0.3005 -0.9102 -0.284 0.943 -0.175 81 51 29 0 0
0.0679 0.2980 -0.9180 -0.348 0.934 0.087 94 66 43 0 0
0.0671 0.3022 -0.9225 -0.020 1.000 -0.001 97 69 46 0 0
0.0665 0.3053 -0.9308 0.158 0.979 0.129 88 58 36 0 0
0.0539 0.3694 -1.0007 -0.368 0.858 0.359 73 32 9 0 0
0.0539 0.3692 -1.0040 0.280 0.951 -0.132 74 32 9 0 0
0.0519 0.3789 -1.0211 -0.200 0.976 0.081 74 32 6 0 0
0.0518 0.3791 -1.0242 -0.149 0.989 -0.010 77 36 7 0 0
0.0516 0.3799 -1.0269 -0.114 0.991 0.065 83 44 12 0 0
0.0515 0.3801 -1.0300 -0.114 0.991 0.065 86 49 19 0 0
0.0519 0.3728 -1.0993 -0.198 0.969 0.145 51 24 15 0 0
0.1004 0.2128 0.0875 -0.925 0.340 -0.171 182 182 184 0 0
0.1006 0.2118 0.0845 -0.925 0.340 -0.171 182 182 184 0 0
0.0907 0.2536 -0.0808 0.217 0.930 0.298 79 53 40 0 0
0.0912 0.2508 -0.0839 0.341 0.926 0.165 74 47 34 0 0
0.0779 0.3178 -0.1553 -0.256 0.966 -0.039 69 47 36 0 0
0.0870 0.2516 -0.3753 0.476 0.733 0.486 56 34 25 0 0
0.0764 0.3063 -0.4186 -0.130 0.970 0.204 75 34 12 0 0
0.0957 0.1964 -0.4766 0.811 0.573 -0.122 79 56 41 0 0
0.0901 0.2151 -0.6372 0.688 0.719 0.098 78 47 26 0 0
0.0904 0.2130 -0.6412 0.610 0.774 0.171 77 45 26 0 0
0.0912 0.2081 -0.6494 0.173 0.975 0.141 74 42 23 0 0
0.0913 0.2074 -0.6530 -0.298 0.954 0.034 73 41 23 0 0
0.0879 0.2246 -0.6733 0.343 0.893 0.292 66 35 18 0 0
0.0690 0.3135 -0.8618 0.148 0.974 0.174 101 70 42 0 0
0.0683 0.3170 -0.8698 0.135 0.980 -0.144 89 61 39 0 0
0.0699 0.3059 -0.9013 -0.335 0.902 -0.271 75 43 27 0 0
0.0700 0.3048 -0.9051 -0.153 0.948 -0.278 76 45 24 0 0
0.0704 0.3017 -0.9230 0.057 0.978 0.202 103 75 53 0 0
0.0700 0.3032 -0.9288 -0.131 0.922 0.365 95 65 44 0 0
0.0694 0.3055 -0.9408 -0.191 0.980 0.061 55 26 12 0 0
0.0692 0.3065 -0.9436 -0.236 0.972 0.006 56 27 10 0 0
0.0563 0.3717 -1.0126 0.253 0.905 0.342 73 31 7 0 0
0.0548 0.3795 -1.0210 -0.200 0.976 0.081 79 37 11 0 0
0.0548 0.3791 -1.0277 0.013 0.999 0.032 83 44 15 0 0
0.0545 0.3776 -1.0673 0.073 0.991 -0.112 92 62 39 0 0
0.0535 0.3790 -1.1251 0.152 0.979 0.138 95 64 36 0 0
0.1025 0.2176 0.0784 -0.960 0.269 -0.076 181 182 183 0 0
0.1023 0.2184 0.0755 -0.964 0.267 -0.015 181 182 182 0 0
0.1023 0.2180 0.0696 -0.964 0.267 -0.015 181 181 183 0 0
0.0940 0.2520 -0.0780 0.299 0.857 0.419 81 57 45 0 0
0.0917 0.2509 -0.2678 0.515 0.727 -0.454 70 44 31 0 0
0.0824 0.2917 -0.4008 -0.209 0.731 0.650 65 34 19 0 0
0.0954 0.2024 -0.6549 0.515 0.834 0.198 77 50 34 0 0
0.0951 0.2038 -0.6577 0.476 0.845 0.245 75 46 32 0 0
0.0947 0.2058 -0.6603 0.505 0.814 0.287 72 44 29 0 0
0.0711 0.3191 -0.8659 -0.040 0.932 -0.359 94 63 42 0 0
0.0729 0.3064 -0.9013 0.088 0.964 -0.250 76 45 26 0 0
0.0730 0.3039 -0.9287 0.061 0.966 0.251 91 61 41 0 0
0.0719 0.3089 -0.9426 0.174 0.942 0.287 56 27 11 0 0
0.0720 0.3081 -0.9463 0.264 0.843 0.469 62 32 14 0 0
