ply
format ascii 1.0
element vertex 678
property float x
property float y
property float z
property uchar diffuse_red
property uchar diffuse_green
property uchar diffuse_blue
end_header
-0.11111538570508428 0.13877321693650235 -0.42659915519267294 72 44 23
-0.111796146494544 0.1391045367080346 -0.4294982021213207 75 47 26
-0.12551867816492868 0.14791429406862755 -0.4281227250332796 75 47 27
-0.12341294724546772 0.1464348732967764 -0.4319139019360741 76 53 33
-0.11673595477478238 0.14198269146225545 -0.4372311282772714 78 61 44
-0.11403411728027638 0.14011457334265082 -0.44125050026297097 89 77 68
-0.1116238072675755 0.1384356087870493 -0.4451846523232696 102 92 86
-0.1059489560010156 0.1346328368597779 -0.4502318193381396 139 136 132
-0.11456756585497926 0.1401272810832987 -0.45045229648951324 185 184 184
-0.11360917971987514 0.13939222505094523 -0.4539101564644244 184 184 185
-0.11513084410091684 0.14027061037697902 -0.4565224980514047 182 183 185
-0.07798228827982073 0.11598560399050586 -0.4724809937154957 183 184 186
-0.23259581538451354 0.2121861385160844 -0.5428705483956947 195 196 198
-0.2303980141344837 0.2106427949439185 -0.5468060765472961 195 196 198
0.015558065858687978 0.04959898349219277 -0.6596428202702186 196 197 199
-0.044679369718042074 0.08886792450775657 -0.6368497482269847 197 198 200
0.006258045543729454 0.05543244131506483 -0.662558046502264 198 199 201
0.04890311441927145 0.027413697617749935 -0.6848216554997708 198 199 201
-0.060839452488956586 0.09907849393495036 -0.6398349981114767 199 200 202
-0.06871779313859334 0.10411358064760083 -0.6396837136280962 199 200 202
-0.07264198225640027 0.1065624034579295 -0.641268379754627 200 201 203
-0.0744255957727422 0.10761091557412034 -0.6437995245347868 201 202 204
-0.013150154064524341 0.06738914389737945 -0.6747359781476903 202 202 204
-0.013144020016996077 0.06726199239557035 -0.6781947644236459 204 204 206
-0.012946178553622775 0.0670092614161634 -0.6817430681510186 205 205 207
-0.010072646873117527 0.06500467165769623 -0.6865162642264643 205 205 207
-0.10984205362252639 0.13020626161505144 -0.6442277384581295 206 206 208
0.003188436000846284 0.05494786403734181 -0.7311604260486355 209 209 211
0.001242916613807682 0.056097764600828694 -0.733747019772277 209 209 211
0.0034969876981164744 0.05449447483917165 -0.7383567714057507 209 209 211
0.026821783786419015 0.039074582628867816 -0.7531999463516492 208 208 208
0.022833580768230638 0.041562475622582806 -0.7548350654287449 209 209 209
0.01939954361355059 0.043687413282356855 -0.7567273949767119 209 209 209
0.01538710458631666 0.046192153454418544 -0.7583239392826606 209 209 210
0.011330792371071846 0.04872617393087594 -0.7598848181164037 209 209 211
0.007471040592622047 0.05113174342819605 -0.7615288498189151 209 208 210
0.004954701906955475 0.05265631913383065 -0.7638276992760846 209 209 211
0.0007132842789261962 0.05531320292131255 -0.7652569976908865 208 207 208
-0.0034397509634147283 0.05791261734897439 -0.7667156033391332 201 202 201
-0.008583716107545769 0.061162964786061716 -0.767660514741103 184 183 181
-0.01031841576264951 0.06217601308528877 -0.7703105545695365 156 151 147
-0.012211129101243667 0.06329296770158013 -0.7728756344171466 130 123 117
-0.015115797365148023 0.06507454767356162 -0.7749194551413007 118 106 99
-0.0175585967106638 0.0665531791142319 -0.7771901039688106 111 96 87
-0.02062940737131312 0.06844451851932178 -0.7791303404433229 105 88 77
-0.023243433814620393 0.07003620620083159 -0.7812959840466108 99 81 68
-0.03052269356209035 0.07469268361814796 -0.781036463626934 97 76 63
-0.030900932470773496 0.07481650909687074 -0.7843384902942294 95 72 59
-0.031021408943382484 0.07477094824856725 -0.7877759498293441 92 69 55
-0.03352743370397121 0.07629286243793319 -0.7899646913775339 89 66 52
-0.027598903636761027 0.07227209520692314 -0.7965847466406132 86 63 49
-0.042541050301317926 0.08196756460801827 -0.7922037833889316 83 60 46
-0.04642843499970857 0.08439862698686981 -0.7936274523487484 81 58 44
-0.04761098212673644 0.08505203161908301 -0.7964778311706511 81 58 44
-0.04956241132430614 0.08621104273432145 -0.7989146169819696 81 57 43
-0.05450383463691402 0.08933630965391938 -0.7997409081429584 81 55 42
-0.04652328207524899 0.08396450204876807 -0.8075113122004958 80 54 41
-0.032492074612822566 0.07461195626676326 -0.8185900343629007 80 54 41
-0.10139924566023634 0.11981131995197623 -0.784697131442418 80 54 41
-0.09970967270368182 0.11857942711167135 -0.7889978827542838 80 54 39
-0.10050329989946054 0.11898093488217099 -0.791949365253124 80 54 39
-0.09923005781466124 0.11802249915108023 -0.7960350479372653 80 54 39
-0.09102335997000137 0.11250113220532804 -0.8039509343974243 81 53 39
-0.08886804744314963 0.11096110881326723 -0.8085545997296483 82 55 41
-0.09208006463080087 0.11295352745847351 -0.810188067763352 82 57 44
-0.08449381711110027 0.10783797465729766 -0.817831547648992 82 58 45
-0.07137199233767236 0.09907678741472979 -0.8286074401209611 82 57 45
-0.07015291792701772 0.0981507692733322 -0.8327538637589396 81 58 45
-0.0905093162337392 0.11143219455708002 -0.824741515104218 85 63 49
-0.08724046303230551 0.10915729826242848 -0.8300178047790397 86 64 51
-0.10346527956274133 0.11972156579803904 -0.82423590164154 88 66 54
-0.10951114899951174 0.12358293321055655 -0.824192155985813 91 69 60
-0.11529316438857085 0.12727129353954778 -0.8242763142178536 95 75 66
-0.10423487201031381 0.11986457897055099 -0.8340117623939579 97 77 67
-0.10623432525170977 0.12106067878693795 -0.8362681043861002 96 76 65
-0.09208148510790473 0.11161203203378907 -0.8478646012106967 96 77 65
-0.09894834515301953 0.11601551847351813 -0.8473161763658259 96 76 63
-0.0996880294477039 0.11638099456818882 -0.8503123801952595 96 74 58
-0.0971889110043355 0.11461127436339544 -0.8552024351464046 93 65 44
-0.09652592457679315 0.11405172508724745 -0.8590274767826562 90 58 34
-0.09611050339425396 0.11365523878413007 -0.8627118442773694 90 56 30
-0.0991396579588843 0.11553026573367016 -0.8643635104776108 88 54 28
-0.10384763894627519 0.11851296007151052 -0.865008440043441 88 58 30
-0.10835301584690561 0.12136263515054828 -0.8657564465452768 92 65 43
-0.12026479418114233 0.12909902927172442 -0.8620610109955641 98 73 54
-0.11892611143304732 0.12809459606038945 -0.8662651006285313 97 76 60
-0.10916438295344624 0.12153178112324271 -0.8755473793108152 94 76 61
-0.10812256613323135 0.12072204969497721 -0.8796061854716994 94 76 62
-0.10884035503619163 0.12107344875405825 -0.8826051555973391 92 75 61
-0.10874562435384555 0.12088853138064165 -0.8860977321880549 91 73 59
-0.1070611338594678 0.11965400093942817 -0.8905635804873455 86 68 54
-0.10676611105439987 0.11933652107213062 -0.8941878405412491 80 63 48
-0.10575921156581997 0.11854884216283176 -0.8982533667101549 77 60 45
-0.1052455326927595 0.11808664688149745 -0.9020213506328573 74 56 42
-0.10392437907351895 0.11709097035969541 -0.9062937617276818 71 52 38
-0.10556484503507847 0.11805130924918347 -0.9087346685304688 73 54 41
-0.1061070630653414 0.11828627910367087 -0.9118554783781495 82 63 52
-0.10959074231015131 0.12046468161344526 -0.9131367354665397 88 70 57
-0.11007108513031666 0.12065898365877566 -0.9162902536864747 90 72 59
-0.10651463849164619 0.11818553229008277 -0.9219861219090546 90 72 58
-0.111493188604747 0.12135251653178816 -0.9223068006724228 90 72 57
-0.09199340956649696 0.10833975386705223 -0.9381278371290842 88 71 55
-0.09644470730072197 0.1111576559263807 -0.9387985977564456 84 66 50
-0.08853153899343003 0.10580122139050668 -0.9473449406136045 83 62 46
-0.08436912453870538 0.1029236344056141 -0.9535256060223715 86 60 44
-0.12321382024335178 0.12848664512741897 -0.9320898385374935 86 60 43
-0.11875194604115086 0.12541284666063557 -0.9384116827054947 89 67 48
-0.11948176780519516 0.12577242985982695 -0.9413965603223066 92 73 57
-0.12505553161435626 0.12933653621239313 -0.9412365915737981 92 74 60
-0.1311090995334982 0.13321886431231786 -0.9407424960224048 96 77 65
-0.1365000439413013 0.13666357990276656 -0.9406576066944923 96 76 65
-0.1378298439419837 0.13742146270819502 -0.9432141607933472 95 75 64
-0.13801504520983213 0.13742190584465522 -0.9465202037269996 93 74 61
-0.13374774252397628 0.1344750334705164 -0.9527660553044628 88 69 54
-0.12651654243686725 0.12956528623126806 -0.9609951175059938 85 66 51
-0.12055102986125629 0.12549233060688408 -0.9684172569456911 82 63 48
-0.13280696827749028 0.1334839666520523 -0.9637248159393189 83 64 49
-0.1259451722017376 0.1288168447245388 -0.9717633035397918 84 65 50
-0.12955576406391256 0.1310846404552223 -0.9728096561810038 85 66 52
-0.14568000091751437 0.1416419105553609 -0.9654219360704804 85 66 52
-0.1459787250149118 0.14171759470036713 -0.9686503562293004 86 66 54
-0.14347959277968622 0.13993951317698 -0.9737748370009025 88 68 57
-0.1525736344193812 0.14584294118503013 -0.9710354703133556 90 70 59
-0.15463437425844936 0.14708667370069867 -0.9730530769493236 92 72 61
-0.1560421704491317 0.147897879324956 -0.9755106003898234 92 72 61
-0.15794988849016042 0.1490405980376726 -0.9776214300469397 92 72 61
-0.16869395122365918 0.1560415048167021 -0.9736451448373464 93 73 62
-0.17300181298028017 0.1587766763194252 -0.9740677427599117 92 72 61
-0.15387987513448229 0.14597620136482103 -0.9907008543144086 91 71 60
-0.14611218836420195 0.14070251349657353 -0.9995315605147987 91 71 60
-0.13554606529481367 0.13357145346188812 -1.0103491571274652 92 72 62
-0.1397631769361858 0.13624483966982517 -1.0108797699315393 92 72 63
-0.14798751842956398 0.1415772332846641 -1.0085838464967751 92 72 63
-0.15510398216162716 0.14617576347163147 -1.0070336844050802 92 72 61
-0.16487480068219346 0.15253666202442595 -1.0035813693827798 87 69 56
-0.16761438787367897 0.15423276605545108 -1.0050662387910392 83 59 46
-0.1700959437700771 0.15575795220908006 -1.0067247088456537 78 48 32
-0.17290931379021193 0.15750370046540368 -1.008138296832418 74 39 17
-0.17393061331383963 0.15806008429723017 -1.0108224371394243 74 38 12
-0.17816702184718708 0.16075124265136045 -1.0112000142919326 74 38 12
-0.18394989258678374 0.1644698903079399 -1.0104494396254933 74 38 12
-0.18067175118668427 0.1621717968867752 -1.016210363300155 75 39 13
-0.16315863118467916 0.15041829878584626 -1.0322856787802508 77 40 14
-0.16850531981827216 0.15384712707548454 -1.0318537049225454 80 43 17
-0.17038963699164217 0.15497647571089954 -1.0339204835565503 80 43 17
-0.18368703995948338 0.16368925128816633 -1.0276493887885103 81 43 19
-0.18412211370206083 0.16385688513904834 -1.0307402478171006 84 49 26
-0.185512293178039 0.16465925499878256 -1.0331300997699167 84 52 30
-0.18726710829641272 0.1657041204310642 -1.035247577681069 82 53 31
-0.18937131171286106 0.1669814325464126 -1.037101513174423 82 54 32
-0.19403267949119102 0.16995906447177794 -1.0370533004081648 82 54 33
-0.1965951095645931 0.17154175163456695 -1.0385470410799629 82 55 34
-0.18978207928037993 0.16689020965245246 -1.0470220511605053 82 56 36
-0.18956108733863253 0.16662163600665414 -1.0506001873203987 83 58 38
-0.1877775468628618 0.16531361954215948 -1.0553537300253613 83 58 41
-0.18912598349620585 0.16608870012557958 -1.0577615382947325 83 59 41
-0.18391703644155916 0.16250125534677365 -1.065113408072022 83 60 43
-0.18567680704069348 0.16354976410736455 -1.0672174239891554 81 59 42
-0.18047466535913284 0.15996556937889445 -1.0746000165178133 76 57 42
-0.18009838511983903 0.15959227582483362 -1.078334781427144 71 53 39
-0.18101431808924107 0.16007896103900593 -1.0810871350712525 62 45 34
-0.18106938239676026 0.15999262218420604 -1.0844970198341624 52 35 26
-0.181038409287101 0.15984892205141832 -1.0879751960534816 49 32 24
-0.18100749061286903 0.1597051652514597 -1.0914559381088307 56 38 30
-0.18246584707078192 0.1605530871028793 -1.0937889164234194 64 45 35
-0.18351170146860468 0.1611264186831364 -1.096437372810385 69 47 35
-0.1839772834311449 0.16131330866231577 -1.0995344332368093 70 46 33
-0.1839393697971171 0.16116476493539206 -1.103024190228712 70 44 30
-0.18528710487821598 0.1619393336265617 -1.1054337949423534 71 43 28
-0.18734021784301622 0.16318405442809197 -1.1072870037121927 72 44 25
-0.1871462197323159 0.1629314883422842 -1.1108995455577428 75 47 25
-0.18808552644287999 0.16343415526495256 -1.113622164819696 82 52 29
-0.18979408130507597 0.1644496540670022 -1.1157349590138002 83 56 34
-0.1909581910309205 0.16510237688030982 -1.1182741083804848 84 59 38
-0.1921856116590628 0.16579741114146843 -1.120760143263127 83 59 41
-0.19257508973087872 0.16593379247528395 -1.1239111570160818 79 56 38
-0.19020269821669927 0.16422823702488207 -1.1292710550645026 80 57 39
-0.19485032194476848 0.16720447644580932 -1.1290156558728335 81 58 39
-0.18836049508320382 0.1627519308754 -1.137696768762857 83 60 41
-0.19038632974795192 0.16397946893775095 -1.1395434578303758 83 61 43
-0.19397280400666678 0.16624855262457852 -1.1401215171144305 83 62 44
-0.19409070496293415 0.16620350833696973 -1.143498329886549 80 62 45
-0.19364521022572773 0.16578238787237604 -1.1473352269861148 79 63 47
-0.19389621785085911 0.1658260032289393 -1.1506087107255465 89 80 64
-0.19514753090061662 0.16653732917414651 -1.1530656051365873 111 107 94
-0.19667505782691572 0.1674331795659128 -1.1552928099363038 143 142 131
-0.17150873147731802 0.15050523006947808 -1.1794648985329819 166 164 161
-0.20004384189598173 0.16943486638669003 -1.1594751388686004 179 179 178
-0.20080474241092156 0.16981920512142884 -1.1623220916795431 186 185 186
-0.20208615802895444 0.17055126280234575 -1.1647365037902435 189 189 188
-0.19477777508376612 0.16554508084780972 -1.1742891701554916 193 193 191
-0.1944169995079335 0.16517948774721475 -1.178085626525139 195 195 193
-0.1832413733916175 0.15758718954700748 -1.1909273439053911 197 197 195
-0.19203368724152164 0.1633373190074103 -1.187084100798972 199 199 197
-0.2952686208452113 0.23221143233175223 -1.1038168306163705 200 200 198
-0.29750120847248684 0.23358712313073587 -1.105210039535713 201 201 199
-0.2989590469397848 0.23444514906746128 -1.1072501500639513 202 202 200
-0.02795667078427845 0.10840885086012964 0.11243816786589125 182 182 182
-0.03235059673422732 0.11110078803212517 0.10948556895330651 182 183 179
-0.027063252269468305 0.10763501198697863 0.10661371890019788 182 182 180
-0.02518843513228916 0.10633941932581567 0.10370393444531534 182 182 181
-0.02330853836309054 0.10504030255250307 0.10078587384919876 181 182 184
-0.004450482160321817 0.09293811820568956 0.09788992810374567 179 182 181
-0.02144197426901527 0.10364591825349509 0.09492466192931706 171 169 166
-0.03283489633393709 0.11079281194943447 0.09200694587350368 139 130 123
-0.03496849602559463 0.11204786446691944 0.08909538654210117 120 104 91
-0.03687529148294158 0.11315874759002978 0.08618821696452088 114 92 77
-0.040251326991979065 0.11520508695064793 0.08329588448016133 107 81 61
-0.04167012398785794 0.1160057167245589 0.08039661777859229 103 74 52
-0.042558060157315794 0.11646845548850349 0.07749496481811927 105 76 53
-0.04446797495329134 0.11758199630431251 0.07460687902217603 99 71 47
-0.046316198531829465 0.11865641988262066 0.07172274267015619 95 66 42
-0.047226210352619175 0.11913347215705469 0.06882863358519163 91 62 38
-0.048135775898528646 0.1196102872163381 0.06593585113851276 89 61 38
-0.07015818306424285 0.13353619121853408 0.06344550382343435 83 56 35
-0.04676720132116882 0.11853327003500967 0.06008818430230974 79 52 33
-0.04558559010983927 0.11767767851684564 0.057146852746413124 78 51 35
-0.04449637168492116 0.1168807491522559 0.05420180840405435 71 45 29
-0.04355574819191345 0.11617831377008042 0.051254987932446885 53 28 12
-0.044681385601275665 0.116792556254555 0.0483602963283639 45 21 7
-0.04572717668766932 0.11735598011960166 0.04546533880995477 43 19 7
-0.04664708367735545 0.11783922447445372 0.04256826276056544 41 18 5
-0.042049764632593384 0.11480528915531953 0.03949078863024019 41 19 7
-0.04233299761675203 0.11488237163476789 0.03656471996692865 42 20 7
-0.04260943952570062 0.11495509363349662 0.03363754322524234 42 20 7
-0.05391538750304648 0.12206112802749733 0.03113074457995359 43 21 8
-0.04346364544741994 0.11529261099100155 0.02779256995983338 43 21 8
-0.043472684918395434 0.11519470651737368 0.024852112983057385 43 21 8
-0.04348093066375704 0.11509623140232038 0.021909796142396284 44 22 9
-0.044025351162072235 0.11533973460209943 0.018989888656759296 43 21 8
-0.04540294600728713 0.11611479945028659 0.01610916185662687 41 20 7
-0.04630116761104665 0.11658410262861624 0.013208059284123587 41 19 7
-0.04689521385252589 0.11685935191702446 0.010292898920605342 43 21 8
-0.04769181726309913 0.11726387705894831 0.00738854762187873 43 23 9
-0.04852959340867237 0.11769471352749425 0.004487360774344053 41 22 8
-0.048499373328926086 0.11757154316786966 0.0015388604252235608 43 24 9
-0.04806306731830661 0.11718907192394759 -0.0014349717837697888 43 24 9
-0.04831873254181102 0.1172482543777549 -0.004371184966010803 41 22 8
-0.04815008295092348 0.1170364818936753 -0.0073342710104288035 41 22 8
-0.0482452923478315 0.1169931102507838 -0.010283248476598544 42 23 8
-0.049854104222832235 0.1179162933076584 -0.0131360040575653 41 22 8
-0.049485878578711506 0.11757692229412105 -0.01611613069559339 43 23 12
-0.05039951975415387 0.1180562181839093 -0.019012108638247035 38 19 10
-0.051865076595416865 0.11888812673452637 -0.02186815175481498 37 18 10
-0.050844082452037524 0.11813158339535569 -0.02489908298162372 35 17 7
-0.04956907150141588 0.11721254807990572 -0.027954167303457476 34 16 6
-0.0505288251600728 0.117721277849432 -0.030847570724755243 35 17 7
-0.05126764185063787 0.11808887111966543 -0.03375646046987875 34 17 7
-0.04292191384844517 0.11265042551766813 -0.037380158322243534 32 15 7
-0.03967395086826334 0.1104692429564628 -0.040624821092293914 33 16 8
-0.04056433886651041 0.11093298545385448 -0.043542259261426575 38 21 13
-0.03906116588043107 0.10986656267780673 -0.046659731712654126 42 30 24
-0.022321984774257016 0.09905850691887344 -0.051092958563759665 139 133 130
-0.017053562881608322 0.0955830085966487 -0.05458217792452156 146 144 145
-0.010330996439116176 0.09117686747907335 -0.05822218170224397 81 78 78
-0.012174644822479389 0.09224836959962274 -0.06110660420757174 59 54 52
-0.020780263739553568 0.09764510624193982 -0.06335741348679223 45 37 36
-0.02911832693081444 0.10287170822053097 -0.06560478470052224 35 24 24
-0.03076437732048032 0.10381812479337754 -0.06847066764149037 45 33 32
-0.04011576242682302 0.10969460040966533 -0.07057454443477189 56 38 36
-0.05454907768521493 0.11882395823745051 -0.07213782030487631 68 45 39
-0.061784658955296806 0.1233490088902082 -0.0743851983419634 72 52 40
-0.06890020110487372 0.12779808214779706 -0.07662100103402401 78 58 47
-0.07169029600946941 0.12947944824123941 -0.07928971491891557 80 60 49
-0.07687721163916938 0.1326953580506144 -0.08169303216859385 80 62 50
-0.08273619723948539 0.13634210709510136 -0.08400626604979643 72 53 42
-0.0823479499167119 0.13598975006494557 -0.08699335579690218 64 43 32
-0.08458518899826328 0.13731840771084483 -0.08968775077084798 65 43 30
-0.08694744881989405 0.1387273428990441 -0.09236166170480496 64 40 28
-0.08726312150360972 0.13882579768766337 -0.09526703083954327 74 56 44
-0.08817366970293374 0.1393052453340376 -0.09810287199634835 73 56 48
-0.09194120453549162 0.14161483034257355 -0.10059466494390622 63 44 35
-0.09547567753473862 0.1437755217362462 -0.10310312439911133 69 48 39
-0.09797103459215256 0.14527084215528946 -0.1057290830312854 75 55 48
-0.10617300303504404 0.15042296363383584 -0.10763259304909002 73 54 47
-0.11764916944459142 0.15767423683943346 -0.10909200457545636 77 58 51
-0.12108680979460687 0.1597751430678669 -0.11154846327737897 75 58 50
-0.11920849390018505 0.15846917096368177 -0.11468952763451876 75 58 50
-0.12790465505474732 0.163941258063888 -0.11643724326641419 89 72 64
-0.12906905960408233 0.16458596453291646 -0.11916754697299729 105 88 79
-0.12942125139544017 0.1647100127625531 -0.12200611266245916 119 102 92
-0.12954954597740434 0.16469047700863632 -0.1248761573094461 89 70 58
-0.13093651106477094 0.1654780367832146 -0.12757158091463494 81 55 39
-0.13769433720254132 0.16971021136436354 -0.12950301409378642 73 44 28
-0.13926675769597016 0.17061729000747383 -0.13215570080825628 70 41 25
-0.13441207612190936 0.1674017778147614 -0.1357383204831126 63 36 19
-0.12719184725912047 0.16266802233193606 -0.1396884603882309 56 29 13
-0.12448108178689195 0.16082649231430787 -0.14299515154678094 53 27 11
-0.12483377008986114 0.16095022041919566 -0.1458517609251689 56 35 19
-0.12780771318667491 0.16275603058089286 -0.14830901128292595 58 40 29
-0.13737650100321963 0.16879460287855166 -0.14973902082374363 58 43 35
-0.1337844441742148 0.1663871145723156 -0.1531920631492365 61 46 39
-0.12841466491515896 0.16283796057468675 -0.15694107396140822 62 50 44
-0.12262458784856334 0.15901822819552616 -0.16077878746276925 61 50 44
-0.12041169505215113 0.1574943733705184 -0.1640610851728063 59 48 43
-0.11961061489097222 0.156876695818301 -0.16712247791358414 59 48 42
-0.11805077876757636 0.15577159953881736 -0.1703141761628293 58 47 42
-0.12120682567720426 0.15769492762555554 -0.17272495075153352 59 48 42
-0.13056179358874914 0.16360014540614187 -0.1740781643031823 60 49 43
-0.11029994596855398 0.1504817984169774 -0.18045979351421487 60 49 43
-0.09982152460274873 0.1436458933043617 -0.1852279917455234 61 50 44
-0.10072232632563297 0.14411961427544254 -0.18805034773327084 61 50 44
-0.09925173170448638 0.1430696290296276 -0.19128960999816555 61 50 44
-0.09716348469576827 0.14162246871399048 -0.1946462962435303 61 50 44
-0.13700529293179667 0.16712282156718378 -0.19046217061662885 61 50 44
-0.12513123717667954 0.15938786973273755 -0.19554103586718824 62 51 45
-0.10513780002247915 0.14643204148224548 -0.20215757530965628 62 51 45
-0.09786793448457157 0.14165328550962758 -0.2064882563459705 62 51 45
-0.09810651566667114 0.14170104013266002 -0.2094402589533051 63 52 46
-0.09893638155793041 0.1421289599345359 -0.2122813942962898 65 54 48
-0.0976741236633549 0.14121152445115323 -0.21552130342032497 67 56 50
-0.09850119372256437 0.14163758902607992 -0.21836459844722306 68 57 51
-0.09875998966735658 0.1416981751946881 -0.22131750526366775 67 56 50
-0.09711591581488314 0.14053466381426602 -0.22464569090979164 65 54 48
-0.08501993270148983 0.13264676669508213 -0.2300571479283065 65 54 48
-0.09690447316384229 0.140186350058473 -0.23070961663232017 68 56 50
-0.09740345835622569 0.14040117831858528 -0.23362279341980063 68 55 49
-0.09402030666270098 0.13811771790928512 -0.23732848522206215 68 55 49
-0.09399921215204499 0.13799756171283462 -0.2403562092287603 67 54 47
-0.09095883573795513 0.1359339289022909 -0.24401348715045 68 53 46
-0.08942337279764276 0.13483858599624698 -0.2473684733763226 69 54 47
-0.08244676161357178 0.13023998413873822 -0.2518822583896774 69 54 47
-0.07878286549545899 0.1277733255593592 -0.25571701674791525 68 54 46
-0.07613040192975594 0.12595740421125445 -0.2593496776598495 67 54 45
-0.07434771032780013 0.12470119067014887 -0.262805357963821 66 53 44
-0.07005882855543569 0.12183053864625709 -0.2668185849588376 66 52 43
-0.06440027078503995 0.11807700941208246 -0.2711523734227643 65 51 43
-0.071863337752227 0.12277548785899067 -0.2725864611247855 67 53 45
-0.07787073020229124 0.12653705169367957 -0.2743216299330162 68 53 46
-0.07509249832094061 0.12463856392817818 -0.27802620943169143 68 53 47
-0.057201527646290454 0.11300116706836966 -0.28519443062972016 70 55 50
-0.058755719365946334 0.11389285464835824 -0.2879546691330832 73 58 53
-0.06586833441794256 0.1183671932655714 -0.28942092466742686 67 52 47
-0.06822556004439032 0.11977714086847605 -0.29197524299165917 63 50 44
-0.07082821228423174 0.12134554390322937 -0.29446485089536545 62 47 41
-0.06802856839575873 0.11943125734793068 -0.29823108716750046 57 42 37
-0.0707421345853825 0.12107136478189327 -0.3006887636150545 61 45 39
-0.06675210679804562 0.11838893741867379 -0.3047572350821755 65 48 40
-0.06923429119735419 0.1198799545302943 -0.30726748484995464 69 51 43
-0.07085794841107064 0.12081749286232257 -0.30998099614202457 73 55 46
-0.05374294440473838 0.10966778737028318 -0.31732185128863527 71 53 42
-0.05417973397151484 0.10983869905498495 -0.3203581176451707 70 50 39
-0.053936222368089405 0.10957067694961228 -0.3235655050458073 70 49 36
-0.055787357465936924 0.11065412128611421 -0.3262463033553534 68 47 34
-0.060783306566755076 0.11376714138692781 -0.328121151153626 70 50 38
-0.06258552214409341 0.11481957144394327 -0.33079868529969253 77 59 50
-0.06890460818597838 0.11878758496756181 -0.3323038740862971 86 76 66
-0.06432054917657407 0.11571820289848925 -0.33662623545465653 78 71 65
-0.05825202173533724 0.11168978714513578 -0.3413573718046721 93 87 83
-0.04367804718947084 0.10216893933575157 -0.34836053698465796 96 90 87
-0.031887017077745966 0.09444306529762174 -0.35468060052717115 75 69 67
-0.03463907096787393 0.0961072381481808 -0.3571503548511116 66 57 54
-0.036014964098214204 0.09688290979482965 -0.35998315046889895 60 48 45
-0.03772349610372723 0.09787354920477119 -0.36272241848991854 63 47 43
-0.03726455397420556 0.09746418643923688 -0.36605048147058666 59 43 39
-0.039219258049981456 0.09861403043108752 -0.368717244094572 62 47 41
-0.041170495149130015 0.09976182248177279 -0.3713796316996968 71 55 46
-0.05304980140948648 0.10732519186205765 -0.371262872225786 73 57 47
-0.05293263743874933 0.1071373143314243 -0.3744774994900867 74 57 49
-0.055880394732292754 0.10893027177873785 -0.3768266618212321 75 58 50
-0.06156995174842282 0.11249582097306074 -0.37838492919128297 75 58 50
-0.0597677743387609 0.11121898446060396 -0.38207388535967035 74 57 49
-0.04987901961383487 0.10471366783136013 -0.38810836441906965 74 57 49
-0.050590228872360074 0.10506078555556109 -0.3910997430826944 75 58 51
-0.04851294382589991 0.10360472108210998 -0.39490689242623567 71 54 46
-0.06139160929804456 0.11182070578388408 -0.39431682116394645 74 57 50
-0.0684800352068942 0.11629326615616735 -0.3953968781350516 70 53 46
-0.06971157120818121 0.11697811544800005 -0.3982002408614961 72 55 48
-0.08587738461471335 0.1273244754883101 -0.39651410427498446 72 55 48
-0.08277484357155282 0.12520638810906268 -0.4005939655237158 71 54 47
-0.08780006832440466 0.12834699606478114 -0.4022146808644525 73 56 47
-0.09369077462884995 0.13204829326601733 -0.40355312785794245 70 53 43
-0.09828295911134716 0.13490991305493555 -0.40527109217305196 73 55 43
-0.10578379832114262 0.13965476288798756 -0.4060715831510746 80 58 47
-0.11097516422633824 0.14290555373921843 -0.4075657527455657 82 60 49
-0.11306481764141554 0.144148916591665 -0.4100156340276329 86 67 56
-0.11632300417657224 0.14614908386627345 -0.41209043026608694 98 78 67
-0.11623470007446597 0.14598263512468482 -0.41521813565436827 99 77 65
-0.11402411215830617 0.14444169327477624 -0.419026751633639 89 66 49
-0.11215315459548894 0.1431203481023062 -0.42273673472049117 82 55 34
-0.11222316493752774 0.14305592666901246 -0.4258279649035989 70 42 21
-0.1124336833990621 0.14308246494028004 -0.42887525258058884 70 42 21
-0.1265581151272485 0.1521235230484032 -0.42736763982643955 72 44 23
-0.12441696224442227 0.15062715947850494 -0.4311650753160805 74 50 29
-0.11634302485938078 0.1452858792148013 -0.43693859749025016 75 57 38
-0.11695221876387145 0.1455708411610875 -0.43985166931103503 85 71 61
-0.11227087736636676 0.14242672675965387 -0.44453792212362125 91 82 75
-0.10688980832741418 0.13882831770070198 -0.4494803713490476 128 125 121
-0.1178283654198282 0.14580898185232524 -0.448911744663387 184 184 183
-0.11600800631998788 0.14451869357665753 -0.45265408986638367 184 184 185
-0.11490119161811085 0.14369076521005564 -0.4561608581240985 182 183 185
-0.08113509113385456 0.12168312592135504 -0.47093987585860553 183 184 186
-0.1681803297585717 0.17358426770454366 -0.5699146551657508 195 196 198
-0.23092651682943396 0.21435337217441142 -0.5460485670562503 195 196 198
-0.028241106388481825 0.08194471960452526 -0.6434117205662356 197 198 200
0.02660031192064846 0.04608009048390467 -0.6708415619499319 198 199 201
0.052737189678547125 0.028918689416674387 -0.6858624313627288 198 199 201
0.09918638861348826 -0.0014885643581014768 -0.7099708135531952 199 200 202
-0.0773615784940169 0.1133732803797413 -0.6385512627713806 200 201 203
-0.07153660897503916 0.10945762944484486 -0.6444800751668074 201 202 204
-0.007625530158379301 0.0676569075948788 -0.676582676261925 202 202 204
-0.01306641691692556 0.07108377102454458 -0.6775862907158681 204 204 206
-0.023847082440104556 0.07799472947433717 -0.676144896480596 204 204 206
-0.01906028744492301 0.07475060824584959 -0.6817645095091039 205 205 207
-0.024011250582459204 0.07785953281597094 -0.6829434867326063 206 206 208
-0.08675443281738798 0.11868218599347595 -0.6575041264700279 206 206 208
0.0061669594437983866 0.05717872964479282 -0.7248494202845787 208 208 210
-0.0020074051375739282 0.062393611629908266 -0.7244743030447974 208 208 210
-0.002888298160435926 0.06284542358303813 -0.7275587828396503 208 208 210
0.0048653485390367235 0.05765649836794276 -0.7347920306158195 208 208 210
0.0033552591438467394 0.058518861140927636 -0.7375880352777624 209 209 211
-0.0008932445145009016 0.061170704866235354 -0.7390529325859593 209 209 209
0.013115186164509268 0.051892224703587356 -0.7493895195008831 209 209 209
0.009918950754971845 0.05385607756835354 -0.7513761660421155 208 208 208
0.0059430863628365665 0.05632990422000896 -0.752969463939968 208 208 209
0.0021951146921756898 0.058655243403371755 -0.7546612156311503 208 208 210
-0.001310853428887121 0.0608228207413287 -0.756459792915669 207 207 207
-0.0041402408082730074 0.06254843234263531 -0.758582657448942 198 196 196
-0.008272119730794544 0.065126107542166 -0.7600463003700262 177 175 174
-0.011785887933345993 0.06730005009893025 -0.761805114356662 149 145 142
-0.013082424228242545 0.0680241802115128 -0.7646675188392966 130 122 115
-0.013866064594357685 0.06841290381681514 -0.7677861185642761 118 106 97
-0.0159802459446602 0.06967212368957205 -0.7702289374057149 110 96 85
-0.018598284935680318 0.07126123648131971 -0.7724088147712465 105 88 75
-0.026507464709187967 0.07631298702362274 -0.7718743949820861 100 81 66
-0.029791206515148147 0.07833873808518435 -0.7736847514594508 96 77 61
-0.04122282837124683 0.08569776295942003 -0.7712834592652341 92 73 56
-0.04365896715312193 0.08717006732810398 -0.7734933610428771 91 69 54
-0.031110176879311016 0.07883265275116086 -0.7834827039670055 88 66 52
-0.04070262414049973 0.08498985699895271 -0.7819745283083468 87 64 50
-0.04342008048362611 0.08664661206866205 -0.7840301784228552 84 61 47
-0.050989933441093864 0.09148139812578172 -0.7835252025905242 83 60 46
-0.05411811527543953 0.0934081378975153 -0.7853361995000425 82 58 44
-0.05514271978934582 0.09395736143146596 -0.7882515392230071 81 57 44
-0.05325289116545145 0.09259741935987131 -0.7927157665642949 82 57 43
-0.053050982173367914 0.092342988742976 -0.7962885765318155 81 55 42
-0.04798607594099659 0.08890200484608846 -0.8024724129376583 81 55 42
-0.04745715929969874 0.08843269726883007 -0.8062378249343032 79 53 40
-0.020428907136573554 0.0705958640349057 -0.8243285110460637 78 52 39
-0.01979959956772183 0.07005848387435042 -0.82821278270264 78 52 39
-0.06828737518293417 0.10171891987014929 -0.8053537377355688 79 53 38
-0.0703922248905888 0.10297733268916943 -0.8076510033516867 80 54 39
-0.06878304342808796 0.10180074564149727 -0.8119799589044031 80 54 39
-0.07885489734132735 0.10828375056223351 -0.8098835585100341 81 55 40
-0.09786336568465259 0.12062905569697854 -0.8028060530546103 82 57 42
-0.09777963668554267 0.12045443710389808 -0.8062481009297695 83 60 46
-0.09072628115291834 0.1157078052598295 -0.8135757684763575 87 64 50
-0.08131143409179016 0.10941078942276979 -0.8222559119069098 88 64 52
-0.07331041111761119 0.10403994484895222 -0.8301842842642742 86 64 51
-0.09492750461542794 0.11810321728989896 -0.8214614729030267 88 68 55
-0.09129277683586302 0.11559751155492973 -0.826930415843844 89 69 55
-0.10717678636002957 0.12590225333514557 -0.8213379840322607 93 71 60
-0.11113737532667722 0.1283824781323539 -0.8224740444954532 96 75 65
-0.11068066352779406 0.12796326966553953 -0.8261216633632902 99 79 70
-0.1084831248921281 0.12640093677674188 -0.8307726398791956 99 79 69
-0.10444862783604043 0.12363196733885146 -0.8364933521307001 99 79 68
-0.09124292259115538 0.11483941620388 -0.8475355930506304 100 80 69
-0.09786504577237927 0.11906758810428815 -0.847130973119441 100 80 68
-0.09908984793178266 0.11975133966299756 -0.8498439217700724 99 77 62
-0.09730627995529736 0.11845886701755082 -0.8543123547413526 95 68 48
-0.09845685689770081 0.11909382476083814 -0.857069598705812 89 58 34
-0.09840465846157581 0.11893853794264078 -0.8605324204787246 88 54 28
-0.09950375753462892 0.11953975191429708 -0.8633176473432794 87 52 27
-0.1025523081899306 0.12142230301239977 -0.8649447202223317 86 55 27
-0.10896025712718316 0.12551340658374405 -0.8645622588203151 90 61 39
-0.11489303384409003 0.12929301125009943 -0.8644387563428557 96 70 50
-0.1127816088880708 0.12778464675682244 -0.8691132495296977 98 75 58
-0.11149141838090432 0.12681587618334175 -0.8733051790880592 95 75 58
-0.11001548670686541 0.12572468262626332 -0.8776170690705861 92 74 58
-0.10950653299820162 0.12526915445575995 -0.8813519512010561 90 72 56
-0.11243561425342122 0.1270748808316185 -0.8830017692267238 89 70 54
-0.1110007592528823 0.12601019595467144 -0.8873031623520057 86 66 51
-0.11292315498378604 0.12715399367453045 -0.8895582375833384 78 59 45
-0.11116350487239471 0.12587524987091808 -0.8940689662694684 73 55 41
-0.108927504426706 0.12428268787003421 -0.8988831795546226 74 54 41
-0.1064360618753954 0.12252158819645027 -0.9038673175983866 72 51 38
-0.10421920428209429 0.1209407644610211 -0.9086940992346147 72 51 37
-0.10496978429248056 0.12131295740919662 -0.9116848504009729 77 57 44
-0.11038794281634703 0.12475815296957415 -0.9117581607017363 85 67 53
-0.11219153393544484 0.12582410083169548 -0.9140770615997631 89 70 56
-0.10702932772526315 0.12230314094995935 -0.9207732201069057 88 70 56
-0.11031106982312018 0.12434243681257051 -0.9221632502970489 89 70 55
-0.09178990358773545 0.1120212622545204 -0.9373526141779038 88 70 55
-0.09625999355559997 0.11484254742117045 -0.9380108122496044 86 67 52
-0.09482908091656937 0.11377672727268645 -0.9424155742145626 86 64 48
-0.09228477735387125 0.1119769958667563 -0.9475413859777095 86 61 44
-0.08613826280073578 0.10780303845328068 -0.9549933844587258 86 60 43
-0.11975476478987361 0.12983376728445384 -0.9368589500146643 87 64 46
-0.11928392738042393 0.1294017606758196 -0.9406146334713049 90 69 54
-0.1221625148972212 0.1311775356076961 -0.9422026210898801 93 75 61
-0.12734977027594913 0.13447571093640412 -0.9422784219732148 94 74 63
-0.13424677247404646 0.1389019148684594 -0.9412180616212229 93 73 62
-0.1360931553719475 0.13999856675483344 -0.9434384148215378 94 74 63
-0.1385023698323435 0.14146660497881589 -0.9452833197996922 93 74 62
-0.13162641143207146 0.1368106103035301 -0.9532420844580319 89 70 55
-0.12711258934560074 0.13371167957202112 -0.9596705203150663 88 69 54
-0.1148607600382576 0.12550695603036055 -0.9712562745417069 87 68 53
-0.1325270620544274 0.13704053636305577 -0.9629775120602115 86 67 52
-0.1232705267523016 0.13081073405336838 -0.9726087041780493 88 69 54
-0.12428302533001054 0.13135660537695268 -0.9754006105851506 88 69 55
-0.14392670783688796 0.14419985439703414 -0.9656641544327311 87 68 53
-0.14172803422831473 0.1426275473248782 -0.970577583828355 87 67 55
-0.14021103031875312 0.14150485098229001 -0.9750417199775432 87 67 56
-0.14789090937771945 0.14645425493122224 -0.9732714468084208 89 69 58
-0.1012817030734747 0.11555517188001559 -1.0084433675052555 92 72 61
-0.14434447766464778 0.14387026704539374 -0.9825548897002145 92 72 61
-0.15663974054928556 0.1518699640761793 -0.977569207706739 92 72 61
-0.15524772158113603 0.1508299675340774 -0.9819435007252609 92 72 61
-0.16358082399520238 0.15621461078313081 -0.9796181226799656 93 73 62
-0.17328392945242 0.16250565738444006 -0.9763107139973156 93 73 62
-0.15213597347072413 0.14841148405334642 -0.9943785846682196 92 72 61
-0.1121204910466414 0.12184468900355214 -1.0256797537199414 91 71 60
-0.13484106865431641 0.13673781506627575 -1.0133354387324114 91 71 60
-0.14424659981574883 0.14283258939049637 -1.0102241744858325 92 72 61
-0.15193922201741675 0.14779629878413378 -1.0082781234668208 91 72 58
-0.16458836081337697 0.1560383358615388 -1.0028057901090308 85 65 51
-0.16852796971793038 0.15852287709677265 -1.0034406901098851 83 58 42
-0.17245042416220063 0.16099659887373605 -1.0040728505173264 79 49 31
-0.17381548215926929 0.161779312244967 -1.0065103046194477 76 43 21
-0.17610834735690573 0.16317590165280585 -1.008281777052161 75 39 14
-0.1777642245913055 0.16415134210996005 -1.010501717392278 75 39 13
-0.1824899723356111 0.16715816696286243 -1.0105115828942932 75 39 13
-0.18162835378628056 0.16646826816783575 -1.0145289067927032 77 40 14
-0.17885631713454253 0.16451380482013103 -1.01993319264681 80 43 17
-0.16821685873139777 0.15735142480183287 -1.0310556884958002 80 43 17
-0.17217358780355108 0.1598495681359618 -1.0316137731137014 80 43 17
-0.18091234584874527 0.16551418565881798 -1.0286688479082606 83 46 20
-0.18242805305783522 0.1663974968821669 -1.0309720101195698 86 51 27
-0.1839960680848226 0.1673155981667046 -1.0332324905885335 86 55 31
-0.1856199630508294 0.16827086770558794 -1.0354473074336012 84 55 31
-0.18546627501231372 0.16804890122791036 -1.0389696430273234 83 55 32
-0.18781664115741217 0.16948561358879977 -1.0406408961756084 83 55 33
-0.19365159005503219 0.17323121259916696 -1.0397161343279102 83 55 34
-0.19500044779297596 0.17400516696426743 -1.042109623863836 83 56 35
-0.19592512616593577 0.17449815418716833 -1.0448164503127426 83 56 37
-0.19774623027409893 0.17558531191675625 -1.0468498149970265 85 58 40
-0.19959519977833484 0.17669114071881334 -1.0488565353291517 85 59 42
-0.1921238965971509 0.17161865356119158 -1.0578833850570246 84 60 44
-0.19014812257917504 0.17018839040574732 -1.0627910148115471 82 59 43
-0.18576809542484235 0.1671635432032673 -1.0695330584602865 77 58 41
-0.1818169916442974 0.1644223594497526 -1.0759709132495265 71 54 38
-0.17937449096096442 0.16268101280597427 -1.0812781699072436 64 48 35
-0.18067162090621844 0.16341971403845068 -1.0837379474023272 53 36 26
-0.18122029891119545 0.16366202141331523 -1.0867686302038218 50 33 24
-0.18176879709894525 0.163904209343203 -1.0897994554218717 54 37 29
-0.18231747645682622 0.16414651731603028 -1.0928301456823009 61 41 34
-0.1834724347247516 0.16479116543346037 -1.0953915881536593 66 44 34
-0.1850031801733804 0.16568532002298716 -1.097658611477702 67 43 32
-0.185142952078553 0.16565632850641387 -1.1010040696258163 69 43 30
-0.18439096655006795 0.16503526976898628 -1.105047593379213 69 42 27
-0.18550962961851164 0.16565600216649237 -1.107632288713601 69 41 23
-0.18591036367736372 0.16580010643110488 -1.1107781643240788 72 44 21
-0.18709702867519787 0.16646612264470512 -1.1133057958123203 82 53 26
-0.18736961851566167 0.16652513154374493 -1.1165524415527994 85 57 32
-0.1907149434861467 0.16862518434883653 -1.1173667081653629 88 61 39
-0.19336675596509814 0.17026495637189967 -1.1187191720567915 88 64 42
-0.19303207730883568 0.16992078805893113 -1.1224409477082087 87 65 44
-0.19363351285514502 0.17019852391969478 -1.125418956431151 85 62 41
-0.19580515810551632 0.1715197930969327 -1.1271388962312352 84 62 40
-0.19032447974180242 0.16775515445614544 -1.1349987612866084 84 60 40
-0.1922980904489742 0.16894469021910263 -1.1368808631993879 84 62 42
-0.1959934914097667 0.17127912850429877 -1.137365534831696 85 63 44
-0.19540831102792844 0.17076792662533163 -1.1413037475037058 81 61 44
-0.19228146215782568 0.16856639279593463 -1.147311972865234 77 60 43
-0.19326497509302132 0.1690978941396175 -1.1499882915476412 84 70 56
-0.19481630832105587 0.17000714349045154 -1.1521987511917673 105 97 86
-0.19614705457038537 0.17076981543698133 -1.154585358570757 134 130 119
-0.17850341967366545 0.15890899912181045 -1.1725560848684367 162 158 153
-0.17986062464847485 0.1596880017670861 -1.1749570458762026 180 177 175
-0.18203012931834783 0.16100768534418902 -1.176683324842854 185 183 184
-0.20031571116618208 0.1730535100310145 -1.1650523127559695 189 189 187
-0.19442833578145088 0.16901219388045738 -1.1734194064196986 193 193 191
-0.19123886320423877 0.16676583483659385 -1.179568769595587 195 195 193
-0.19119907807336553 0.16661587463376296 -1.1831045645533762 197 197 195
-0.197668520755775 0.17080006560671931 -1.1811915010895997 199 199 197
-0.291175472417295 0.23294720719037224 -1.106156643531568 201 201 199
-0.2972557344148337 0.23688114789422302 -1.1043173301811409 202 202 200
-0.30163859333099186 0.2396853413845137 -1.1038857493849603 203 203 201
-0.3087998182072145 0.24422658903468542 -1.1043314420836514 204 204 202
-0.3103403591703453 0.24513856247119348 -1.1062698137198215 204 204 202
-0.030694848095878524 0.11365694717349142 0.11235345857124898 182 182 182
-0.0278292812057366 0.11173890938150743 0.10947092678512654 182 182 180
-0.025484431913158467 0.11015060789162665 0.10657310345418394 182 182 180
-0.023145808900300616 0.10856590915538798 0.10366534979092254 182 182 180
-0.021194002842249045 0.10722616053409739 0.10074636026826825 182 181 181
-0.029594935336353698 0.1124517885909227 0.09780052308742129 166 163 159
-0.037567261147076314 0.11740651669256905 0.09488185458578512 127 116 108
-0.03890154976329188 0.11815151900050583 0.09197769739208667 119 101 89
-0.038633918653656424 0.1178803966435531 0.08907086272378613 115 91 76
-0.04116609463044127 0.1193854820720519 0.08617567522462238 111 84 65
-0.04256652020981372 0.12017271585014988 0.08327964814858546 107 78 54
-0.04583787381966088 0.1221472684273475 0.0804027378473736 106 76 49
-0.04714745852719315 0.12287717696585533 0.07751506525962859 107 77 50
-0.04845562712912759 0.12360628152598732 0.07463009373215945 96 66 39
-0.04976279110587543 0.12433484312309032 0.07174782413598177 85 55 28
-0.05246818090997151 0.12595109357119855 0.06888998942711189 77 48 23
-0.05300266531080161 0.12618938526567983 0.06600223527884636 72 44 22
-0.056396507845713234 0.12824314598216738 0.06316886628622927 63 35 17
-0.05988522744090538 0.13035749988411505 0.060347442864729026 59 30 14
-0.053308636998890685 0.12608031195023545 0.05731002206429142 62 34 17
-0.05170486731889216 0.12496051765245259 0.054368359201299885 57 31 15
-0.048406139003628015 0.12276388795729262 0.05137527270900572 50 25 11
-0.04612158039214326 0.12121101937464876 0.04839696204491445 47 24 11
-0.046234078828099844 0.12118062504328737 0.04547944943258859 44 22 9
-0.04339245275549579 0.11927328744451124 0.042468329503267344 43 23 9
-0.042912151833628405 0.1188659431985643 0.03952323670549085 44 24 11
-0.04314753076919758 0.11891326798204921 0.036599447536544635 46 24 11
-0.04923567932258542 0.12268016377677173 0.03388789858041304 45 23 10
-0.05060872368695276 0.12345086322844245 0.031015741043019966 44 22 9
-0.0478959874903061 0.12162453397499412 0.027983369012798288 44 22 9
-0.04209788816213632 0.11783640526790995 0.024811024643875298 44 22 9
-0.042522181645767015 0.1180035362155005 0.021886819587647547 45 23 10
-0.04291510311094598 0.11815070686872303 0.018960827468513266 48 26 13
-0.044421680385894106 0.11900602997559712 0.016086641655033526 49 27 13
-0.04531987462868439 0.11947456718533374 0.013186254769658548 48 25 12
-0.04590854203957007 0.11974628482994897 0.01027154448958901 49 26 13
-0.04696407544711142 0.12031497376204299 0.0073814232432648005 48 26 11
-0.04743572929064344 0.12051229749839186 0.004461636154845168 46 25 8
-0.04711785263020869 0.12020731293544784 0.0014976387114587972 46 25 8
-0.04672412599759079 0.11985396372623443 -0.0014737036690107598 48 27 10
-0.04694798310824257 0.1198934852440263 -0.004411699395769835 49 28 11
-0.046842867630865426 0.11972361531799339 -0.007370849871445314 47 26 10
-0.04655652890249477 0.11943832800443696 -0.010343620254702906 46 26 9
-0.04835237657373426 0.12047827260288588 -0.013184851869628225 48 27 11
-0.048299172213219776 0.12034131915616772 -0.016144248672634066 47 26 11
-0.048171418123900876 0.12015683297959215 -0.01911078321600576 45 26 12
-0.0489814411512808 0.12056934361773973 -0.0220141299536624 43 23 11
-0.047552047120077705 0.11955592497427828 -0.02507690039478026 40 22 10
-0.04804414422527206 0.1197659053083204 -0.028005568297488685 38 20 8
-0.04861149602320179 0.12002380910275715 -0.030928715644745818 36 18 6
-0.04959048033368109 0.12054390353351613 -0.0338200578825711 34 16 6
-0.045678159416188614 0.11794827218595719 -0.03709487557437449 33 16 8
-0.0371262718137533 0.1123963803505898 -0.04075896184941213 33 16 8
-0.03797797825446515 0.11283465533140678 -0.04368162684535765 35 18 10
-0.03736456806955978 0.11233941197936304 -0.046726316649699354 35 20 12
-0.03554755703473144 0.11107702904676196 -0.04987840362833217 48 37 33
-0.02927616852116562 0.1069755163312491 -0.053429139430388475 48 40 40
-0.024027354509915146 0.10352492242933972 -0.0569127151591439 51 46 44
-0.03309730450617895 0.10920093940193394 -0.05911133932746249 50 42 39
-0.027836927634552575 0.10574242516310375 -0.0626117322197942 46 35 33
-0.03547295752822356 0.11050545949657234 -0.06491090339766724 42 29 28
-0.04060401586848336 0.1136721450450657 -0.06742653941587229 54 40 39
-0.048497208133055233 0.11860078162962791 -0.06965417402416323 58 40 36
-0.05706927738740808 0.12396328975781795 -0.07178752813003096 68 46 37
-0.06261789377956435 0.12739840593092788 -0.07420019962901961 71 51 38
-0.07038037596807653 0.13224631794585098 -0.07636534156737908 76 56 45
-0.07370128664918354 0.13426169020108789 -0.07897306884721411 79 59 48
-0.07904002979599878 0.13756478855028154 -0.08135431135515575 85 67 55
-0.08434825274530464 0.14084901542298103 -0.08372161196238193 80 61 50
-0.08116226664816953 0.138713474760317 -0.08701344449861922 64 44 33
-0.08286104178980198 0.1396948634090284 -0.08976827734759171 64 42 30
-0.08651934399762595 0.14192706807463248 -0.09229460042427406 66 43 30
-0.08612854547920705 0.14157507240725598 -0.0952803842019503 68 49 39
-0.08865248623015241 0.14308366104128417 -0.09792534836699586 76 59 50
-0.09069713037120505 0.14428649963342735 -0.10062055142643594 66 48 39
-0.09020457707046318 0.14386952542854828 -0.10361894308901823 69 47 39
-0.1009084862943588 0.15060208516522222 -0.10523863360461685 75 55 48
-0.10991087875951165 0.1562492914531992 -0.10703472382914425 73 54 47
-0.11757742150422551 0.16104437204995836 -0.10896992856914225 81 62 55
-0.12090479350558274 0.16306869445508318 -0.11143852920741305 79 62 54
-0.12274990637997582 0.16414648042575908 -0.11409066980487241 71 54 46
-0.1290095907498189 0.1680448132066667 -0.11615306862416808 88 71 63
-0.12924016586101436 0.16809161750769686 -0.11900441607992462 114 97 89
-0.1286860596000476 0.1676369706064757 -0.12196358749029479 122 105 95
-0.1287726724117553 0.16759165274494253 -0.12483824245217424 89 70 58
-0.1302689918149945 0.16844727001906545 -0.1275174357119639 69 42 26
-0.1316352486072455 0.16921987660424287 -0.13021146394199432 71 42 25
-0.1405504264042435 0.17481830555872924 -0.13182004538154532 66 37 21
-0.13180765057511054 0.16912867896974831 -0.135961906515801 63 36 19
-0.1255512774036459 0.1650276490974223 -0.13977187785468578 58 31 15
-0.12290982419850838 0.16323731743915976 -0.1430684599694495 57 30 15
-0.12257606586357214 0.1629223849690225 -0.14602886797269746 58 35 20
-0.12548288671716334 0.16467994165978322 -0.14849825862618818 59 41 29
-0.13479047038903014 0.17053198422586296 -0.14997130265409397 59 43 36
-0.13619441935811943 0.1713291649070144 -0.15264619064563 61 46 39
-0.1291045001818018 0.16669236348172703 -0.15665940003082393 61 49 43
-0.12345713743137128 0.162977585542407 -0.1604698914004714 61 50 44
-0.12746412307114718 0.16543978543028626 -0.16274274222752966 60 50 41
