ply
format ascii 1.0
element vertex 858
property float x
property float y
property float z
property float nx
property float ny
property float nz
property uchar diffuse_red
property uchar diffuse_green
property uchar diffuse_blue
property uchar class
property uchar detection
end_header
-0.1797 0.1059 -1.0528 -0.967 0.223 -0.121 91 74 63 0 0
-0.1825 0.1082 -1.0541 -0.986 0.072 -0.151 91 76 67 0 0
-0.1822 0.1056 -1.1030 -0.801 0.540 0.257 72 50 37 0 0
-0.1828 0.1060 -1.1060 -0.881 0.114 0.460 80 53 40 0 0
-0.2514 0.1600 -1.1497 -0.967 -0.223 -0.121 201 201 201 0 0
-0.2522 0.1605 -1.1524 -0.999 -0.030 0.031 201 201 201 0 0
-0.0573 0.0583 -0.0051 -1.000 -0.008 0.008 181 180 185 0 0
-0.0574 0.0582 -0.0080 -0.992 0.127 -0.003 182 180 185 0 0
-0.1157 0.0993 -0.1471 -0.930 -0.015 -0.368 72 55 46 0 0
-0.0834 0.0352 -0.9743 -0.639 -0.402 0.656 89 72 63 0 0
-0.0849 0.0361 -0.9805 -0.807 0.317 0.498 85 67 56 0 0
-0.1049 0.0523 -0.9816 -0.277 -0.343 0.898 84 61 48 0 0
-0.1771 0.1078 -1.0535 -0.933 0.104 -0.345 89 71 60 0 0
-0.1836 0.1132 -1.0521 -0.984 0.174 0.045 87 70 60 0 0
-0.1842 0.1136 -1.0551 -0.964 0.243 0.106 87 71 63 0 0
-0.1830 0.1105 -1.1010 -0.690 0.684 0.235 69 48 36 0 0
-0.1945 0.1174 -1.1546 -0.768 -0.372 0.522 162 159 155 0 0
-0.1967 0.1191 -1.1563 -0.874 -0.397 0.281 176 174 172 0 0
-0.2534 0.1655 -1.1500 -0.971 0.104 0.217 201 201 201 0 0
-0.2545 0.1663 -1.1524 -0.807 0.439 0.394 199 199 200 0 0
-0.2555 0.1670 -1.1550 -0.807 0.439 0.394 200 200 202 0 0
-0.2522 0.1641 -1.1611 -0.888 -0.459 -0.016 203 203 205 0 0
-0.0840 0.0791 -0.1084 -0.422 -0.308 0.853 103 92 89 0 0
-0.0983 0.0907 -0.1101 -0.478 -0.402 0.781 105 94 90 0 0
-0.1051 0.0961 -0.1125 -0.503 -0.374 0.780 101 92 87 0 0
-0.1247 0.1102 -0.1518 -0.995 0.008 -0.099 81 69 62 0 0
-0.0855 0.0408 -0.9790 -0.694 -0.045 0.718 85 65 54 0 0
-0.0929 0.0467 -0.9813 -0.020 0.926 0.376 83 61 48 0 0
-0.1111 0.0616 -0.9799 -0.452 -0.501 0.738 84 61 47 0 0
-0.1362 0.0818 -0.9841 -0.876 0.400 -0.269 80 54 41 0 0
-0.1402 0.0850 -0.9849 -0.937 -0.226 -0.268 80 54 41 0 0
-0.1788 0.1113 -1.0961 -0.411 0.909 0.069 63 45 35 0 0
-0.1793 0.1115 -1.0992 -0.329 0.940 -0.092 65 47 37 0 0
-0.1794 0.1115 -1.1025 -0.732 0.681 0.017 67 48 36 0 0
-0.1823 0.1138 -1.1037 -0.724 0.351 0.595 70 48 36 0 0
-0.1903 0.1195 -1.1218 -0.913 0.384 -0.138 98 72 55 0 0
-0.1877 0.1168 -1.1343 -0.601 0.139 0.787 95 75 58 0 0
-0.2545 0.1701 -1.1544 -0.930 -0.368 0.022 200 200 202 0 0
-0.2552 0.1705 -1.1572 -0.921 -0.388 0.008 202 202 204 0 0
-0.2547 0.1700 -1.1610 -0.894 -0.415 -0.171 204 204 206 0 0
-0.2551 0.1701 -1.1641 -0.921 -0.388 0.008 205 205 206 0 0
-0.0804 0.0802 -0.1056 -0.377 -0.288 0.880 99 89 86 0 0
-0.0912 0.0888 -0.1077 -0.286 -0.163 0.944 103 92 87 0 0
-0.1201 0.1110 -0.1345 -0.668 -0.470 0.576 80 57 43 0 0
-0.1258 0.1150 -0.1486 -0.976 -0.102 -0.190 72 55 45 0 0
-0.1268 0.1157 -0.1514 -0.974 -0.210 -0.090 76 63 55 0 0
-0.0799 0.0406 -0.9779 -0.616 0.770 -0.167 83 64 53 0 0
-0.1173 0.0708 -0.9782 -0.494 -0.424 0.759 83 60 46 0 0
-0.1390 0.0886 -0.9742 -0.425 0.604 -0.675 81 57 45 0 0
-0.1407 0.0899 -0.9765 -0.630 0.465 -0.622 81 55 44 0 0
-0.1362 0.0860 -0.9830 -0.758 0.311 -0.573 81 54 44 0 0
-0.1886 0.1245 -1.0699 -0.839 0.024 -0.543 75 59 50 0 0
-0.1854 0.1212 -1.0827 -0.795 0.322 -0.514 65 46 39 0 0
-0.1789 0.1154 -1.0947 -0.976 0.030 0.215 62 44 36 0 0
-0.1772 0.1139 -1.0994 -0.734 0.261 0.628 65 46 39 0 0
-0.1796 0.1157 -1.1011 -0.978 0.157 0.139 66 48 38 0 0
-0.1803 0.1162 -1.1040 -0.987 -0.029 0.159 66 47 36 0 0
-0.1891 0.1225 -1.1214 -0.913 0.384 -0.138 96 70 53 0 0
-0.1920 0.1245 -1.1295 -0.973 0.218 0.072 91 69 54 0 0
-0.2526 0.1727 -1.1479 -0.932 -0.188 0.310 201 201 201 0 0
-0.2472 0.1678 -1.1593 -0.375 0.639 0.672 202 202 202 0 0
-0.2488 0.1690 -1.1613 -0.375 0.639 0.672 203 203 204 0 0
-0.2546 0.1738 -1.1596 -0.836 -0.065 0.545 204 204 205 0 0
-0.2544 0.1735 -1.1632 -0.751 0.040 0.659 205 205 205 0 0
-0.0769 0.0814 -0.1028 -0.271 -0.259 0.927 100 92 89 0 0
-0.0816 0.0850 -0.1054 -0.363 -0.227 0.904 102 92 90 0 0
-0.0930 0.0942 -0.1074 -0.318 -0.176 0.932 103 92 90 0 0
-0.0891 0.0774 -0.4128 -0.736 -0.592 0.329 95 77 64 0 0
-0.0970 0.0836 -0.4168 -0.919 -0.378 0.111 93 71 57 0 0
-0.0974 0.0838 -0.4199 -0.850 -0.485 0.203 96 74 60 0 0
-0.0941 0.0808 -0.4272 -0.770 -0.532 0.353 98 76 63 0 0
-0.1034 0.0638 -0.9757 -0.529 -0.179 0.829 82 59 46 0 0
-0.1126 0.0712 -0.9767 -0.392 -0.337 0.856 82 59 45 0 0
-0.1413 0.0939 -0.9888 -0.445 0.679 0.584 79 53 40 0 0
-0.1463 0.0977 -0.9923 -0.907 0.238 -0.348 79 53 40 0 0
-0.1802 0.1229 -1.0406 -0.516 0.458 0.723 82 61 45 0 0
-0.1818 0.1242 -1.0428 -0.704 0.362 0.611 82 61 48 0 0
-0.1820 0.1242 -1.0461 -0.761 0.385 0.522 85 65 52 0 0
-0.1834 0.1251 -1.0485 -0.867 0.339 0.364 85 65 54 0 0
-0.2502 0.1745 -1.1519 -0.726 0.526 0.443 201 201 201 0 0
-0.2492 0.1734 -1.1562 -0.382 0.846 0.373 202 202 202 0 0
-0.0638 0.0747 -0.1008 -0.271 -0.259 0.927 97 92 88 0 0
-0.0830 0.0900 -0.1052 -0.412 -0.240 0.879 101 91 89 0 0
-0.0919 0.0834 -0.4179 -0.926 0.076 0.369 92 70 54 0 0
-0.0944 0.0853 -0.4203 -0.830 -0.299 0.471 92 70 54 0 0
-0.0632 0.0407 -0.8617 -0.731 -0.656 0.186 159 155 149 0 0
-0.0657 0.0426 -0.8638 -0.748 -0.652 0.121 162 158 154 0 0
-0.0929 0.0599 -0.9673 -0.542 0.370 0.755 84 62 51 0 0
-0.1017 0.0667 -0.9756 -0.337 -0.319 0.886 82 59 45 0 0
-0.1521 0.1068 -0.9838 -0.983 -0.014 -0.184 79 53 40 0 0
-0.1800 0.1273 -1.0292 -0.851 0.013 0.524 82 53 31 0 0
-0.1807 0.1274 -1.0390 -0.548 0.468 0.693 84 60 43 0 0
-0.1808 0.1269 -1.0527 -0.856 0.492 0.161 85 65 52 0 0
-0.2548 0.1818 -1.1567 -0.785 0.591 0.185 204 204 204 0 0
-0.0646 0.0793 -0.1007 -0.277 -0.220 0.935 97 90 87 0 0
-0.0909 0.1001 -0.1074 -0.342 -0.138 0.929 98 87 85 0 0
-0.0871 0.0835 -0.4157 -0.999 0.015 0.036 93 70 56 0 0
-0.0904 0.0862 -0.4179 -0.965 0.093 0.244 92 69 53 0 0
-0.0974 0.0917 -0.4190 -0.898 -0.356 0.257 92 69 52 0 0
-0.0724 0.0522 -0.8625 -0.808 -0.564 0.170 127 113 105 0 0
-0.0771 0.0513 -0.9692 -0.224 0.415 0.882 85 64 52 0 0
-0.0893 0.0613 -0.9649 -0.622 -0.095 0.778 84 62 50 0 0
-0.0915 0.0630 -0.9670 -0.578 0.104 0.809 83 61 49 0 0
-0.1022 0.0714 -0.9707 -0.376 0.118 0.919 81 58 43 0 0
-0.1070 0.0752 -0.9711 -0.222 0.480 0.849 81 58 44 0 0
-0.1209 0.0864 -0.9724 -0.315 0.198 0.928 82 57 44 0 0
-0.1236 0.0884 -0.9741 -0.372 0.109 0.922 80 54 42 0 0
-0.1291 0.0927 -0.9774 -0.231 0.311 0.922 81 54 45 0 0
-0.1793 0.1306 -1.0319 -0.663 0.263 0.701 84 53 30 0 0
-0.1792 0.1298 -1.0457 -0.912 0.409 -0.024 85 62 48 0 0
-0.1791 0.1297 -1.0492 -0.912 0.409 -0.024 85 62 49 0 0
-0.1792 0.1296 -1.0526 -0.856 0.492 0.161 85 64 51 0 0
-0.1781 0.1285 -1.0568 -0.870 0.491 0.047 85 65 53 0 0
-0.0887 0.0890 -0.4116 -0.811 -0.352 0.468 87 66 54 0 0
-0.0955 0.0942 -0.4160 -0.845 0.274 0.460 88 63 48 0 0
-0.0942 0.0930 -0.4195 -0.883 0.347 0.317 87 62 46 0 0
-0.0732 0.0572 -0.8576 -0.814 -0.482 0.324 105 85 70 0 0
-0.1009 0.0745 -0.9704 -0.453 0.263 0.852 80 57 42 0 0
-0.1034 0.0764 -0.9723 -0.453 0.263 0.852 80 57 42 0 0
-0.1788 0.1342 -1.0311 -0.797 0.588 0.137 79 47 24 0 0
-0.1760 0.1317 -1.0365 -0.620 0.666 0.415 78 49 26 0 0
-0.1776 0.1328 -1.0388 -0.854 0.409 0.322 81 54 34 0 0
-0.1784 0.1334 -1.0417 -0.854 0.409 0.322 83 57 41 0 0
-0.1790 0.1338 -1.0446 -0.955 0.262 0.138 84 61 45 0 0
-0.1933 0.1419 -1.1197 -0.529 0.848 0.035 91 65 47 0 0
-0.1940 0.1419 -1.1329 -0.504 0.857 0.110 89 67 49 0 0
-0.1995 0.1447 -1.1700 -0.948 0.082 -0.307 193 193 195 0 0
-0.0964 0.1120 -0.1097 -0.196 0.143 0.970 92 79 75 0 0
-0.1027 0.1169 -0.1121 -0.972 -0.236 0.000 91 78 73 0 0
-0.1350 0.1411 -0.1468 -0.942 0.309 0.128 68 49 37 0 0
-0.0984 0.1101 -0.1900 -0.725 -0.106 -0.680 81 74 68 0 0
-0.0928 0.0958 -0.4195 -0.586 0.525 0.617 90 64 49 0 0
-0.1091 0.1081 -0.4367 -0.968 -0.189 -0.166 91 75 64 0 0
-0.0627 0.0536 -0.8450 -0.592 -0.471 0.654 93 75 65 0 0
-0.0704 0.0597 -0.8442 -0.688 -0.500 0.525 91 72 60 0 0
-0.0742 0.0627 -0.8455 -0.701 -0.518 0.491 91 72 58 0 0
-0.0820 0.0688 -0.8481 -0.756 -0.553 0.350 92 71 57 0 0
-0.0856 0.0716 -0.8495 -0.782 -0.544 0.305 94 73 56 0 0
-0.0875 0.0731 -0.8519 -0.782 -0.544 0.305 102 78 62 0 0
-0.1099 0.0858 -0.9704 -0.298 0.477 0.827 79 56 41 0 0
-0.1748 0.1347 -1.0362 -0.955 0.146 0.257 78 48 23 0 0
-0.1896 0.1429 -1.1212 -0.866 0.499 0.032 88 63 43 0 0
-0.1907 0.1437 -1.1238 -0.823 0.569 -0.010 89 65 45 0 0
-0.1909 0.1436 -1.1271 -0.858 0.509 -0.071 90 64 46 0 0
-0.1910 0.1436 -1.1305 -0.763 0.645 -0.044 88 62 45 0 0
-0.1922 0.1444 -1.1330 -0.674 0.620 0.401 87 63 46 0 0
-0.2036 0.1520 -1.1687 -0.856 -0.056 0.514 193 193 195 0 0
-0.0575 0.0900 0.0125 -0.875 0.473 -0.104 39 19 10 0 0
-0.0577 0.0901 0.0096 -0.926 0.375 0.039 34 16 6 0 0
-0.0563 0.0888 0.0066 -0.867 0.431 0.251 32 14 4 0 0
-0.1088 0.1255 -0.1115 -0.830 -0.221 0.512 91 78 72 0 0
-0.1334 0.1437 -0.1440 -0.921 0.136 -0.364 62 39 27 0 0
-0.1341 0.1442 -0.1468 -0.919 0.390 0.055 64 44 33 0 0
-0.0938 0.1102 -0.1935 -0.803 0.092 -0.588 78 69 64 0 0
-0.0998 0.1045 -0.4391 -0.980 -0.175 0.090 82 64 51 0 0
-0.0932 0.0817 -0.8511 -0.791 -0.549 0.271 99 72 53 0 0
-0.0600 0.0513 -0.9446 -0.684 -0.704 0.190 129 120 115 0 0
-0.0650 0.0552 -0.9486 -0.816 -0.572 -0.078 107 94 88 0 0
-0.1581 0.1277 -0.9819 -0.161 0.987 -0.023 83 59 47 0 0
-0.1893 0.1491 -1.0618 -0.897 0.169 -0.408 79 60 48 0 0
-0.1875 0.1452 -1.1182 -0.999 -0.023 0.045 85 58 37 0 0
-0.1997 0.1533 -1.1567 -0.957 0.159 0.244 169 167 163 0 0
-0.2003 0.1534 -1.1666 -0.986 -0.022 -0.166 190 190 192 0 0
-0.0659 0.0994 -0.0139 -0.464 0.832 0.305 41 19 8 0 0
-0.1322 0.1465 -0.1440 -0.532 0.840 0.106 61 37 25 0 0
-0.1329 0.1469 -0.1468 -0.680 0.663 0.312 62 40 29 0 0
-0.1262 0.1410 -0.1622 -0.969 0.118 -0.218 68 57 53 0 0
-0.1266 0.1412 -0.1651 -0.559 0.676 -0.480 69 58 54 0 0
-0.0967 0.1163 -0.1929 -0.840 -0.226 -0.492 75 66 62 0 0
-0.1007 0.1091 -0.4383 -0.978 -0.177 0.114 80 61 46 0 0
-0.0434 0.0470 -0.8361 -0.444 -0.391 0.806 99 84 76 0 0
-0.0468 0.0496 -0.8378 -0.451 -0.366 0.814 93 77 70 0 0
-0.1566 0.1308 -0.9750 -0.774 0.608 -0.175 81 58 44 0 0
-0.1566 0.1305 -0.9817 -0.457 0.860 0.228 85 62 49 0 0
-0.1551 0.1291 -0.9862 -0.477 0.876 0.072 83 59 47 0 0
-0.1930 0.1527 -1.1400 -0.913 -0.107 0.393 86 66 49 0 0
-0.2006 0.1577 -1.1649 -0.986 -0.022 -0.166 190 189 192 0 0
-0.2033 0.1598 -1.1661 -0.938 -0.204 0.279 192 192 194 0 0
-0.0654 0.1032 -0.0051 -0.815 0.508 0.278 41 21 10 0 0
-0.0661 0.1036 -0.0080 -0.799 0.554 0.235 40 20 9 0 0
-0.0641 0.1018 -0.0140 -0.670 0.736 -0.098 40 20 9 0 0
-0.0609 0.0990 -0.0200 -0.942 0.328 0.070 40 20 9 0 0
-0.1242 0.1430 -0.1623 -0.936 0.234 -0.261 68 57 51 0 0
-0.1243 0.1430 -0.1653 -0.559 0.676 -0.480 68 57 52 0 0
-0.0959 0.1193 -0.1959 -0.645 0.063 -0.762 76 65 62 0 0
-0.0924 0.1164 -0.1994 -0.545 0.505 -0.669 76 65 63 0 0
-0.0957 0.1189 -0.2019 -0.813 -0.108 -0.571 77 66 64 0 0
-0.0984 0.1209 -0.2045 -0.837 -0.372 -0.402 77 66 64 0 0
-0.0488 0.0798 -0.2525 -0.749 -0.580 -0.322 137 134 133 0 0
-0.1009 0.1132 -0.4378 -0.936 -0.234 0.262 81 58 42 0 0
-0.0912 0.0879 -0.8607 -0.724 0.382 0.575 96 69 47 0 0
-0.0932 0.0894 -0.8630 -0.938 0.276 0.207 101 75 55 0 0
-0.0912 0.0867 -0.8883 -0.797 -0.419 -0.435 132 125 121 0 0
-0.0788 0.0756 -0.9202 -0.735 -0.657 0.167 144 134 133 0 0
-0.1215 0.1072 -0.9699 -0.995 0.090 -0.033 82 56 42 0 0
-0.1565 0.1347 -0.9739 -0.514 0.693 0.505 83 57 42 0 0
-0.1577 0.1356 -0.9765 -0.583 0.577 0.572 84 58 44 0 0
-0.1617 0.1383 -0.9874 0.276 0.820 0.502 87 64 51 0 0
-0.1946 0.1594 -1.1030 -0.959 0.227 -0.168 79 52 36 0 0
-0.1952 0.1598 -1.1060 -0.958 0.277 0.072 82 55 33 0 0
-0.1996 0.1622 -1.1299 -0.936 0.184 0.299 85 62 44 0 0
-0.2042 0.1649 -1.1536 -0.815 -0.046 0.578 172 171 168 0 0
-0.2061 0.1663 -1.1555 -0.965 -0.018 0.262 183 181 183 0 0
-0.2009 0.1619 -1.1632 -0.997 -0.029 0.071 188 186 189 0 0
-0.0520 0.0979 0.0300 -0.755 0.646 0.114 41 18 7 0 0
-0.0523 0.0980 0.0271 -0.755 0.646 0.114 40 19 8 0 0
-0.0600 0.1021 -0.0200 -0.760 0.532 0.373 38 18 7 0 0
-0.0357 0.0818 -0.0479 -0.558 0.161 -0.814 180 180 180 0 0
-0.0326 0.0792 -0.0511 -0.579 0.149 -0.801 180 181 183 0 0
-0.1232 0.1460 -0.1623 -0.827 0.552 -0.108 66 55 49 0 0
-0.1224 0.1452 -0.1653 -0.506 0.810 -0.296 67 56 50 0 0
-0.1218 0.1446 -0.1684 -0.708 0.590 -0.388 67 56 52 0 0
-0.1188 0.1420 -0.1746 -0.878 0.462 -0.125 69 58 54 0 0
-0.1036 0.1291 -0.1975 -0.770 -0.429 -0.472 72 61 56 0 0
-0.0987 0.1251 -0.2013 -0.785 -0.148 -0.601 73 62 57 0 0
-0.0945 0.0946 -0.8578 -0.959 -0.152 0.238 91 63 42 0 0
-0.0899 0.0907 -0.8673 -0.670 0.635 0.385 94 69 49 0 0
-0.1123 0.1035 -0.9818 -0.930 0.334 -0.153 79 53 38 0 0
-0.1480 0.1318 -0.9785 -0.575 0.436 0.692 80 57 43 0 0
-0.1498 0.1331 -0.9807 -0.575 0.436 0.692 82 59 45 0 0
-0.1581 0.1394 -0.9887 0.071 0.806 0.588 85 62 50 0 0
-0.1877 0.1614 -1.0186 -0.964 0.134 -0.229 78 43 20 0 0
-0.1926 0.1642 -1.0421 -0.872 0.482 0.090 82 59 43 0 0
-0.0646 0.1093 -0.0258 -0.573 0.609 0.548 38 18 9 0 0
-0.0642 0.1089 -0.0287 -0.693 0.688 -0.214 37 17 8 0 0
-0.0713 0.1119 -0.0906 -0.761 -0.391 0.518 70 53 43 0 0
-0.1210 0.1480 -0.1624 -0.793 0.605 -0.077 63 52 46 0 0
-0.1167 0.1441 -0.1747 -0.733 0.679 0.031 67 56 52 0 0
-0.1179 0.1449 -0.1775 -0.907 0.418 0.055 68 57 53 0 0
-0.1074 0.1359 -0.1968 -0.769 -0.350 -0.535 68 57 51 0 0
-0.0981 0.1284 -0.2012 -0.757 -0.155 -0.634 70 59 53 0 0
-0.0495 0.0876 -0.2675 -0.717 -0.658 -0.228 104 99 99 0 0
-0.0421 0.0801 -0.3068 -0.896 -0.274 0.349 131 126 125 0 0
-0.0482 0.0840 -0.3308 -0.853 -0.494 0.167 145 143 141 0 0
-0.0564 0.0877 -0.3957 -0.395 -0.305 0.867 82 69 66 0 0
-0.0924 0.0967 -0.8683 -0.940 0.229 0.252 92 67 43 0 0
-0.0820 0.0853 -0.9477 -0.508 0.821 0.261 93 75 62 0 0
-0.1111 0.1067 -0.9815 -0.877 0.429 -0.216 78 52 37 0 0
-0.1365 0.1269 -0.9749 0.133 0.337 0.932 81 55 40 0 0
-0.1383 0.1282 -0.9771 0.016 0.630 0.777 82 58 42 0 0
-0.1401 0.1295 -0.9793 -0.437 0.779 0.450 81 59 44 0 0
-0.1398 0.1291 -0.9830 -0.757 0.622 0.201 82 59 46 0 0
-0.1878 0.1650 -1.0275 -0.951 0.282 0.124 81 48 26 0 0
-0.1855 0.1630 -1.0326 -0.667 0.739 0.096 82 53 31 0 0
-0.1856 0.1630 -1.0358 -0.739 0.601 0.304 82 54 33 0 0
-0.1874 0.1641 -1.0413 -0.503 0.840 0.202 82 57 37 0 0
-0.1867 0.1634 -1.0452 -0.732 0.439 0.520 83 57 40 0 0
-0.1911 0.1667 -1.0487 -0.808 0.572 -0.140 85 60 45 0 0
-0.1908 0.1663 -1.0523 -0.808 0.572 -0.140 85 62 46 0 0
-0.1899 0.1655 -1.0564 -0.898 0.359 -0.255 85 62 46 0 0
-0.1873 0.1628 -1.0720 -0.838 0.514 -0.183 71 55 43 0 0
-0.1905 0.1653 -1.0729 -0.758 0.483 0.437 66 52 43 0 0
-0.1915 0.1660 -1.0755 -0.758 0.483 0.437 54 41 33 0 0
-0.1928 0.1668 -1.0780 -0.750 0.621 0.227 51 38 32 0 0
-0.0607 0.1099 -0.0289 -0.908 0.413 0.073 40 19 9 0 0
-0.0415 0.0940 -0.0506 -0.557 0.754 -0.349 180 181 183 0 0
-0.0406 0.0932 -0.0536 -0.557 0.754 -0.349 179 180 182 0 0
-0.1154 0.1462 -0.1895 -0.730 -0.240 -0.640 66 55 50 0 0
-0.0412 0.0838 -0.2972 -0.055 0.863 -0.502 180 177 178 0 0
-0.0389 0.0818 -0.3008 -0.055 0.863 -0.502 170 165 166 0 0
-0.0530 0.0916 -0.3326 -0.850 -0.516 -0.108 119 116 113 0 0
-0.0492 0.0861 -0.3940 -0.538 -0.349 0.767 85 73 71 0 0
-0.0896 0.1174 -0.4021 0.295 0.954 -0.060 80 64 61 0 0
-0.0949 0.1026 -0.8694 -0.867 0.249 0.432 96 70 48 0 0
-0.1351 0.1297 -0.9781 -0.552 0.503 0.665 82 58 43 0 0
-0.1906 0.1706 -1.0411 -0.936 0.272 0.223 83 57 39 0 0
-0.1895 0.1692 -1.0521 -0.947 0.297 -0.120 86 61 45 0 0
-0.2048 0.1770 -1.1559 -0.972 0.041 0.232 180 179 176 0 0
-0.2056 0.1775 -1.1586 -0.826 0.011 0.563 187 186 184 0 0
-0.0574 0.1133 0.0269 -0.831 0.450 0.327 53 27 11 0 0
-0.0545 0.1110 0.0240 -0.849 0.528 -0.034 55 29 14 0 0
-0.0391 0.0960 -0.0507 -0.786 0.366 -0.498 179 180 182 0 0
-0.0639 0.1140 -0.0821 -0.601 -0.054 0.798 77 60 53 0 0
-0.1248 0.1579 -0.1733 -0.887 0.069 -0.456 63 52 48 0 0
-0.1246 0.1577 -0.1763 -0.931 -0.300 -0.208 65 54 50 0 0
-0.0472 0.0886 -0.3910 -0.517 -0.313 0.797 88 77 73 0 0
-0.0275 0.0564 -0.8118 -0.784 -0.509 0.356 99 84 75 0 0
-0.0350 0.0604 -0.8572 -0.490 -0.625 0.608 79 56 42 0 0
-0.0884 0.0988 -0.9381 -0.996 -0.086 0.031 98 83 72 0 0
-0.0905 0.1003 -0.9403 -0.957 0.192 0.219 94 77 64 0 0
-0.0916 0.1011 -0.9430 -0.934 -0.037 0.357 90 72 58 0 0
-0.1170 0.1199 -0.9683 -0.697 -0.231 0.678 79 53 40 0 0
-0.1276 0.1275 -0.9855 -0.779 -0.536 0.325 84 61 48 0 0
-0.1305 0.1297 -0.9869 -0.736 -0.586 0.341 84 64 52 0 0
-0.1511 0.1455 -0.9935 -0.353 0.936 0.005 93 71 57 0 0
-0.1896 0.1737 -1.0406 -0.936 0.272 0.223 84 58 39 0 0
-0.1891 0.1730 -1.0477 -0.916 0.348 -0.198 86 59 42 0 0
-0.2051 0.1811 -1.1543 -0.825 0.009 0.565 177 175 172 0 0
-0.2066 0.1823 -1.1564 -0.804 0.004 0.595 185 184 183 0 0
-0.2101 0.1848 -1.1604 -0.643 -0.119 0.757 193 193 193 0 0
-0.0523 0.1134 0.0327 -0.780 0.620 0.083 56 30 15 0 0
-0.0530 0.1138 0.0298 -0.812 0.576 -0.098 53 27 12 0 0
-0.0770 0.1277 -0.0900 -0.853 0.304 0.424 70 50 39 0 0
-0.0766 0.1273 -0.0930 -0.820 0.572 0.032 69 50 39 0 0
-0.0774 0.1278 -0.0959 -0.908 0.417 0.027 72 54 44 0 0
-0.1462 0.1795 -0.1416 -0.856 0.436 0.278 60 35 21 0 0
-0.1134 0.1524 -0.1806 -0.999 0.023 -0.041 63 52 46 0 0
-0.1122 0.1514 -0.1837 -0.976 0.218 0.012 63 52 46 0 0
-0.1113 0.1505 -0.1868 -0.978 0.206 -0.039 63 52 46 0 0
-0.0563 0.1025 -0.3186 -0.810 -0.010 0.586 76 59 46 0 0
-0.0563 0.1024 -0.3217 -0.801 -0.221 0.557 80 62 47 0 0
-0.0578 0.1035 -0.3245 -0.691 -0.151 0.707 82 64 49 0 0
-0.0600 0.1050 -0.3303 -0.889 -0.294 0.350 84 73 66 0 0
-0.0485 0.0936 -0.3902 -0.436 0.159 0.886 78 67 63 0 0
-0.0352 0.0667 -0.8069 -0.758 -0.526 0.386 94 75 65 0 0
-0.0360 0.0671 -0.8135 -0.797 -0.517 0.313 86 65 54 0 0
-0.0900 0.1041 -0.9395 -0.980 -0.104 0.171 95 76 64 0 0
-0.0904 0.1042 -0.9427 -0.992 -0.049 0.119 91 71 57 0 0
-0.0909 0.1044 -0.9494 -0.992 -0.114 -0.045 86 63 48 0 0
-0.1190 0.1257 -0.9625 -0.710 -0.370 0.598 80 57 44 0 0
-0.1322 0.1353 -0.9778 -0.849 0.029 0.527 81 57 45 0 0
-0.1329 0.1358 -0.9808 -0.986 -0.104 0.128 84 61 49 0 0
-0.1350 0.1374 -0.9828 -0.970 -0.088 0.228 86 65 53 0 0
-0.1505 0.1490 -0.9928 -0.931 0.358 0.075 93 71 57 0 0
-0.1507 0.1490 -0.9960 -0.772 0.523 -0.361 91 72 58 0 0
-0.1879 0.1773 -1.0137 -0.990 0.134 0.048 83 47 22 0 0
-0.1886 0.1768 -1.0401 -0.916 0.206 0.345 85 57 38 0 0
-0.1868 0.1749 -1.0516 -0.820 0.546 -0.173 85 59 42 0 0
-0.1864 0.1745 -1.0553 -0.862 0.492 -0.124 86 60 43 0 0
-0.1869 0.1747 -1.0583 -0.915 0.402 0.039 85 61 45 0 0
-0.1854 0.1734 -1.0628 -0.669 0.743 -0.018 85 62 46 0 0
-0.1874 0.1749 -1.0647 -0.618 0.778 0.108 83 60 44 0 0
-0.1866 0.1740 -1.0687 -0.917 0.395 -0.056 79 58 44 0 0
-0.1890 0.1748 -1.0975 -0.931 0.363 -0.042 73 46 33 0 0
-0.0540 0.1184 0.0297 -0.914 0.283 0.290 50 24 11 0 0
-0.0519 0.1162 0.0180 -0.799 0.580 0.158 43 21 8 0 0
-0.0774 0.1317 -0.0899 -0.960 -0.021 0.279 66 46 35 0 0
-0.1459 0.1828 -0.1415 -0.415 0.823 0.388 61 35 21 0 0
-0.1405 0.1783 -0.1507 -0.896 0.381 -0.228 60 45 37 0 0
-0.1191 0.1607 -0.1767 -0.932 0.302 -0.202 61 51 42 0 0
-0.1107 0.1539 -0.1837 -0.934 0.330 -0.139 62 51 45 0 0
-0.1106 0.1537 -0.1867 -0.970 0.237 -0.046 61 50 44 0 0
-0.1084 0.1515 -0.1989 -0.936 0.018 -0.353 63 52 46 0 0
-0.0895 0.1356 -0.2318 -0.858 -0.034 -0.513 67 54 48 0 0
-0.0509 0.1026 -0.3100 -0.997 0.073 -0.014 76 62 53 0 0
-0.0487 0.1007 -0.3136 -0.819 0.077 0.569 76 61 51 0 0
-0.0652 0.1130 -0.3257 -0.650 0.340 0.680 77 59 50 0 0
-0.0657 0.1133 -0.3287 -0.971 -0.187 0.151 80 65 58 0 0
-0.0286 0.0828 -0.3725 -0.736 0.677 0.021 87 79 76 0 0
-0.0408 0.0917 -0.3886 -0.148 0.579 0.802 93 79 75 0 0
-0.0494 0.0983 -0.3896 -0.771 0.403 0.493 82 71 67 0 0
-0.1127 0.1282 -0.8764 -0.795 0.141 -0.590 96 81 71 0 0
-0.0930 0.1108 -0.9296 -0.980 0.075 -0.185 95 76 69 0 0
-0.0938 0.1112 -0.9360 -0.988 0.032 0.153 94 74 62 0 0
-0.0943 0.1114 -0.9392 -0.988 0.032 0.153 90 70 57 0 0
-0.0935 0.1107 -0.9431 -0.948 -0.237 0.213 89 68 52 0 0
-0.0947 0.1116 -0.9459 -0.993 -0.053 -0.102 88 66 50 0 0
-0.1316 0.1389 -0.9771 -0.763 0.525 0.377 82 60 48 0 0
-0.1324 0.1394 -0.9800 -0.989 0.139 0.049 83 61 48 0 0
-0.1342 0.1407 -0.9822 -0.891 0.002 0.454 86 65 53 0 0
-0.1738 0.1707 -1.0024 -0.655 0.733 -0.186 93 69 56 0 0
-0.1880 0.1800 -1.0461 -0.887 0.428 -0.171 87 58 40 0 0
-0.1863 0.1783 -1.0541 -0.951 0.299 0.083 85 58 41 0 0
-0.1856 0.1776 -1.0580 -0.915 0.402 0.039 86 60 44 0 0
-0.1857 0.1775 -1.0614 -0.836 0.512 0.197 86 60 45 0 0
-0.1864 0.1779 -1.0643 -0.695 0.707 0.130 83 58 43 0 0
-0.1859 0.1775 -1.0680 -0.594 0.587 0.551 79 57 41 0 0
-0.2131 0.1949 -1.1585 -0.849 -0.238 0.473 193 193 193 0 0
-0.2146 0.1960 -1.1607 -0.849 -0.238 0.473 195 195 195 0 0
-0.0523 0.1208 0.0297 -0.754 0.624 0.206 46 23 9 0 0
-0.0529 0.1211 0.0267 -0.754 0.624 0.206 46 23 9 0 0
-0.0534 0.1214 0.0238 -0.799 0.584 0.144 46 23 9 0 0
-0.1361 0.1782 -0.1598 -0.894 0.433 0.117 61 48 40 0 0
-0.1101 0.1572 -0.1807 -0.886 -0.047 -0.462 62 50 44 0 0
-0.1096 0.1568 -0.1837 -0.943 -0.005 -0.334 63 50 44 0 0
-0.1089 0.1561 -0.1868 -0.985 -0.146 -0.090 63 50 44 0 0
-0.0964 0.1448 -0.2274 -0.717 0.040 -0.696 66 53 47 0 0
-0.0925 0.1416 -0.2341 -0.829 -0.300 -0.471 65 52 46 0 0
-0.0844 0.1347 -0.2506 -0.933 0.011 -0.361 69 56 48 0 0
-0.0512 0.1067 -0.3096 -0.992 -0.081 0.092 73 57 47 0 0
-0.0341 0.0915 -0.3611 -0.335 0.694 -0.637 175 175 177 0 0
-0.0513 0.1035 -0.3950 -0.987 -0.082 0.136 77 62 57 0 0
-0.1028 0.1231 -0.9121 -0.990 -0.131 -0.049 79 62 50 0 0
-0.1345 0.1450 -0.9809 -0.533 0.751 0.391 89 67 56 0 0
-0.1340 0.1444 -0.9846 -0.098 0.736 0.669 94 72 61 0 0
-0.1848 0.1830 -1.0036 -0.995 -0.071 0.075 87 52 30 0 0
-0.1842 0.1801 -1.0646 -0.695 0.707 0.130 84 57 43 0 0
-0.1840 0.1798 -1.0682 -0.667 0.574 0.474 80 57 41 0 0
-0.1856 0.1799 -1.0976 -0.870 0.492 0.008 75 51 37 0 0
-0.1991 0.1883 -1.1517 -0.931 0.287 0.227 134 128 121 0 0
-0.0488 0.1219 0.0325 -0.793 0.597 -0.124 47 24 10 0 0
-0.0495 0.1224 0.0296 -0.732 0.681 0.001 46 23 9 0 0
-0.0514 0.1236 0.0238 -0.802 0.568 0.188 47 24 8 0 0
-0.0746 0.1371 -0.0900 -0.813 0.582 -0.018 66 47 37 0 0
-0.0754 0.1375 -0.0958 -0.911 -0.037 0.411 70 50 38 0 0
-0.1417 0.1867 -0.1446 -0.692 0.551 0.467 59 35 20 0 0
-0.1352 0.1811 -0.1598 -0.943 0.320 -0.090 61 48 40 0 0
-0.0836 0.1378 -0.2505 -0.983 -0.035 -0.182 63 50 42 0 0
-0.0834 0.1376 -0.2536 -0.987 0.132 -0.092 64 51 43 0 0
-0.0361 0.0974 -0.3507 -0.441 0.699 -0.564 157 152 152 0 0
-0.0512 0.1076 -0.3883 -0.890 -0.117 0.441 73 57 49 0 0
-0.0923 0.1211 -0.8591 -0.473 -0.660 0.583 99 73 53 0 0
-0.1013 0.1261 -0.9086 -0.939 0.037 0.342 74 55 41 0 0
-0.0984 0.1218 -0.9622 0.200 0.240 0.950 93 73 61 0 0
-0.1881 0.1891 -1.0101 -0.955 0.194 0.222 80 44 17 0 0
-0.1832 0.1820 -1.0948 -0.927 0.375 0.021 73 49 37 0 0
-0.1923 0.1879 -1.1251 -0.788 0.531 0.311 88 61 38 0 0
-0.2002 0.1937 -1.1324 -0.961 0.266 0.071 89 65 44 0 0
-0.2009 0.1941 -1.1352 -0.965 0.237 -0.109 86 63 45 0 0
-0.0595 0.1347 0.0527 -0.872 0.414 0.260 52 28 9 0 0
-0.0469 0.1240 0.0266 -0.790 0.610 0.058 47 24 10 0 0
-0.0468 0.1239 0.0237 -0.809 0.570 0.142 48 25 10 0 0
-0.0464 0.1213 -0.0353 -0.840 0.531 0.112 40 17 7 0 0
-0.1343 0.1840 -0.1597 -0.939 0.285 -0.194 61 48 40 0 0
-0.0701 0.1298 -0.2895 -0.956 -0.209 0.205 63 47 39 0 0
-0.0225 0.0905 -0.3600 -0.610 0.640 -0.467 61 53 47 0 0
-0.0523 0.1125 -0.3844 -0.861 -0.368 0.350 74 56 46 0 0
-0.0521 0.1122 -0.3877 -0.945 -0.148 0.293 73 55 46 0 0
-0.0541 0.1135 -0.3935 -0.956 -0.287 -0.061 73 54 47 0 0
-0.1225 0.1647 -0.4272 -0.848 0.513 0.132 73 43 23 0 0
-0.1208 0.1470 -0.8585 -0.953 0.300 -0.046 91 62 39 0 0
-0.1196 0.1458 -0.8659 -0.752 0.596 -0.280 93 70 51 0 0
-0.1201 0.1461 -0.8690 -0.901 0.382 -0.204 93 72 56 0 0
-0.1003 0.1289 -0.9185 -0.963 -0.229 -0.142 85 65 52 0 0
-0.1331 0.1523 -0.9693 -0.874 0.323 0.363 87 66 55 0 0
-0.1832 0.1893 -1.0057 -0.561 0.804 -0.199 84 47 21 0 0
-0.1909 0.1930 -1.0639 -0.821 0.543 0.179 82 55 39 0 0
-0.1906 0.1927 -1.0675 -0.813 0.581 -0.035 80 55 40 0 0
-0.1896 0.1917 -1.0716 -0.734 0.653 -0.189 73 49 38 0 0
-0.1832 0.1852 -1.1140 -0.942 0.184 0.280 89 57 28 0 0
-0.1961 0.1936 -1.1549 -0.888 0.342 0.306 145 141 135 0 0
-0.2045 0.2000 -1.1548 -0.681 0.523 0.513 180 180 180 0 0
-0.2079 0.2023 -1.1622 -0.214 0.745 0.632 194 194 194 0 0
-0.2093 0.2033 -1.1644 -0.438 0.770 0.465 196 196 196 0 0
-0.0436 0.1263 0.0558 -0.789 0.607 0.094 52 29 13 0 0
-0.1281 0.1845 -0.1172 -0.936 0.197 0.290 110 93 81 0 0
-0.1295 0.1854 -0.1228 -0.962 0.225 0.153 107 90 76 0 0
-0.1411 0.1934 -0.1444 -0.862 0.181 0.473 54 30 17 0 0
-0.1038 0.1633 -0.1870 -0.527 0.816 0.238 61 48 41 0 0
-0.1047 0.1639 -0.1898 -0.435 0.865 0.251 61 48 41 0 0
-0.1055 0.1643 -0.1926 -0.676 0.674 -0.297 60 47 41 0 0
-0.1049 0.1638 -0.1957 -0.644 0.673 -0.363 61 48 42 0 0
-0.0800 0.1416 -0.2781 -0.901 -0.433 -0.013 63 46 38 0 0
-0.0570 0.1229 -0.3075 -0.855 -0.512 -0.081 62 47 38 0 0
-0.1203 0.1668 -0.4274 -0.393 0.703 0.593 73 42 22 0 0
-0.0937 0.1303 -0.8564 -0.245 -0.417 0.875 99 76 60 0 0
-0.1336 0.1566 -0.9679 -0.871 0.397 0.288 87 67 56 0 0
-0.1820 0.1907 -1.0457 -0.854 0.465 0.232 87 58 36 0 0
-0.1835 0.1918 -1.0480 -0.739 0.607 0.293 87 59 37 0 0
-0.1867 0.1933 -1.0725 -0.637 0.755 -0.155 76 50 39 0 0
-0.1830 0.1898 -1.0890 -0.609 0.783 -0.129 67 45 35 0 0
-0.1826 0.1886 -1.1131 -0.939 0.060 0.340 89 57 26 0 0
-0.1998 0.2010 -1.1334 -0.895 0.434 -0.106 91 64 43 0 0
-0.1985 0.1997 -1.1413 -0.977 0.200 -0.073 78 59 43 0 0
-0.1953 0.1968 -1.1542 -0.972 0.227 0.060 137 131 123 0 0
-0.2025 0.2022 -1.1585 -0.487 0.318 0.814 185 185 185 0 0
-0.2033 0.2024 -1.1681 -0.667 0.704 0.244 196 196 195 0 0
-0.0442 0.1305 0.0557 -0.865 0.422 0.272 50 24 9 0 0
-0.0458 0.1314 0.0469 -0.912 0.376 0.162 52 26 11 0 0
-0.0445 0.1299 0.0324 -0.751 0.598 0.281 43 19 8 0 0
-0.0450 0.1302 0.0294 -0.792 0.590 0.155 45 21 9 0 0
-0.1265 0.1869 -0.1172 -0.820 0.315 0.477 111 92 81 0 0
-0.1397 0.1959 -0.1444 -0.927 0.147 0.346 56 30 18 0 0
-0.1011 0.1648 -0.1901 -0.790 0.551 0.269 61 47 40 0 0
-0.1021 0.1646 -0.2166 -0.985 0.009 -0.170 61 47 39 0 0
-0.1143 0.1656 -0.4380 -0.987 0.035 0.160 76 54 40 0 0
-0.1176 0.1518 -0.8753 -0.648 0.599 0.470 90 68 52 0 0
-0.0997 0.1347 -0.9650 -0.915 -0.379 0.136 96 78 68 0 0
-0.1320 0.1593 -0.9679 -0.722 0.684 0.107 87 67 56 0 0
-0.1351 0.1616 -0.9692 -0.602 0.792 -0.107 89 68 57 0 0
-0.1811 0.1939 -1.0451 -0.944 0.303 0.128 88 58 34 0 0
-0.1879 0.1984 -1.0637 -0.449 0.865 -0.225 86 58 43 0 0
-0.1873 0.1978 -1.0675 -0.525 0.851 0.006 85 57 43 0 0
-0.1929 0.2000 -1.1241 -0.740 0.654 -0.160 90 62 40 0 0
-0.1986 0.2040 -1.1331 -0.866 0.442 -0.232 91 63 42 0 0
-0.1969 0.2022 -1.1447 -0.960 0.079 -0.268 77 62 50 0 0
-0.1991 0.2034 -1.1599 -0.774 0.614 0.151 184 184 184 0 0
-0.0436 0.1336 0.0498 -0.815 0.578 0.040 47 21 8 0 0
-0.0437 0.1336 0.0469 -0.815 0.578 0.040 47 20 8 0 0
-0.0401 0.1304 0.0352 -0.691 0.579 0.433 41 17 6 0 0
-0.0400 0.1302 0.0323 -0.859 0.437 0.267 41 17 6 0 0
-0.0419 0.1313 0.0235 -0.701 0.561 0.440 48 25 11 0 0
-0.0445 0.1331 0.0177 -0.674 0.628 0.389 46 23 9 0 0
-0.0455 0.1338 0.0147 -0.661 0.653 0.371 44 21 7 0 0
-0.0463 0.1342 0.0118 -0.748 0.556 0.363 44 20 7 0 0
-0.1045 0.1710 -0.1924 -0.940 0.040 -0.340 61 45 39 0 0
-0.1017 0.1679 -0.2165 -1.000 -0.011 0.023 59 44 37 0 0
-0.1012 0.1674 -0.2196 -0.984 0.166 -0.063 59 44 37 0 0
-0.0784 0.1475 -0.2901 -0.856 0.365 -0.366 53 36 27 0 0
-0.0431 0.1180 -0.3603 -0.958 0.166 0.233 55 40 31 0 0
-0.0441 0.1186 -0.3632 -0.997 0.058 -0.058 61 46 40 0 0
-0.1171 0.1715 -0.4367 -0.955 0.256 0.151 75 53 39 0 0
-0.0251 0.0900 -0.7470 -0.762 -0.568 0.311 97 81 71 0 0
-0.0987 0.1397 -0.9198 -0.968 -0.202 -0.152 77 55 41 0 0
-0.1337 0.1645 -0.9690 -0.716 0.638 0.284 90 69 58 0 0
-0.1866 0.2015 -1.0566 -0.838 0.441 0.322 86 59 40 0 0
-0.1833 0.1984 -1.0726 -0.793 0.604 -0.085 78 54 38 0 0
-0.1989 0.2081 -1.1316 -0.959 0.226 -0.169 91 63 41 0 0
-0.1970 0.2062 -1.1433 -0.960 0.079 -0.268 78 59 46 0 0
-0.1959 0.2052 -1.1475 -0.969 0.069 -0.239 88 78 64 0 0
-0.1976 0.2060 -1.1598 -0.557 0.470 0.685 183 183 182 0 0
-0.0422 0.1374 0.0817 -0.974 0.162 0.160 57 29 12 0 0
-0.0447 0.1391 0.0758 -0.727 0.550 0.411 56 29 11 0 0
-0.0435 0.1381 0.0729 -0.684 0.694 0.225 54 27 11 0 0
-0.0419 0.1360 0.0497 -0.815 0.578 0.040 46 19 8 0 0
-0.0420 0.1360 0.0468 -0.731 0.683 0.006 46 19 8 0 0
-0.0419 0.1358 0.0439 -0.839 0.543 -0.028 45 22 8 0 0
-0.0385 0.1328 0.0322 -0.833 0.463 0.303 38 14 3 0 0
-0.0377 0.1321 0.0293 -0.738 0.675 0.003 41 17 5 0 0
-0.0380 0.1322 0.0264 -0.763 0.601 0.237 47 24 11 0 0
-0.0450 0.1368 0.0059 -0.745 0.596 0.299 43 19 7 0 0
-0.1252 0.1927 -0.1286 -0.776 0.259 0.576 92 53 28 0 0
-0.1162 0.1842 -0.1730 -0.845 -0.339 -0.413 64 47 40 0 0
-0.1074 0.1772 -0.1830 -0.768 0.125 0.628 61 46 39 0 0
-0.1084 0.1776 -0.1917 -0.937 -0.191 -0.294 62 45 38 0 0
-0.1047 0.1747 -0.1951 -0.889 -0.424 0.171 62 45 38 0 0
-0.1014 0.1715 -0.2163 -0.982 0.180 -0.054 60 43 36 0 0
-0.1016 0.1714 -0.2193 -0.985 0.173 0.008 60 43 36 0 0
-0.1004 0.1704 -0.2224 -0.948 0.253 -0.192 58 42 35 0 0
-0.1165 0.1748 -0.4364 -0.889 0.280 0.361 74 52 38 0 0
-0.0309 0.0988 -0.7365 -0.765 -0.582 0.276 92 74 63 0 0
-0.0368 0.1033 -0.7371 -0.757 -0.585 0.291 87 68 55 0 0
-0.0355 0.1022 -0.7411 -0.793 -0.511 0.332 86 67 52 0 0
-0.0381 0.1041 -0.7432 -0.775 -0.493 0.394 83 63 47 0 0
-0.0372 0.1033 -0.7471 -0.778 -0.409 0.477 80 59 43 0 0
-0.0395 0.1049 -0.7494 -0.778 -0.409 0.477 81 59 42 0 0
-0.0435 0.1079 -0.7509 -0.736 -0.310 0.602 80 58 41 0 0
-0.0486 0.1116 -0.7552 -0.419 0.776 0.471 83 62 45 0 0
-0.1159 0.1580 -0.8844 -0.638 0.730 0.243 88 62 47 0 0
-0.1261 0.1626 -0.9695 -0.897 0.391 0.204 90 70 59 0 0
-0.1791 0.1999 -1.0509 -0.938 0.293 0.187 84 52 30 0 0
-0.1846 0.2036 -1.0636 -0.929 0.335 0.160 85 57 41 0 0
-0.0409 0.1400 0.0787 -0.857 0.480 0.188 57 28 12 0 0
-0.0413 0.1402 0.0758 -0.655 0.642 0.399 55 26 9 0 0
-0.0404 0.1389 0.0584 -0.800 0.501 0.331 49 23 10 0 0
-0.0415 0.1396 0.0555 -0.870 0.377 0.318 51 26 12 0 0
-0.0402 0.1384 0.0497 -0.881 0.471 0.036 49 23 11 0 0
-0.0435 0.1408 0.0467 -0.795 0.576 0.192 51 26 14 0 0
-0.0402 0.1383 0.0439 -0.790 0.612 -0.029 51 28 14 0 0
-0.0402 0.1381 0.0409 -0.790 0.612 -0.029 51 28 14 0 0
-0.0403 0.1380 0.0351 -0.738 0.675 0.009 45 20 7 0 0
-0.0399 0.1376 0.0322 -0.835 0.425 0.349 44 19 6 0 0
-0.0425 0.1374 -0.0295 -0.845 0.479 0.239 38 15 7 0 0
-0.0332 0.1293 -0.0567 -0.848 0.303 0.434 41 18 10 0 0
-0.0498 0.1417 -0.0617 -0.538 0.235 0.810 51 34 25 0 0
-0.0666 0.1541 -0.0696 -0.928 0.300 0.220 57 34 27 0 0
-0.1191 0.1922 -0.1148 -0.914 0.397 0.077 100 71 58 0 0
-0.1240 0.1955 -0.1258 -0.807 0.326 0.492 112 78 57 0 0
-0.1011 0.1749 -0.2162 -0.956 0.201 -0.211 60 43 35 0 0
-0.1011 0.1748 -0.2191 -0.909 0.396 -0.129 59 42 34 0 0
-0.1020 0.1753 -0.2220 -0.729 0.527 -0.436 57 41 35 0 0
-0.0973 0.1716 -0.2287 -0.669 0.726 -0.159 56 41 35 0 0
-0.0974 0.1716 -0.2316 -0.628 0.778 0.002 56 41 36 0 0
-0.0974 0.1715 -0.2346 -0.776 0.596 -0.206 59 42 35 0 0
-0.1207 0.1826 -0.4133 -0.188 0.831 0.523 82 53 35 0 0
-0.0215 0.0959 -0.7333 -0.843 -0.490 0.223 89 70 56 0 0
-0.0365 0.1074 -0.7296 -0.763 -0.584 0.278 87 67 52 0 0
-0.0413 0.1107 -0.7375 -0.807 -0.539 0.239 84 61 45 0 0
-0.0427 0.1118 -0.7402 -0.807 -0.539 0.239 83 60 44 0 0
-0.0483 0.1159 -0.7409 -0.788 -0.446 0.424 83 60 44 0 0
-0.0461 0.1138 -0.7522 -0.885 0.224 0.409 80 58 40 0 0
-0.1139 0.1616 -0.8510 -0.784 -0.074 0.616 82 45 19 0 0
-0.0960 0.1453 -0.9262 -0.933 0.237 0.272 82 60 46 0 0
-0.1254 0.1660 -0.9689 -0.568 0.807 -0.163 92 70 59 0 0
-0.1293 0.1690 -0.9697 -0.686 0.114 0.719 93 72 59 0 0
-0.1838 0.2068 -1.0630 -0.923 0.299 0.242 84 57 38 0 0
-0.1747 0.1987 -1.0970 -0.712 0.669 -0.212 69 46 33 0 0
-0.0394 0.1427 0.0815 -0.906 0.416 0.078 55 25 6 0 0
-0.0405 0.1425 0.0525 -0.702 0.661 0.265 49 23 8 0 0
-0.0411 0.1428 0.0496 -0.785 0.576 0.228 45 18 5 0 0
-0.0416 0.1431 0.0467 -0.785 0.576 0.228 46 20 6 0 0
-0.0430 0.1436 0.0321 -0.843 0.536 -0.043 51 24 9 0 0
-0.0429 0.1435 0.0292 -0.843 0.536 -0.043 48 22 6 0 0
-0.0426 0.1431 0.0263 -0.902 0.395 0.173 49 24 9 0 0
-0.0417 0.1411 -0.0118 -0.856 0.460 0.236 35 14 2 0 0
-0.0404 0.1396 -0.0266 -0.845 0.479 0.239 42 20 7 0 0
-0.0411 0.1400 -0.0296 -0.845 0.479 0.239 42 18 8 0 0
-0.0406 0.1395 -0.0325 -0.880 0.454 0.138 38 16 6 0 0
-0.0811 0.1682 -0.0832 -0.745 -0.236 0.624 84 63 53 0 0
-0.1167 0.1942 -0.1092 -0.994 -0.013 0.104 103 77 63 0 0
-0.1174 0.1946 -0.1120 -0.740 0.592 0.319 103 76 61 0 0
-0.1093 0.1855 -0.1970 -0.979 0.099 -0.180 61 44 37 0 0
-0.1100 0.1858 -0.1999 -0.989 -0.028 0.143 60 43 36 0 0
-0.0968 0.1750 -0.2256 -0.586 0.681 -0.438 57 41 34 0 0
-0.0905 0.1701 -0.2296 -0.547 0.712 0.441 57 41 34 0 0
-0.0947 0.1731 -0.2349 -0.600 0.793 0.106 58 41 34 0 0
-0.0899 0.1693 -0.2387 -0.724 0.448 -0.524 58 41 34 0 0
-0.0766 0.1587 -0.2561 -0.862 0.436 0.258 54 37 29 0 0
-0.0791 0.1603 -0.2617 -0.998 -0.049 0.050 57 40 32 0 0
-0.0766 0.1564 -0.3202 -0.783 0.039 0.621 63 36 24 0 0
-0.1152 0.1818 -0.4236 -0.622 0.266 0.737 81 46 25 0 0
-0.1208 0.1705 -0.8561 -0.969 -0.239 -0.058 94 60 35 0 0
-0.1189 0.1689 -0.8605 -0.913 -0.078 -0.400 91 60 35 0 0
-0.1184 0.1645 -0.9724 -0.554 0.665 0.501 95 73 60 0 0
-0.1450 0.1838 -0.9919 -0.712 0.697 0.092 103 80 66 0 0
-0.1846 0.2126 -1.0244 -0.869 0.473 0.144 89 50 21 0 0
-0.1827 0.2098 -1.0626 -0.923 0.299 0.242 83 56 37 0 0
-0.1839 0.2106 -1.0651 -0.730 0.573 0.372 83 57 38 0 0
-0.1767 0.2047 -1.0773 -0.992 -0.015 0.122 75 52 36 0 0
-0.1726 0.2009 -1.0974 -0.712 0.669 -0.212 68 46 33 0 0
-0.1955 0.2164 -1.1473 -0.963 0.143 0.228 95 82 69 0 0
-0.1947 0.2157 -1.1513 -0.974 0.226 -0.021 127 118 112 0 0
-0.0376 0.1447 0.0699 -0.782 0.606 0.146 55 25 7 0 0
-0.0380 0.1449 0.0670 -0.782 0.606 0.146 58 28 11 0 0
-0.0393 0.1452 0.0495 -0.820 0.565 0.091 58 30 14 0 0
-0.0397 0.1454 0.0466 -0.766 0.638 0.081 54 25 10 0 0
-0.0398 0.1454 0.0437 -0.752 0.658 -0.040 57 29 10 0 0
-0.0368 0.1430 0.0408 -0.759 0.651 0.016 59 31 12 0 0
-0.0408 0.1457 0.0321 -0.845 0.534 -0.020 62 33 13 0 0
-0.0406 0.1454 0.0291 -0.829 0.558 0.040 57 29 11 0 0
-0.0406 0.1454 0.0262 -0.833 0.550 0.059 55 27 12 0 0
-0.0408 0.1454 0.0233 -0.833 0.550 0.059 51 24 11 0 0
-0.0390 0.1423 -0.0267 -0.814 0.580 0.024 47 23 10 0 0
-0.0391 0.1423 -0.0296 -0.814 0.580 0.024 47 22 10 0 0
-0.0397 0.1426 -0.0326 -0.744 0.668 -0.027 43 18 6 0 0
-0.0543 0.1523 -0.0673 -0.677 0.109 0.728 84 67 59 0 0
-0.0620 0.1578 -0.0756 -0.956 0.281 -0.090 98 76 67 0 0
-0.1087 0.1886 -0.1969 -0.891 0.014 -0.454 61 44 37 0 0
-0.0903 0.1733 -0.2384 -0.705 0.304 -0.641 58 41 34 0 0
-0.0898 0.1728 -0.2415 -0.849 -0.140 -0.509 58 41 34 0 0
-0.0811 0.1654 -0.2671 -0.488 0.576 0.656 51 35 27 0 0
-0.0763 0.1599 -0.3199 -0.783 0.039 0.621 58 31 19 0 0
-0.0611 0.1473 -0.3513 -0.939 0.308 0.151 53 39 30 0 0
-0.1208 0.1743 -0.8585 -0.967 0.106 -0.230 92 59 35 0 0
-0.1798 0.2090 -1.1314 -0.976 0.217 -0.020 90 60 35 0 0
-0.1779 0.2074 -1.1363 -0.932 0.350 0.091 90 59 38 0 0
-0.1804 0.2083 -1.1651 -0.942 0.305 -0.140 153 149 143 0 0
-0.0377 0.1477 0.0495 -0.837 0.527 0.145 55 25 8 0 0
-0.0390 0.1479 0.0291 -0.829 0.558 0.040 57 27 8 0 0
-0.0390 0.1478 0.0262 -0.833 0.550 0.059 54 25 10 0 0
-0.0392 0.1479 0.0232 -0.833 0.550 0.059 51 23 10 0 0
-0.0399 0.1483 0.0203 -0.805 0.593 0.015 48 20 8 0 0
-0.0371 0.1446 -0.0267 -0.670 0.684 0.288 46 21 9 0 0
-0.0369 0.1443 -0.0297 -0.922 0.372 0.108 48 21 10 0 0
-0.0372 0.1444 -0.0327 -0.922 0.372 0.108 47 21 10 0 0
-0.1106 0.1967 -0.1095 -0.591 0.710 -0.382 106 80 67 0 0
-0.1126 0.1982 -0.1122 -0.910 0.387 0.146 112 86 71 0 0
-0.0893 0.1762 -0.2413 -0.956 -0.116 -0.269 57 40 33 0 0
-0.0601 0.1504 -0.3512 -0.939 0.308 0.151 47 33 24 0 0
-0.0622 0.1517 -0.3600 -0.746 0.603 0.283 56 40 28 0 0
-0.0678 0.1555 -0.3711 -0.936 0.279 0.215 61 46 40 0 0
-0.0627 0.1508 -0.3974 -0.990 0.068 -0.127 58 27 15 0 0
-0.0966 0.1759 -0.4066 0.048 0.936 0.349 70 37 19 0 0
-0.0980 0.1768 -0.4093 0.149 0.912 0.382 105 79 66 0 0
-0.1152 0.1891 -0.4258 -0.886 0.464 0.011 75 42 17 0 0
-0.1158 0.1895 -0.4287 -0.877 0.480 0.026 73 40 15 0 0
-0.0139 0.1105 -0.5020 -0.806 -0.592 0.017 89 77 69 0 0
-0.1209 0.1782 -0.8575 -0.965 0.259 -0.042 91 58 33 0 0
-0.1206 0.1779 -0.8610 -0.945 0.326 0.007 91 60 38 0 0
-0.1221 0.1789 -0.8634 -0.945 0.203 0.256 93 63 42 0 0
-0.1131 0.1717 -0.8788 -0.716 0.635 -0.291 89 62 42 0 0
-0.1068 0.1663 -0.8961 -0.558 0.820 -0.126 76 50 34 0 0
-0.1037 0.1638 -0.9014 -0.791 0.348 -0.504 74 48 33 0 0
-0.0971 0.1567 -0.9636 -0.956 0.122 -0.266 92 68 50 0 0
-0.1805 0.2156 -1.0652 -0.871 0.492 0.000 83 57 38 0 0
-0.1765 0.2123 -1.0750 -0.952 0.196 0.237 76 53 37 0 0
-0.1792 0.2111 -1.1648 -0.913 0.349 -0.212 146 142 134 0 0
-0.0342 0.1498 0.0785 -0.806 0.580 0.117 60 27 8 0 0
-0.0370 0.1516 0.0697 -0.862 0.492 0.121 61 28 9 0 0
-0.0372 0.1516 0.0668 -0.901 0.415 0.126 60 28 9 0 0
-0.0369 0.1513 0.0639 -0.812 0.583 0.032 59 28 8 0 0
-0.0351 0.1497 0.0581 -0.862 0.477 0.173 58 27 8 0 0
-0.0356 0.1500 0.0552 -0.889 0.435 0.140 58 27 7 0 0
-0.0360 0.1502 0.0523 -0.889 0.435 0.140 57 26 6 0 0
-0.0364 0.1504 0.0494 -0.889 0.435 0.140 53 22 4 0 0
-0.0364 0.1503 0.0465 -0.859 0.479 0.183 54 23 5 0 0
-0.0369 0.1506 0.0436 -0.859 0.479 0.183 59 28 8 0 0
-0.0375 0.1504 0.0232 -0.833 0.550 0.059 51 23 10 0 0
-0.0377 0.1504 0.0203 -0.833 0.550 0.059 46 18 6 0 0
-0.0376 0.1502 0.0173 -0.854 0.516 -0.065 45 18 6 0 0
-0.1292 0.2133 -0.1362 -0.848 0.493 0.193 82 44 14 0 0
-0.1298 0.2137 -0.1390 -0.785 0.620 -0.013 76 39 14 0 0
-0.1098 0.1971 -0.1847 -0.817 0.298 0.493 64 46 39 0 0
-0.0978 0.1870 -0.2188 -0.789 -0.296 -0.539 58 41 33 0 0
-0.0983 0.1872 -0.2247 -0.926 -0.024 -0.377 57 40 32 0 0
-0.0953 0.1848 -0.2282 -0.975 -0.089 -0.202 57 40 32 0 0
-0.0814 0.1735 -0.2545 -0.997 0.029 -0.065 54 37 29 0 0
-0.0752 0.1675 -0.2920 -0.932 0.152 -0.330 43 28 21 0 0
-0.0595 0.1538 -0.3510 -0.958 0.251 0.138 51 34 26 0 0
-0.0664 0.1574 -0.3960 -0.959 0.060 0.278 61 31 17 0 0
-0.0947 0.1781 -0.4068 0.075 0.996 0.055 67 31 12 0 0
-0.0957 0.1788 -0.4096 0.068 0.995 -0.072 101 74 58 0 0
-0.1160 0.1931 -0.4343 -0.679 0.714 -0.174 76 47 27 0 0
-0.0496 0.1324 -0.7540 -0.967 0.180 -0.183 73 47 32 0 0
-0.0463 0.1295 -0.7658 -0.379 0.429 -0.820 73 47 34 0 0
-0.1118 0.1747 -0.8752 -0.843 0.425 -0.328 91 62 41 0 0
-0.1171 0.1786 -0.8787 -0.632 0.652 -0.419 79 52 32 0 0
-0.1130 0.1749 -0.8947 -0.754 0.625 -0.204 72 46 31 0 0
-0.1062 0.1692 -0.9124 -0.939 -0.086 0.334 69 43 28 0 0
-0.1056 0.1684 -0.9229 -0.689 0.274 0.671 83 57 39 0 0
-0.1785 0.2180 -1.0654 -0.767 0.622 0.158 82 55 38 0 0
-0.1788 0.2149 -1.1603 -0.943 0.327 0.056 106 94 83 0 0
-0.0374 0.1564 0.0955 -0.790 0.526 0.315 84 48 20 0 0
-0.0332 0.1529 0.0842 -0.874 0.295 0.387 71 38 19 0 0
-0.0339 0.1533 0.0813 -0.801 0.598 0.024 66 33 14 0 0
-0.0336 0.1530 0.0784 -0.766 0.629 0.133 63 30 11 0 0
-0.0347 0.1536 0.0726 -0.732 0.675 0.090 65 32 13 0 0
-0.0350 0.1537 0.0697 -0.732 0.675 0.090 63 30 11 0 0
-0.0350 0.1537 0.0668 -0.798 0.582 0.158 62 29 10 0 0
-0.0352 0.1537 0.0639 -0.812 0.583 0.032 62 30 9 0 0
-0.0342 0.1529 0.0610 -0.910 0.409 -0.065 61 30 9 0 0
-0.0345 0.1530 0.0581 -0.886 0.461 0.043 56 24 4 0 0
-0.0342 0.1525 0.0523 -0.863 0.495 0.098 62 31 10 0 0
-0.0335 0.1519 0.0465 -0.826 0.564 0.025 62 30 10 0 0
-0.0341 0.1522 0.0435 -0.883 0.439 0.167 66 34 13 0 0
-0.0363 0.1529 0.0173 -0.894 0.441 0.080 52 25 8 0 0
-0.0831 0.1843 -0.0828 -0.946 -0.288 0.146 75 51 41 0 0
-0.1254 0.2134 -0.1536 -0.700 0.712 0.052 66 46 36 0 0
-0.1157 0.2054 -0.1779 -0.857 0.283 -0.431 65 47 39 0 0
-0.1119 0.2021 -0.1901 -0.927 -0.049 0.371 64 45 38 0 0
-0.0812 0.1770 -0.2543 -0.907 0.388 0.161 55 38 30 0 0
-0.0862 0.1804 -0.2654 -0.589 0.483 0.648 50 33 25 0 0
-0.0801 0.1753 -0.2817 -0.903 0.397 0.166 49 35 26 0 0
-0.0805 0.1755 -0.2846 -0.880 0.475 0.023 50 36 27 0 0
-0.0738 0.1702 -0.2920 -0.950 0.313 0.008 42 25 18 0 0
-0.0632 0.1603 -0.3528 -0.878 0.007 0.478 47 30 22 0 0
-0.0659 0.1608 -0.3957 -0.941 -0.285 0.185 62 32 18 0 0
-0.1165 0.1973 -0.4306 -0.744 0.658 0.122 77 40 19 0 0
-0.1166 0.1973 -0.4337 -0.861 0.509 -0.015 76 45 26 0 0
-0.0294 0.1268 -0.5945 -0.890 -0.456 0.001 91 71 59 0 0
-0.0293 0.1266 -0.5979 -0.890 -0.456 0.001 92 72 59 0 0
-0.0200 0.1191 -0.6149 -0.905 -0.426 0.021 94 73 59 0 0
-0.0203 0.1192 -0.6181 -0.887 -0.461 0.040 94 72 58 0 0
-0.0473 0.1363 -0.7071 -0.776 0.435 0.457 83 55 33 0 0
-0.0479 0.1353 -0.7506 -0.689 0.531 -0.493 74 46 31 0 0
-0.1183 0.1840 -0.8571 -0.907 0.392 0.156 91 56 26 0 0
-0.1197 0.1848 -0.8629 -0.905 0.221 0.364 93 60 34 0 0
-0.1176 0.1832 -0.8675 -0.905 0.382 -0.188 92 60 36 0 0
-0.1165 0.1822 -0.8714 -0.851 0.380 -0.364 90 59 36 0 0
-0.1154 0.1812 -0.8755 -0.729 0.550 -0.409 86 57 36 0 0
-0.1105 0.1771 -0.8918 -0.834 0.550 -0.037 75 49 34 0 0
-0.1116 0.1777 -0.8945 -0.867 0.460 -0.189 70 44 29 0 0
-0.1071 0.1739 -0.9074 -0.995 -0.053 0.079 66 40 25 0 0
-0.1068 0.1736 -0.9110 -0.992 0.012 0.128 67 41 26 0 0
-0.1057 0.1727 -0.9150 -0.919 0.310 -0.242 76 50 35 0 0
-0.1005 0.1682 -0.9318 -0.842 0.517 -0.150 84 59 38 0 0
-0.0967 0.1648 -0.9479 -0.705 0.618 -0.348 81 54 33 0 0
-0.0945 0.1628 -0.9596 -0.729 0.633 -0.260 81 49 28 0 0
-0.1298 0.1888 -0.9673 -0.985 -0.153 -0.083 100 78 64 0 0
-0.1688 0.2168 -0.9977 -0.776 0.629 -0.032 93 56 30 0 0
-0.1753 0.2190 -1.0734 -0.819 0.573 0.029 75 51 34 0 0
-0.1776 0.2178 -1.1599 -0.954 0.279 0.110 97 85 74 0 0
-0.0328 0.1562 0.0812 -0.926 0.347 0.151 65 32 13 0 0
-0.0335 0.1562 0.0667 -0.890 0.420 0.176 67 35 14 0 0
-0.0331 0.1557 0.0609 -0.960 0.265 0.089 68 36 15 0 0
-0.0326 0.1550 0.0493 -0.909 0.414 0.046 67 35 11 0 0
-0.0336 0.1553 0.0377 -0.862 0.502 0.066 64 32 11 0 0
-0.0334 0.1551 0.0347 -0.870 0.481 0.104 63 31 9 0 0
-0.0347 0.1556 0.0231 -0.857 0.484 0.175 56 25 6 0 0
-0.0351 0.1559 0.0201 -0.857 0.484 0.175 57 28 7 0 0
-0.0350 0.1556 0.0172 -0.894 0.441 0.080 59 31 10 0 0
-0.0355 0.1560 0.0143 -0.873 0.486 -0.043 57 29 8 0 0
-0.0384 0.1568 -0.0238 -0.847 0.484 -0.220 54 28 11 0 0
-0.0768 0.1831 -0.0890 -0.647 0.720 0.251 48 24 11 0 0
-0.1292 0.2203 -0.1388 -0.819 0.439 0.370 77 39 14 0 0
-0.1271 0.2183 -0.1533 -0.977 0.160 0.145 67 47 37 0 0
-0.1189 0.2113 -0.1773 -0.998 0.049 -0.032 66 46 39 0 0
-0.0809 0.1805 -0.2541 -0.986 0.112 0.127 54 37 29 0 0
-0.0625 0.1637 -0.3495 -0.793 0.517 0.321 46 29 21 0 0
-0.1162 0.2012 -0.4181 -0.832 0.535 0.145 80 39 14 0 0
-0.1100 0.1963 -0.4260 -0.862 0.475 0.175 78 38 12 0 0
-0.1113 0.1972 -0.4287 -0.908 0.412 0.072 77 37 13 0 0
-0.0457 0.1390 -0.7070 -0.776 0.435 0.457 77 48 28 0 0
-0.0465 0.1395 -0.7100 -0.735 0.665 0.134 78 47 27 0 0
-0.0562 0.1460 -0.7323 -0.963 0.217 0.157 72 43 27 0 0
-0.0696 0.1541 -0.7860 -0.894 -0.003 -0.448 78 49 37 0 0
-0.0673 0.1523 -0.7906 -0.894 -0.003 -0.448 78 51 38 0 0
-0.0957 0.1723 -0.8223 -0.569 -0.211 0.795 85 57 41 0 0
-0.1170 0.1869 -0.8569 -0.907 0.392 0.156 87 49 21 0 0
-0.1140 0.1841 -0.8753 -0.851 0.380 -0.364 88 59 38 0 0
-0.1082 0.1791 -0.8956 -0.915 0.239 -0.325 67 41 26 0 0
-0.1061 0.1768 -0.9171 -0.825 0.467 0.318 80 54 38 0 0
-0.1658 0.2184 -0.9987 -0.834 0.543 -0.096 92 55 29 0 0
-0.1665 0.2185 -1.0082 -0.844 0.124 0.522 79 39 11 0 0
-0.1849 0.2281 -1.1288 -0.822 0.569 -0.023 85 55 30 0 0
-0.0325 0.1589 0.0579 -0.960 0.265 0.089 68 34 13 0 0
-0.0329 0.1590 0.0521 -0.902 0.428 -0.051 65 31 10 0 0
-0.0313 0.1577 0.0492 -0.909 0.414 0.046 70 36 14 0 0
-0.0337 0.1566 -0.0357 -0.754 0.644 0.131 49 23 8 0 0
-0.0309 0.1543 -0.0418 -0.780 0.505 0.370 49 24 10 0 0
-0.0340 0.1565 -0.0446 -0.916 0.396 0.059 48 23 10 0 0
-0.0816 0.1905 -0.0828 -0.745 0.406 -0.529 70 45 32 0 0
-0.0759 0.1861 -0.0890 -0.803 0.591 -0.078 56 31 17 0 0
-0.0760 0.1861 -0.0919 -0.837 0.542 0.078 54 31 14 0 0
-0.0901 0.1960 -0.1052 -0.260 0.299 0.918 92 66 57 0 0
-0.1028 0.2052 -0.1128 -0.348 0.570 0.744 113 86 75 0 0
-0.1037 0.2058 -0.1156 -0.784 0.620 0.018 117 87 76 0 0
-0.1304 0.2250 -0.1300 -0.760 0.531 0.375 94 49 17 0 0
-0.1313 0.2256 -0.1328 -0.816 0.445 0.369 89 47 16 0 0
-0.1269 0.2221 -0.1389 -0.857 0.516 -0.015 78 41 15 0 0
-0.1254 0.2208 -0.1476 -0.777 0.629 -0.023 69 42 27 0 0
-0.1272 0.2219 -0.1531 -0.858 0.408 0.311 67 47 37 0 0
-0.1149 0.2123 -0.1690 -0.963 -0.099 -0.251 68 50 40 0 0
-0.0825 0.1850 -0.2656 -0.559 0.809 0.181 51 34 26 0 0
-0.0760 0.1797 -0.2789 -0.782 0.512 0.354 49 34 25 0 0
-0.0779 0.1810 -0.2846 -0.914 0.224 0.337 51 37 28 0 0
-0.0785 0.1814 -0.2875 -0.978 0.207 -0.025 50 35 26 0 0
-0.0609 0.1662 -0.3496 -0.494 0.811 0.314 46 29 20 0 0
-0.1094 0.1993 -0.4350 -0.679 0.714 -0.174 80 48 30 0 0
-0.0259 0.1337 -0.5484 -0.997 -0.064 0.047 77 52 37 0 0
-0.0329 0.1385 -0.5590 -0.962 0.108 0.250 83 58 41 0 0
-0.0331 0.1384 -0.5655 -0.920 0.393 -0.009 81 56 39 0 0
-0.0300 0.1324 -0.6764 -0.847 0.422 0.322 83 53 32 0 0
-0.0588 0.1519 -0.7302 -0.986 0.089 -0.140 73 41 26 0 0
-0.0649 0.1547 -0.7809 -0.899 -0.274 -0.343 77 47 30 0 0
-0.1128 0.1870 -0.8750 -0.851 0.380 -0.364 90 59 40 0 0
-0.1116 0.1856 -0.8925 -0.795 0.602 -0.079 67 41 26 0 0
-0.1054 0.1801 -0.9166 -0.888 0.446 0.112 79 53 37 0 0
-0.1825 0.2303 -1.1227 -0.870 0.493 -0.031 89 57 33 0 0
-0.1829 0.2304 -1.1291 -0.874 0.485 0.044 85 55 29 0 0
-0.0315 0.1633 0.1011 -0.781 0.351 0.516 127 103 88 0 0
-0.0332 0.1639 0.0838 -0.776 0.590 0.225 64 32 11 0 0
-0.0307 0.1618 0.0752 -0.799 0.601 0.016 61 29 8 0 0
-0.0328 0.1630 0.0636 -0.854 0.489 0.178 69 34 14 0 0
-0.0300 0.1607 0.0579 -0.911 0.411 0.033 68 33 13 0 0
-0.0335 0.1619 0.0171 -0.799 0.594 -0.095 66 34 13 0 0
-0.0333 0.1617 0.0142 -0.799 0.594 -0.095 64 33 12 0 0
-0.0326 0.1611 0.0113 -0.833 0.552 0.030 61 30 11 0 0
-0.0327 0.1608 0.0025 -0.918 0.384 0.102 50 22 9 0 0
-0.0312 0.1589 -0.0240 -0.710 0.690 -0.139 52 25 11 0 0
-0.0317 0.1589 -0.0358 -0.754 0.644 0.131 50 24 9 0 0
-0.0310 0.1582 -0.0388 -0.832 0.552 0.056 50 24 10 0 0
-0.0693 0.1854 -0.0719 -0.584 -0.106 0.805 81 59 46 0 0
-0.0852 0.1960 -0.1056 -0.457 0.175 0.872 94 70 60 0 0
-0.1022 0.2082 -0.1156 -0.826 0.503 0.254 113 84 70 0 0
-0.1305 0.2285 -0.1327 -0.736 0.511 0.443 88 45 14 0 0
-0.1229 0.2224 -0.1478 -0.722 0.690 -0.054 68 41 27 0 0
-0.1031 0.2063 -0.1937 -0.775 0.628 0.065 63 43 34 0 0
-0.1033 0.2063 -0.1966 -0.775 0.628 0.065 63 43 34 0 0
-0.0783 0.1822 -0.3665 -0.861 0.483 0.160 36 22 16 0 0
-0.0685 0.1746 -0.3814 -0.817 0.435 0.379 53 31 20 0 0
-0.1111 0.2048 -0.4187 -0.857 0.505 -0.105 75 34 7 0 0
-0.0340 0.1433 -0.5580 -0.874 0.047 0.483 74 47 30 0 0
-0.0348 0.1437 -0.5610 -0.940 0.198 0.278 78 50 33 0 0
-0.0337 0.1428 -0.5646 -0.932 0.357 0.055 78 50 33 0 0
-0.0366 0.1442 -0.5865 -0.964 -0.266 -0.009 69 42 25 0 0
-0.0281 0.1375 -0.5998 -0.602 0.786 -0.140 74 46 28 0 0
-0.0252 0.1352 -0.6042 -0.356 0.919 -0.168 74 48 28 0 0
-0.0258 0.1355 -0.6073 -0.337 0.925 -0.173 75 49 29 0 0
-0.0263 0.1358 -0.6104 -0.765 0.621 -0.169 76 49 30 0 0
-0.0269 0.1361 -0.6135 -0.934 0.316 0.168 74 47 26 0 0
-0.0305 0.1387 -0.6154 -0.919 -0.084 0.385 75 49 26 0 0
-0.0285 0.1353 -0.6763 -0.847 0.422 0.322 80 49 27 0 0
-0.0560 0.1532 -0.7475 -0.242 0.759 0.604 69 38 20 0 0
-0.0656 0.1592 -0.7797 -0.961 -0.102 -0.257 66 35 17 0 0
-0.0738 0.1653 -0.7788 -0.248 0.943 0.224 66 35 17 0 0
-0.1023 0.1822 -0.9039 -0.913 0.388 -0.124 67 41 26 0 0
-0.1034 0.1826 -0.9167 -0.926 0.360 0.113 78 52 37 0 0
-0.1018 0.1812 -0.9212 -0.987 0.139 -0.077 80 54 39 0 0
-0.1714 0.2291 -1.0257 -0.663 0.748 0.045 84 47 20 0 0
-0.1855 0.2391 -1.0387 -0.660 0.423 0.620 82 51 30 0 0
-0.1809 0.2330 -1.1193 -0.902 0.300 0.310 91 59 31 0 0
-0.1838 0.2335 -1.1712 -0.624 0.138 0.770 194 195 195 0 0
-0.0314 0.1662 0.0838 -0.846 0.533 0.026 62 30 9 0 0
-0.0289 0.1642 0.0752 -0.799 0.601 0.016 59 27 6 0 0
-0.0306 0.1653 0.0723 -0.901 0.428 0.066 60 28 7 0 0
-0.0308 0.1653 0.0694 -0.901 0.428 0.066 61 29 8 0 0
-0.0313 0.1655 0.0636 -0.854 0.489 0.178 69 34 14 0 0
-0.0307 0.1643 0.0404 -0.807 0.591 0.021 62 30 9 0 0
-0.0309 0.1644 0.0375 -0.903 0.426 0.051 60 28 7 0 0
-0.0313 0.1635 0.0024 -0.862 0.495 -0.111 48 20 6 0 0
-0.0731 0.1912 -0.0891 -0.909 0.416 0.014 56 28 14 0 0
-0.0836 0.1984 -0.1056 -0.351 0.427 0.833 98 75 63 0 0
-0.1283 0.2306 -0.1272 -0.575 0.400 0.713 104 62 32 0 0
-0.1278 0.2302 -0.1301 -0.823 0.486 0.293 93 48 16 0 0
-0.0815 0.1929 -0.2293 -0.687 0.073 0.723 58 39 32 0 0
-0.0798 0.1915 -0.2326 -0.660 0.691 0.295 58 40 32 0 0
-0.0869 0.1955 -0.2702 -0.917 0.153 0.368 50 33 25 0 0
