ply
format ascii 1.0
element vertex 674
property float x
property float y
property float z
property uchar diffuse_red
property uchar diffuse_green
property uchar diffuse_blue
end_header
0.1089085675729271 -0.04390900666464223 -1.0542091605609853 97 71 46
0.1090256033183456 -0.0439462066087015 -1.0572851250489126 97 71 46
0.1059155475034467 -0.04121965333727455 -1.0628144957924952 96 70 45
0.10647435889110088 -0.041635025877517946 -1.065563331833101 94 67 45
0.10615539872451268 -0.04129859946436408 -1.0689822986691107 92 66 44
0.10610854083753396 -0.04119518170661661 -1.0721956947748106 92 66 43
0.1021554376326371 -0.037745636839421545 -1.0784155537671092 87 60 39
0.10159686577967261 -0.03720360757641213 -1.0820364722727964 74 46 29
0.10068990568333075 -0.03636303267078456 -1.0859312005961226 62 36 22
0.0994456228455749 -0.035233343986189686 -1.0900935796077618 47 26 16
0.09912048010049432 -0.034891013227122236 -1.0935478481116174 43 23 14
0.09983545049686965 -0.03543982138464474 -1.096193149883589 47 27 16
0.09691092276781219 -0.032870058584228264 -1.1016869127257396 49 28 15
0.09216596789601986 -0.02874002459903747 -1.1086257564552544 51 29 16
0.09575544436553152 -0.031751878400691526 -1.1090227153820815 54 31 18
0.09780302411153724 -0.0334426010622373 -1.1106228556016677 61 35 18
0.107941680924651 -0.04206804444344328 -1.1058035098511232 71 39 20
0.10868477397894762 -0.04264136935042028 -1.1084057460161325 78 43 20
0.1077725306776488 -0.04179584937009549 -1.1123256008757696 82 49 22
0.10952257581815608 -0.04323233216975153 -1.1141230502927797 88 59 33
0.11048287038564858 -0.04399193231301282 -1.1165471528271536 94 67 42
0.11084081986457803 -0.04423520156022026 -1.1194527454573768 91 65 42
0.11058906641540092 -0.043955747675971185 -1.122849982092502 90 63 42
0.11100684839005989 -0.044250289764211394 -1.1257085324990297 89 62 41
0.11169176429535513 -0.04477388818887745 -1.1283500910341455 88 61 40
0.11266856293603841 -0.04554780195454145 -1.1307526500915377 86 59 40
0.1122690575510622 -0.04514155449563525 -1.1342750456648962 86 59 40
0.10942720732415334 -0.042640743267318364 -1.13979910952464 87 60 41
0.1102592978837558 -0.04329048532198953 -1.1423237583098522 87 61 43
0.11004985445132409 -0.04304698157890264 -1.1457031440112835 87 62 45
0.1105866814991921 -0.0434435129737573 -1.1484693598346527 73 53 35
0.10931153247863236 -0.04228581781345396 -1.1527341369849626 69 52 40
0.11086966190742942 -0.04355838129013403 -1.1546553187463928 85 74 64
0.11387120385304567 -0.04606929703289172 -1.1553696010483991 113 105 96
0.11593412033929362 -0.04777521211954032 -1.1568547611366542 141 136 131
0.11778349512150732 -0.049170551295008386 -1.1649139879789108 178 177 175
0.118165345280124 -0.049434399625183395 -1.167795886386572 183 182 180
-0.054878562429482615 0.06846306726538988 0.025773072085830746 178 177 178
-0.05267089364620099 0.06667057121315652 0.022757929762931138 163 158 157
-0.050107788428336214 0.06458000580187102 0.019740616620057758 139 131 127
-0.03829173568623084 0.05496262676899493 0.004798431297121432 109 96 89
-0.038417948632420665 0.05512591234450168 0.001869654991897507 108 95 88
-0.041572759715175045 0.057886271987533044 -0.003962281358202081 106 93 86
-0.021755050426931592 0.04321907424928436 -0.10363092767417942 99 87 79
-0.019927814498092288 0.041742299982364825 -0.10647496049267248 97 82 75
-0.007195729850526834 0.031106562383127 -0.10866416319199376 98 82 75
-0.00043440449468164916 0.025484867399168276 -0.11117173722154122 100 80 71
0.0067956383585540195 0.019468970810627005 -0.1136243089831548 97 74 61
0.026073456227256042 0.0036694563334500607 -0.13245271988972285 85 51 31
0.027233479436052623 0.002750992287179243 -0.13523071135215464 81 49 29
0.03021656063453369 0.00035669092276951445 -0.14072181233912087 76 47 27
0.0316592051931066 -0.0007995019291872248 -0.14346469582619856 75 48 30
0.030322532086673144 0.0003800411678434376 -0.14644546185762586 74 49 34
0.028920769919754296 0.0016144199061754313 -0.14943867640295475 77 55 43
0.027310911455065246 0.0030238406358443905 -0.1524577627914009 77 61 50
0.025958695875951322 0.004216852303480678 -0.1554605999364937 79 66 56
0.024070120753342555 0.005860851778546349 -0.1585211633529534 78 64 56
0.023511436230944947 0.006387086550184805 -0.16146148055772738 76 63 55
0.022764990765313707 0.007071235249187749 -0.16442397832741235 76 63 55
0.017957959298898554 0.011169212504990153 -0.1678011325176809 77 64 56
0.01063393240290602 0.01738373306119024 -0.17145811397780525 76 63 55
0.007584015727610641 0.02000526449047623 -0.17469669727330925 80 67 60
0.004509168770007847 0.02264802280108726 -0.17795146434542047 79 66 61
0.0031932449309686056 0.02381204322616871 -0.1810281170897089 79 66 62
-0.00032860852121929796 0.02688891226327059 -0.1873018742981851 77 66 61
-0.005753840235753843 0.031509184806091384 -0.1908727169570818 82 70 65
-0.0097538294441561 0.03493125927897221 -0.19429986707797114 85 74 70
-0.034606969164073145 0.056307350001078525 -0.22139285672485315 112 109 106
-0.03985767588849273 0.06078452967269876 -0.22513122410720607 132 130 128
-0.04385189956685752 0.0674766018540894 -0.39557147974929596 92 81 78
-0.03522417595592196 0.06025966485667629 -0.39655647943924854 92 80 76
-0.023289105428193325 0.050251859000423296 -0.3966781554079697 91 77 72
-0.01540523976806965 0.043661030518100094 -0.3977763417637479 89 74 69
-0.011015356689286299 0.04001753110774731 -0.39973402703435784 90 73 65
-0.004749609177811406 0.034790928875487626 -0.40119312938274043 91 72 63
-0.0009454086605920967 0.031640900031535024 -0.40326538021703906 92 71 59
0.02237816327603865 0.012196194294640576 -0.40924545736722506 93 63 44
0.01968135330479863 0.014531303172792075 -0.4129805349686301 96 65 44
0.014169080202770495 0.019243028800561682 -0.41749229136529514 94 63 42
0.01933030222495112 0.014945917097062975 -0.41910959477172804 89 57 35
0.027137978003833142 0.008532344440566452 -0.42598870678733364 86 54 33
0.02518598329675243 0.010239280713138905 -0.4295462792647557 89 58 37
0.027912127610790184 0.007996717300528384 -0.4317856683671644 95 66 48
0.024022505976377166 0.011339827720134733 -0.43590658414743394 91 67 51
0.01931531733607878 0.015373610150037742 -0.44028053486601076 98 80 69
0.014922821788283518 0.019142075199006736 -0.44458422208371545 112 100 95
0.00925704033933352 0.023986151651217532 -0.44927958409884666 155 151 150
-0.05222844508602387 0.08216726923432892 -0.7864828416322135 118 114 109
-0.0453886552695502 0.07642857868643703 -0.7863799934629108 103 96 89
-0.03873507538241959 0.0708473576504724 -0.7863430040297645 98 88 79
-0.036382431912236654 0.06891566805030866 -0.7884605510985536 94 81 72
-0.030661681005550973 0.06412525834551738 -0.7888533950765617 91 76 67
-0.021535130034910616 0.056572302566869424 -0.7940385720792301 85 64 51
-0.016674275765550556 0.05251035423920007 -0.7948010665071611 85 63 49
-0.012338033410205534 0.049085519578548495 -0.8056160048003631 83 57 40
-0.00637849648382019 0.0440894015686804 -0.8057317455334039 84 57 40
-0.0035833437239076726 0.04177980979362892 -0.8075045173501291 84 57 40
-0.0003294162457547073 0.03908042488416247 -0.809021822962947 85 58 41
0.03532043312782446 0.009742692953651155 -0.8377106611341096 86 58 39
0.025269279114127435 0.018347543148383307 -0.8466221394093636 86 57 39
0.031146225118931822 0.013415699491316546 -0.846483070470921 85 55 36
0.03473753741252229 0.010426079818195474 -0.8476299651705761 84 52 33
0.03475251159016372 0.010476088529209386 -0.8508208613890609 84 52 32
0.035356100571620946 0.010025775404930104 -0.8536732078442986 85 53 31
0.040556725227150925 0.0056675325151309824 -0.8538582880624276 90 58 35
0.04186040673509844 0.004621802385899071 -0.8562906655877178 94 63 42
0.043650052891969854 0.0031628323380108736 -0.8584348343374572 95 66 46
0.03964125408025819 0.00663371358063964 -0.8639742580882256 93 67 48
0.030913373089061905 0.014117457509197621 -0.8723120143764826 92 68 53
0.03187487567571608 0.0134892608703579 -0.8814018432830459 91 70 56
0.03300056510858168 0.01259510282492747 -0.8839508264215018 91 70 56
0.031850151900354756 0.013636670862526498 -0.8878620679363647 89 68 54
0.03302361548050979 0.012701845278143081 -0.890380534892199 86 64 52
0.02909491705288024 0.016106711264290967 -0.895979454055448 83 61 50
0.03022201722338655 0.01521140432662612 -0.8985301876183176 82 60 47
0.02951744742688861 0.015874160312027416 -0.9021928644497914 80 58 44
0.0279983131586969 0.017229963572938184 -0.906358142349021 75 53 39
0.02934231206358684 0.016150125475637517 -0.9087755807836834 76 54 40
0.02694963113683828 0.018249340047422347 -0.9134890757406134 81 60 45
0.026618014381077318 0.018595168274282717 -0.9169414179639628 85 64 48
0.030277536757617365 0.015545076275639225 -0.9179218973726574 90 67 51
0.0298333948581945 0.015986601575120732 -0.9214415529193126 91 69 52
0.026449777364070823 0.01892959767637263 -0.9268008189248689 93 70 54
0.02615627530054683 0.019243197782679508 -0.9302398740822 95 71 55
0.02583717178436143 0.019578643976337975 -0.9336979833143192 97 71 56
0.026982696108510812 0.01866760541727043 -0.9362344932247669 87 61 45
0.03430790286654746 0.012496697642659399 -0.9348521856782406 76 50 34
0.03927178905410844 0.00833510451364286 -0.9349399745307266 68 42 27
0.04473996621671571 0.0037438368559608998 -0.9346852948018672 70 44 30
0.047133647344406074 0.0018956720401080152 -0.9428178594846173 75 53 39
0.048141780865626205 0.0014168000173404582 -0.9615176753927615 81 63 53
0.058421681826580765 -0.00689696314086586 -0.977235730819501 81 63 52
0.06954328244975361 -0.016309287738085244 -0.9729310611091095 83 64 56
0.08344280039475024 -0.028027374038911687 -0.9698572661531006 84 66 56
0.07269345227954377 -0.01880555843880053 -0.9803688624506113 84 66 56
0.08025263569798788 -0.02518461117159658 -0.9783794698725339 85 67 57
0.08125319572002082 -0.02597499614019854 -0.9808685006343537 86 68 57
0.08083390738890564 -0.025555369732298945 -0.9843344192221469 87 69 57
0.07532281703129828 -0.020795946672860895 -0.9913292857401719 88 70 58
0.07124721473828124 -0.017259526369659266 -0.9973536888381068 88 70 58
0.09841926977388599 -0.0396159784397914 -1.019452315995705 70 35 13
0.09963310684395299 -0.040589322990287564 -1.021733286850428 70 34 10
0.0972283892241805 -0.038476067220638406 -1.0266480121507433 73 37 12
0.09815982191116943 -0.0392084968992726 -1.0291358575607847 77 41 16
0.09948112251083252 -0.04027357688135614 -1.0313350497523714 80 46 21
0.10025209067081783 -0.04086922874896178 -1.033934729623202 87 53 28
0.10209560907147719 -0.042380012317597394 -1.0357407879888034 87 55 32
0.10488966966323596 -0.044701970661813674 -1.0368361613246835 90 60 36
0.10494589560156718 -0.04468799787093413 -1.0399537612691088 95 66 42
0.10489826220709007 -0.04458537246225211 -1.0431500850882691 98 71 46
0.10407635226739362 -0.04382196319794758 -1.0469268803620357 96 70 45
0.10440446982454984 -0.04403990458856539 -1.0498469598018885 96 70 46
0.10187181466585751 -0.041816274180402034 -1.0549182909621857 101 75 51
0.1114558312346581 -0.04993408873615742 -1.050863839409748 100 74 50
0.10324567919949493 -0.04286442538941326 -1.0602291969523503 97 71 47
0.10328881939000643 -0.04283900528919518 -1.0633708694613586 95 69 46
0.10244137169875994 -0.0420533104130667 -1.0671918588464484 91 64 43
0.10190871342481922 -0.0415362401127424 -1.0707780414091461 91 64 43
0.10225537736023033 -0.04176979964306438 -1.0736949126675985 92 65 44
0.09984357996766445 -0.03964823332570332 -1.078730637858362 86 59 40
0.09939739028991737 -0.039204706625416495 -1.082264771325332 73 44 29
0.09810391097642503 -0.03803762966349492 -1.086457343945491 62 35 22
0.09725118781237484 -0.03724677312092654 -1.0903159204716193 48 26 14
0.09597168741742473 -0.0360913546716878 -1.094511853761962 46 25 13
0.09844414532807026 -0.03813999607098043 -1.0957899100814275 50 28 15
0.0942457182871965 -0.03449152737209981 -1.1022749728813157 51 28 16
0.09063880673154193 -0.03134785802804455 -1.1083172104934034 55 31 19
0.09399074916853128 -0.03414770636244154 -1.1089034667090223 57 32 19
0.10287953314468538 -0.04167735242357778 -1.105107195853696 66 37 19
0.10392937034107427 -0.042511455881126495 -1.1074744054622156 76 42 21
0.10563531889057626 -0.043906127911387566 -1.1093176341658333 80 44 21
0.10603185195481288 -0.044182252546748915 -1.112196825849311 85 53 26
0.10748992157781039 -0.0453653309937548 -1.1142283618849047 90 63 37
0.10780803710644897 -0.04557451110300521 -1.1171674319191498 93 65 41
0.10870523528061302 -0.04627849459172391 -1.1196416602228763 91 65 42
0.1088710744979358 -0.046357573523007456 -1.1227023051943283 91 64 43
0.10776430173736733 -0.04534911581152158 -1.1267916261293802 90 63 42
0.10789665223780845 -0.045399483222373284 -1.1298840861692951 88 61 41
0.10549695146005557 -0.0432858159016057 -1.135034389998588 87 60 41
0.10783479601262927 -0.045221051415792815 -1.1363380918558477 87 60 41
0.10548917423600779 -0.04315332046844472 -1.1414588575346067 87 59 41
0.11271905818671574 -0.04927035479112225 -1.1387467128797621 87 61 43
0.10955579923669143 -0.04650362568843968 -1.1445421369198998 84 60 43
0.10625895950184175 -0.04362237856962531 -1.150464091201117 71 52 34
0.10596517231185132 -0.04330817872828332 -1.153921536255051 75 59 46
0.11093998262142199 -0.04743553039621513 -1.1562228712998184 122 116 108
0.1130375276130296 -0.049166146469413315 -1.1576834054152965 148 144 140
0.115052262212604 -0.050700498192735935 -1.1656110952002656 180 178 178
-0.059166846181374674 0.06820570112121926 0.022822408579534548 181 180 182
-0.05754236151385985 0.06690528996266554 0.019821135151275975 182 180 182
-0.05607046730452524 0.065732304375107 0.016828437930560675 174 172 174
-0.05399474642796975 0.06405459536981523 0.01382659566216862 160 157 157
-0.05219087208795945 0.06260396076069746 0.010836913342082618 142 138 137
-0.051527680896961144 0.062106614589544994 0.007873817776535084 134 129 128
-0.05264675421766522 0.0630989493102131 0.004941283152950357 132 125 125
-0.05292838688177363 0.06339138882827122 0.0019908724186436383 131 123 121
-0.054260403543632554 0.06456191645023372 -0.0009487448907037985 130 123 121
-0.05593570124645001 0.06601953942355 -0.0038912155371959387 133 126 125
-0.01835712766624479 0.036631575046469904 -0.1092711396647024 101 84 76
-0.008212905508495561 0.028194053244315655 -0.11158918788744515 101 82 73
0.0028069161918784086 0.01902256872542283 -0.11381318805018997 97 74 62
0.009119084059420263 0.013960103599659539 -0.12498125657537881 99 69 47
0.013390310138516577 0.010438492971896274 -0.12756382592152826 93 62 38
0.02095381762069993 0.00415890561282709 -0.12988322120653212 90 56 35
0.022083539284038677 0.0032680751682040154 -0.1326708446299731 84 52 31
0.024174787250846187 0.0015717186409541014 -0.13537922478218153 81 50 30
0.022221295161648842 0.003319161543028146 -0.14128533746895072 74 45 27
0.02018910848078915 0.005077292316249246 -0.1443360383704405 74 48 32
0.02315765146904169 0.0026457535756533907 -0.14696063940760903 76 53 39
0.024659975976686396 0.0014425383012716987 -0.14970543586154147 80 60 48
0.02123218103023065 0.004370301236341245 -0.15289449790519963 80 65 54
0.02043817697837696 0.00509133431838134 -0.15585348404727783 81 67 59
0.01922578325821274 0.00616306522042657 -0.1588567249736297 79 65 58
0.018942906018671678 0.0064559440500855814 -0.16177597963635854 77 64 57
0.017739342714348783 0.007520476946389786 -0.16478884136037147 77 64 57
0.012442863133635532 0.012015465486688793 -0.16822105372842658 80 67 61
0.004417998337132658 0.018797693186734202 -0.17195653069045133 80 67 61
-0.0013080332910638537 0.023653698433640333 -0.17548404411428614 81 69 63
-0.003980439897799809 0.025950527475106254 -0.17870921236158352 82 69 66
-0.0064679544607577286 0.02809259910234263 -0.18192625748741287 85 73 69
-0.015564090536290438 0.03577494505312082 -0.18588744458273934 83 72 68
-0.027073095076270585 0.045828243644916423 -0.20815758477779328 101 95 92
-0.03352740201525948 0.05129892095750538 -0.21198104736383172 108 104 101
-0.03901889439015107 0.0594628934064868 -0.3970523412299562 92 80 76
-0.03176043392404192 0.05341869965775969 -0.39835230490560103 92 79 73
-0.024427375621840497 0.047311218717811104 -0.39960507333982587 89 74 69
-0.020824264372742485 0.04434036970814305 -0.40177866295821313 89 73 66
-0.005592734839444134 0.03158836547620343 -0.40095479715462046 91 73 63
0.00592110315761616 0.021962352125578333 -0.4010313712871063 90 69 56
0.012530188492603553 0.016694702277870867 -0.4144317893405283 95 63 43
0.015106548145830657 0.01458536990856506 -0.4167598140567637 90 58 38
0.008780282902565231 0.0199668735781318 -0.42151017487814646 90 57 35
0.015031345906301598 0.014765357060801981 -0.42282696202977255 92 59 36
0.018081374030458987 0.012315404287773148 -0.42802757797213553 92 61 40
0.02184095640738086 0.009209677956542681 -0.4299917894429611 95 65 44
0.02080729586499839 0.0101378566156894 -0.4333006293320272 97 70 51
0.017186809045935725 0.013243421913509051 -0.43735385799052773 95 72 57
0.013592099171774202 0.016327608114065084 -0.4414161394519429 102 86 77
0.011075484526981934 0.018504614483653214 -0.4451824772341736 125 115 112
-2.389176671648008e-06 0.0278887062866248 -0.45145861766261425 175 174 173
-0.04511170347042592 0.07224234640883115 -0.7951984244346263 98 84 76
-0.024713851502776885 0.05542967368383386 -0.8078055768462973 83 59 45
-0.014698166154495027 0.047016647156408735 -0.805824340867641 83 57 42
-0.008580654917591884 0.041902095434641635 -0.805861088316939 84 57 41
-0.00796404993310526 0.041443081960446645 -0.808792002496642 84 56 40
-0.006686705582124627 0.04042476273575038 -0.8113697176513871 85 57 40
-0.002238734861956096 0.03672244661778783 -0.8122468587335419 84 57 40
0.03251600756714701 0.008409699567950402 -0.8510012882080251 86 54 34
0.029666518060527475 0.010885872179717981 -0.8558466709160047 85 53 32
0.038893947447944846 0.003190561105893261 -0.8569015513355072 93 62 41
0.033748623970087585 0.007612482439678145 -0.863096467461573 96 69 49
0.028621764740201894 0.012019227294156873 -0.8693049946772291 95 71 53
0.02976174401580145 0.011301554245902734 -0.8815081429013711 90 71 57
0.03221629768997336 0.009283039926116385 -0.8832646034113778 91 72 58
0.02693948546637502 0.013818475935542765 -0.889644381423747 91 72 58
0.02726963158960749 0.013600954696981124 -0.8926770898579686 86 65 53
0.027855181118448147 0.013166900454365763 -0.8955557639768533 82 61 50
0.02587772626400725 0.014905899798928465 -0.8999863272010782 81 60 48
0.024380245837149928 0.016238128043383315 -0.9041354458549447 80 58 45
0.023050321354264963 0.0174284378394529 -0.9081905982088776 77 56 42
0.02124594801360244 0.019021221781815298 -0.9125439474072352 79 59 45
0.021118086648796358 0.019192453706088214 -0.9158762384440539 83 65 50
0.021600520528436945 0.018846150687224297 -0.9188341455166187 86 66 50
0.024743857307163553 0.016243072029822017 -0.9201436665322716 91 69 51
0.023455991913286997 0.01739813661227249 -0.9241948403806729 92 71 53
0.02151049638470927 0.019111150046167924 -0.928663608924036 94 72 55
0.021133532241685654 0.0194938567072091 -0.9321608198845993 94 71 54
0.01966785743672847 0.020800173130524693 -0.9363453237432483 91 66 50
0.02769600688264698 0.01405269230621363 -0.9345523508544539 84 58 42
0.03170684680823767 0.010712751361182257 -0.9352668538621538 77 51 35
0.036910063573366084 0.006360854634130997 -0.9352078646280426 71 45 31
0.02919766453573297 0.013029805065478642 -0.9466109166211102 73 47 34
0.04541286140477312 -0.00016864096742116863 -0.96527086655834 80 62 51
0.05001450749781995 -0.003950526783758915 -0.9686829599821543 83 63 54
0.056817847889299763 -0.009664502819268672 -0.9673749152918842 85 65 56
0.056110548050984616 -0.009001943287569807 -0.9710605597730194 81 62 52
0.05648777778316935 -0.009198099660482378 -0.9772398829547599 82 64 54
0.06217606515969647 -0.013966511717161394 -0.9766153807080751 83 64 56
0.06979426838874184 -0.020251145300410757 -0.9810428190355057 84 66 55
0.07455120616305361 -0.024229939657928558 -0.9809806490023818 85 67 56
0.07048786749039035 -0.020655264983679027 -0.9901532144652916 86 68 56
0.07252283313658726 -0.02232227207395241 -0.9919439503004265 86 68 56
0.07151230754791893 -0.021402109391751634 -0.9958397219246078 88 70 58
0.08939001208486277 -0.03616290323534741 -1.005577407707415 72 38 16
0.0920003041296881 -0.03801450270784202 -1.022728368843694 73 38 15
0.09866600555328194 -0.043620263177723065 -1.0210642083251285 73 37 13
0.0947834696515902 -0.040258286274791145 -1.0270496527375699 74 38 12
0.09469718712335215 -0.04012374393865369 -1.0302823282234794 80 44 18
0.09576263613943965 -0.04096848720873666 -1.0326733264325922 83 49 24
0.09735515266428012 -0.042261485829195464 -1.0346737402840307 86 52 28
0.09909579057365633 -0.04368055617663269 -1.0365592664455017 90 58 34
0.1003573961518591 -0.044692362122146626 -1.038792607493526 91 62 36
0.10143207965388895 -0.04554527490224672 -1.0411603983948157 93 65 39
0.10164877890453503 -0.045668512790298765 -1.044163203553675 95 67 43
0.10632362988546959 -0.04958371798907589 -1.0438394430325495 96 70 46
0.10639424906672332 -0.049582872320038524 -1.0469425624846258 99 73 50
0.107755162915918 -0.0506796051884097 -1.049078055358088 103 77 54
0.10735152739003825 -0.05027531661228121 -1.052537973248785 99 73 50
0.10608665672197685 -0.04913826558329687 -1.056652037161074 95 69 46
0.10123979042226468 -0.044953529531819275 -1.063488080206043 92 66 43
0.09869285810976343 -0.042725203979489576 -1.0685998287845917 91 64 43
0.09717694021442273 -0.04137389338941566 -1.072938856430028 90 64 43
0.09743443911131422 -0.0415314663702997 -1.075930275207311 89 63 42
0.09753813606430248 -0.041558149808663576 -1.079040100520225 81 54 36
0.09584626484691582 -0.040056751857398015 -1.0835325353297278 69 41 27
0.09481139223058965 -0.039114317955882966 -1.0875274200123606 61 35 23
0.09359168000241588 -0.038014442040721665 -1.0916717862827872 49 26 13
0.09304852513583958 -0.03749027827643594 -1.0952982045566468 52 30 16
0.09630049112604709 -0.040196425690083235 -1.095973756915284 52 29 17
0.08834387130533235 -0.033361629114088326 -1.1053892399575134 54 30 19
0.08818546382272997 -0.03316459290393732 -1.1087351376684804 57 32 20
0.09506760430210238 -0.03896134154028921 -1.1065524199781 60 33 20
0.09972353752005156 -0.04286333805128267 -1.106093451781876 67 37 17
0.10060179817107925 -0.0435493352922969 -1.1085997408744033 76 41 17
0.09894225129351075 -0.04207452651660501 -1.1131149391409851 81 46 21
0.10126165169668513 -0.043987648674585864 -1.1144766887310282 93 61 35
0.10432649984580572 -0.0465357368221298 -1.115235006487753 94 66 41
0.10525782682160131 -0.04726716364773877 -1.117686518960393 93 66 42
0.10401028123960193 -0.04614301846288355 -1.1218824840097643 93 67 44
0.10310937932695083 -0.04531396228645352 -1.1258071234468137 93 66 45
0.10348745333209045 -0.045574141027697676 -1.1287060713284065 90 63 43
0.10417795731329468 -0.046100443577311134 -1.1313521811473548 86 60 40
0.10296579040736131 -0.04500603559476982 -1.1355401302215602 86 59 40
0.1021469042335771 -0.04424651055990471 -1.139415432371975 87 60 41
0.10391737913333698 -0.04569279388613633 -1.1411836483175104 87 60 40
0.10820071506796669 -0.04928006089641096 -1.1408892236179822 87 61 42
0.10488849458882335 -0.04639623405348676 -1.146808811996214 83 59 42
0.10269565044825879 -0.04446584082996905 -1.1518244293034228 72 53 36
-0.06121837119191659 0.06629675170254315 0.007953463622476117 181 181 183
-0.01989081052909699 0.034016854404057065 -0.10636605006800175 104 89 82
-0.017045479765504818 0.031697547323196 -0.10913601011262394 105 88 78
-0.005985528999010278 0.022520601498279162 -0.11139176493133625 103 86 76
-0.0006095699152276167 0.018143175992563362 -0.11687095678942823 96 67 50
0.006589656352897294 0.012407809397754469 -0.13087684832845198 89 57 36
0.011057388855208823 0.008731946204168096 -0.1334315140639427 86 55 34
0.018824445561385083 0.002300433365330946 -0.13570889650816836 84 55 34
0.017912548571309837 0.003171409276510771 -0.14154181041305056 79 49 30
0.01542158771122854 0.005306701106050618 -0.14463604348851988 78 52 37
0.01939357306978319 0.002043882567118737 -0.14717912501941222 74 52 38
0.019132276294229863 0.0023168958137703864 -0.15008457138921735 80 63 52
0.016543796038976887 0.004533962178304497 -0.15320409555743617 84 68 59
0.014898870799222039 0.005963016686439759 -0.15624751944261758 82 67 59
0.017008607354134207 0.004255489706534561 -0.15894241519570762 80 67 59
0.010566783129623877 0.009747532715790529 -0.16536543471550394 79 66 59
0.006972975266456228 0.012805524557438103 -0.16863574735374656 82 69 63
-0.00631377644775151 0.0239629809956011 -0.17291856762682106 84 72 67
-0.007014033847435305 0.02460404831413697 -0.17593602565850425 87 76 72
-0.013539128465852004 0.03011271398600563 -0.179579829649492 85 76 71
-0.01623044472702026 0.03241806068926468 -0.182833815347887 87 78 73
-0.02291253027447552 0.03805882035670778 -0.1865420141889026 90 80 75
-0.017325317673800047 0.03350236785442244 -0.19186738969883904 94 84 82
-0.023307491288856827 0.03855899297352374 -0.19554010663891583 98 90 87
-0.026934184795834194 0.04164720884037942 -0.1989583419056537 104 98 94
-0.03147416780234814 0.04549915671533232 -0.20250269342604563 102 98 94
-0.03789411981922166 0.0509230373964802 -0.2062972671017546 106 103 100
-0.045892115975738446 0.05766665877985868 -0.21031566167339538 130 128 127
-0.05911895368187605 0.072326255987297 -0.40159252045665045 94 83 79
-0.0387217278743589 0.055285725149928105 -0.39964488935319886 93 81 76
-0.028720189197140603 0.04695948764614453 -0.4002368428632405 91 78 72
-0.026123226938692803 0.04484086337815711 -0.40267187872223215 89 74 67
-0.011755304888620255 0.03285224598748999 -0.4020806374928195 92 73 62
-0.003059479947124598 0.025618745875203564 -0.40289729339417074 91 67 53
0.012578410608561588 0.012735177459064287 -0.410924838458365 93 62 42
0.007449159957459754 0.017094579196408635 -0.41532351945612733 94 61 42
0.0030307252307231677 0.0208582044975948 -0.41955236709089394 90 57 38
0.01636152907569669 0.009734108793770069 -0.41895898166406315 90 56 36
0.0095922012748439 0.015469812142016766 -0.42383674919527914 92 57 36
0.008868742768922785 0.016134313243988188 -0.427069670433729 92 59 37
0.01663946798908416 0.009672961549023248 -0.4279372242118593 93 61 41
0.016806496611587812 0.009590215970898146 -0.4309112001513256 95 65 45
0.01459662940948326 0.011501696092108764 -0.43455890373066036 95 66 49
0.011299698784241245 0.0143254645059856 -0.43852723457304404 97 74 61
0.007190198129018784 0.017831328578130592 -0.44274409916952395 109 95 89
0.0011432709040865574 0.0229632697355617 -0.44754002378762114 143 137 134
-0.0356303072052125 0.06048802011438451 -0.8091774122478894 88 66 54
-0.03281853666210029 0.05817894515452716 -0.8110132487842892 86 62 49
-0.028105272233434578 0.05426555848892807 -0.8118389375179452 84 59 46
-0.016759043702191917 0.04481807546983404 -0.8124158751225588 85 56 42
-0.011123715388743821 0.040125553544178134 -0.8126896280122038 84 56 40
-0.005811535252966377 0.03570525637901958 -0.8131129933218921 84 57 40
0.021176882921210338 0.014029562409959423 -0.8564064107906537 88 58 37
0.025615360219363503 0.01034217260886354 -0.8570704227230569 91 60 38
0.03775410246940199 0.00015073664519116986 -0.8532622826661822 93 63 40
0.029297862020349716 0.007353858166005436 -0.8613604678249995 95 67 45
0.02356532735176199 0.01225702923556471 -0.8679101463218476 98 73 54
0.02412139737373248 0.011848515217517439 -0.870807485454536 97 74 58
0.021782779432948776 0.013885347997018169 -0.8754040067485493 95 72 57
0.018492237829005165 0.01672661079337262 -0.8805736818297307 93 72 57
0.021773230257172926 0.014016152798618148 -0.8818709594232401 91 72 56
0.024551828082703273 0.011729923144176826 -0.8834536792770679 92 74 59
0.02424050300216614 0.012054303746045214 -0.8868678067003297 93 75 61
0.021345710571042953 0.014561737480416073 -0.8918308741964853 92 74 62
0.019805179617822605 0.015925055827454182 -0.8959950241519193 91 73 61
0.018530496972192514 0.017063874228315568 -0.9000073769834727 85 67 56
0.018375528141326702 0.017256545575164317 -0.9033495109593979 82 63 52
0.017899264631981784 0.017720804955022526 -0.9068890779396497 81 61 51
0.01418522180006511 0.02092170138260621 -0.9124059134641485 78 59 47
0.01779434609547456 0.0179331038697437 -0.9134609127813194 84 66 52
0.016317936339035014 0.019242947581562794 -0.9176239084286567 88 70 56
0.016697420737097304 0.018984112654963303 -0.9206514765847642 90 71 56
0.01569661484832155 0.019892129610662446 -0.9245326251645537 92 73 55
0.01609452486434819 0.01961777352829648 -0.9275517075563381 92 73 56
0.01607752375416513 0.019694202430378824 -0.9308291005501581 95 75 58
0.0164572454412468 0.01943523652583372 -0.9338601869153669 95 73 55
0.010940751920130096 0.024161742125953747 -0.9405904713265548 86 60 43
0.010463151572406529 0.024627959048788825 -0.9441744234563808 81 55 40
0.011673843964054909 0.023666588886009962 -0.9466953681444137 73 47 33
0.026523456409615898 0.011294810152470275 -0.9470719963621037 72 46 33
0.04577104860452884 -0.004372083963504983 -0.9669860914857898 81 61 51
0.048523767238564344 -0.006640145584692184 -0.9683895405904228 82 62 53
0.051497952727473 -0.009095831688375314 -0.9696347805826419 84 64 55
0.05679166466591201 -0.013514772105070821 -0.9693190999609527 81 61 52
0.057279903178311914 -0.013867027129486911 -0.9722013459350172 80 60 52
0.05687610418516269 -0.013464279868970995 -0.975682781208239 83 63 56
0.06186548505374051 -0.01762644421908135 -0.9755292222668891 83 63 56
0.0697245781464177 -0.024218155221430573 -0.9734122043350097 83 64 55
0.06948166921095128 -0.023951995747957755 -0.9767637879017564 83 65 53
0.06555698697600415 -0.020568927838359854 -0.982626926456994 83 65 53
0.0683104935167413 -0.022839293951255932 -0.9839436361790621 84 66 54
0.059572408598089974 -0.015380508526392216 -0.9931322108824675 85 67 55
0.06116299274237731 -0.01666615428603188 -0.9952535783754661 86 68 56
0.0636189378799038 -0.01868463901550122 -0.9967718210759393 86 67 55
0.09002087109772014 -0.04025984245436878 -1.0196177357661855 73 37 13
0.08773525092283072 -0.03826290724420776 -1.0244396986492577 73 37 13
0.09630770494115963 -0.045466716945198035 -1.0214052737365729 73 37 13
0.09188279916299474 -0.041656903049754494 -1.0277816681912102 78 42 16
0.09278857951211796 -0.0423642831879889 -1.0302925719594977 84 49 22
0.09430444901031432 -0.04358877186590297 -1.0323546346611412 86 55 28
0.09405868967053532 -0.04332027701795574 -1.0357040714599266 89 57 32
0.09719064568460067 -0.04591469157604091 -1.0365698681515867 92 62 36
0.09751796921585604 -0.0461320117636527 -1.0394938550899073 91 64 37
0.09862137601950619 -0.047007208084718505 -1.0418430998381973 96 68 44
0.09861826588187511 -0.04694443857033771 -1.0450110157474974 99 71 47
0.09883511124766113 -0.04706811160498329 -1.0480166185017192 103 77 54
0.10341145004171733 -0.05088784264622763 -1.0477637318604396 105 79 56
0.10378795504356031 -0.05114705269429588 -1.0506408026590326 104 78 55
0.1030620628858371 -0.05047153360018862 -1.0543469490111774 97 71 48
0.10134260590492081 -0.04895342539731401 -1.0588076684721728 94 68 45
0.09818752221453342 -0.04621773109114212 -1.0643643743174271 93 67 44
0.09493467624993457 -0.043398823892806124 -1.0700114326692285 92 65 44
0.09336257598606643 -0.04200501348180786 -1.0743953825165646 91 66 44
0.09527930682604922 -0.043570006530929656 -1.0761237719937204 85 60 38
0.09555160240120089 -0.04374037476980069 -1.0791045900092806 75 49 30
0.0948335444585979 -0.043070703743798046 -1.0828466755028499 64 38 24
0.0936898180123234 -0.04203986200478294 -1.0869217286391233 53 30 17
0.09178208529956974 -0.04036078068924917 -1.0915942172901885 49 27 14
0.09067624116091857 -0.039361780210376715 -1.0956554876855 55 33 20
0.09452586781941698 -0.04256682486359812 -1.0958703201102027 54 32 19
0.09169766020343466 -0.04010647379216042 -1.1012768436607452 58 34 21
0.09671917477848452 -0.04430616125960875 -1.100558114292542 60 35 21
0.09566333369536216 -0.04334948838744943 -1.1045854790232215 62 34 18
0.09554143115755545 -0.04318520035300783 -1.1078845195470495 72 40 18
0.09906079039879206 -0.04611088277946899 -1.1083122800340017 77 42 17
0.0982759389594224 -0.04538405731790233 -1.1121319643102454 83 49 21
0.0974382390201104 -0.044612279280600714 -1.1159988703994261 88 57 28
0.09964643636548402 -0.046425578976535806 -1.1174464410485474 89 62 37
0.1003536090789534 -0.04696499286467299 -1.120083845132159 92 66 41
0.09938976503668773 -0.046086027670787885 -1.1240576656700103 91 65 42
0.0999956610922513 -0.04653945946712594 -1.1267769750573393 88 63 42
0.10131881128357734 -0.047601804607020334 -1.1289174175602272 87 62 42
0.10050125743494184 -0.04684685625874509 -1.132782454486393 86 61 41
0.09960286784014119 -0.046023174347506135 -1.1367184164957982 86 60 41
0.09421588783350866 -0.04138833532410507 -1.1443067085094945 87 60 41
0.09724501839532032 -0.043899075902239945 -1.1450649353062474 87 60 39
0.10326396284457143 -0.048948825935159895 -1.1433678206626607 87 62 42
0.10101780431006543 -0.04698047778264985 -1.148416621635361 81 57 40
-0.0341400647952364 0.04198711205554744 -0.10416964870692064 104 94 91
-0.028638182358169104 0.03746405964747619 -0.10681534244613256 102 89 82
-0.026629848555032816 0.03584792578889115 -0.10964838050042398 103 89 80
-0.013106503348008613 0.02464857284041474 -0.11176832700230555 102 86 76
0.002227585977472458 0.012266377150577285 -0.131117713923274 90 58 37
0.013979906520950536 0.0025366103750752286 -0.13311587372293865 89 57 36
0.013520325515057895 0.002973109369700056 -0.13603447483139947 87 58 37
0.012825964272828639 0.0036051440514409203 -0.1389752594732118 84 56 35
0.012230132163595572 0.004155216774917052 -0.14191195613837615 82 54 36
0.011208793962686776 0.005059663858324832 -0.14488850866194128 80 55 40
0.015506726225283879 0.001534831240125589 -0.14740800973695267 78 57 44
0.014679075346601959 0.0022779920225916954 -0.15036761685199734 84 67 57
0.009457842736178253 0.006680118615285214 -0.15373115363100162 85 69 61
0.007466995489487205 0.008392342092207718 -0.15681670254290753 83 68 62
0.010807020215966873 0.005664909989979292 -0.15940592373702306 82 70 63
0.0071085766373702106 0.00879952000374973 -0.16266471851998368 80 70 62
0.0021373888857857057 0.012994530779045164 -0.16606524492913977 82 71 65
-0.00277258200909267 0.017138943508514453 -0.1694806469027439 85 74 70
-0.007717633623545862 0.021312967560395676 -0.17292047028625387 88 78 74
-0.018224532327184496 0.03012060852052735 -0.17696376710055983 88 79 74
-0.023252464767462868 0.03436466866179703 -0.1804654142170898 92 84 78
-0.019282563704903728 0.0311129316507727 -0.1830103596811113 94 86 80
-0.024663302479928425 0.03565139592509732 -0.18657588839876948 97 89 85
-0.027407242867605514 0.03799334366279974 -0.18986709735735638 99 92 89
-0.03259764419594016 0.042373967588609854 -0.19345109616258505 101 95 92
-0.03502483926334744 0.044452535049412704 -0.19673483044755838 105 101 98
-0.04271493760242079 0.05091686956486322 -0.2006539391697341 113 110 108
-0.052793434652040866 0.0630694864876663 -0.40271113353467275 92 80 75
-0.03916024253490456 0.05173369860736125 -0.40241578865705646 91 78 72
-0.031096519324529476 0.04505200137030581 -0.4034804123070516 93 76 69
-0.024031057685103885 0.03920412470820721 -0.40476898515395743 90 69 59
-0.010466427730254184 0.027923059124322934 -0.4043528143499204 90 64 51
-0.0051909848464961605 0.02357025382432673 -0.4060385539830812 91 62 46
-0.0006496547865054367 0.019830773998743 -0.407896534194719 90 61 43
0.004160341472844824 0.01586636246850004 -0.4096663040505391 90 62 42
0.009778223959919709 0.01122616948031219 -0.41120260419336185 92 64 43
0.008060149283651452 0.01271912981621312 -0.41468581544617317 92 62 41
0.007255698293447341 0.013448337959087862 -0.41793050142695365 91 60 40
-0.007007351743977645 0.02543134156435954 -0.4248469938365265 90 58 37
-0.000507038203157742 0.02005292403914959 -0.42612358679816975 90 58 38
0.000990119596767522 0.018857918167532302 -0.4287586674894302 90 60 40
0.0003039122788806928 0.019488745872245694 -0.43199743951911507 90 61 42
0.009400181777346396 0.011938309827855112 -0.43249436466879687 94 66 48
0.00837160938840096 0.012855262675379241 -0.435818340753112 97 71 57
0.003940180492127285 0.01661848388234743 -0.4401173369009865 105 86 76
-0.0006980525994390793 0.020555054617506216 -0.44449545182882694 120 109 105
-0.010392944575662484 0.02872181034564679 -0.45035553690175495 168 164 164
-0.022982512997393748 0.0459327040997075 -0.811389222585764 85 60 49
-0.022598578019396215 0.045671131200329354 -0.814466032191074 84 58 46
-0.023823667610954766 0.046762768814002376 -0.818397976430455 83 56 42
-0.017338754017343 0.04137000372928652 -0.8182221792127441 83 56 40
-0.010055623067110359 0.03530536140192031 -0.8175918722247237 84 57 40
0.019208187346358 0.011770842054672256 -0.8596468802788126 93 63 38
0.029755289539953933 0.0029517184686076586 -0.8567768788778388 95 67 41
0.021808926018376973 0.009701733143188063 -0.8645858111467264 97 71 49
0.01682995887511056 0.01395400768498671 -0.8707041898776203 97 74 55
0.018269947301440825 0.012801959522944203 -0.8730955879939165 96 75 58
0.019805716584486863 0.011569170710203441 -0.8754260393414851 96 75 61
0.0171203722681572 0.013951315398944106 -0.8834733626525211 94 76 63
0.017681437689379603 0.013539336180307504 -0.8863791337671126 95 78 66
0.016455927381692922 0.01463200837076066 -0.8903477234719255 95 78 66
0.01544816778491151 0.01554141198989857 -0.894193235696055 94 76 65
0.01277537096775444 0.01785337475182011 -0.8990435646901865 92 74 64
0.013029868355049185 0.017699835507291525 -0.9021450237795378 89 71 62
0.013013681281000652 0.017774322884493057 -0.9054105375339694 86 67 59
0.00841130028253162 0.02171232188366569 -0.9114592299039963 85 65 57
0.008990892487202085 0.02128514493149776 -0.9143756746891719 87 69 59
0.01208277927223847 0.018741345777742904 -0.9157563017979237 90 74 61
0.012142355365239166 0.01875216310233302 -0.9189841052366182 93 75 64
0.01055981307490314 0.020146624894161774 -0.9232238253576825 93 74 61
0.009925104134309776 0.020742582402033458 -0.9268868226605756 96 77 61
0.010965309664012851 0.019927231300395837 -0.9295160750696428 99 80 64
0.011483240716008702 0.01955194822438766 -0.9324672190337485 101 81 64
0.010706321915368647 0.020267885306248873 -0.9362260856862816 94 71 53
0.016569509730782833 0.01538770022839031 -0.9358296651645167 87 62 45
0.005925943695682223 0.024419477749935997 -0.9457879532161855 80 54 39
0.0044698198567844905 0.02570832031376588 -0.9499979561814661 74 48 35
0.023176953223723123 0.010123126979024705 -0.9479607552737926 70 44 31
0.03216744678026291 0.003029298686045845 -0.9681840777721372 79 59 48
0.03486930427333995 0.000811394851888067 -0.9696583310917952 80 60 49
0.032878374226631174 0.0025512807568007223 -0.9742202111851342 81 61 51
0.04034044339816642 -0.003681873189099183 -0.9725305671903434 83 63 54
0.043792292122423734 -0.00653299095422348 -0.9734745276350866 83 63 54
0.04818520530413073 -0.01017819982324733 -0.9737769035766095 81 61 52
0.05147340892734428 -0.01289182947388337 -0.9748003695485395 82 62 53
0.05656180337843521 -0.01712440073912827 -0.9746018479359915 84 64 57
0.061030667427826 -0.02083469079859486 -0.974799360064197 83 63 56
0.09173713292648 -0.04562413417382419 -1.0138602088405262 72 37 15
0.0865430371412621 -0.04117854309920434 -1.0207558476690801 73 37 13
0.08369046883053204 -0.03871004643932894 -1.0259876226074032 73 37 13
0.09257040655042198 -0.04615061592166894 -1.0227435168392274 73 37 13
0.09173168066398399 -0.045383061601853306 -1.0265157928877193 80 44 18
0.09065064998004999 -0.04441073314364716 -1.0304699547464538 86 51 24
0.09182974481806595 -0.04534748648893123 -1.0327795730568852 87 57 29
0.09306918046298773 -0.04633528520064508 -1.0350411805881796 91 61 35
0.09493375345276184 -0.047851288010430426 -1.036839176464874 96 67 41
0.09515013655355394 -0.0479749275487463 -1.039845598854674 96 69 42
0.09536675708957217 -0.048098756320221495 -1.0428524543167985 99 71 47
0.09558327441008924 -0.04822248651472748 -1.0458599944346916 102 74 51
0.09874752018044346 -0.050837007718291534 -1.0466742439995274 105 78 56
0.09841725070756036 -0.050498788465471095 -1.0500844505568154 105 78 56
0.097884017194551 -0.0499889908780992 -1.0536497646712302 104 77 55
0.09715205604286783 -0.04931116904188017 -1.0573684047621246 99 73 50
0.09681616806365664 -0.04896800039461098 -1.060793590374127 96 70 47
0.09496122850095812 -0.04734086279313943 -1.0653699489223079 94 68 45
0.09045951962061022 -0.043476359094509476 -1.07196282956943 93 66 45
0.08831386672214189 -0.04160299110071464 -1.076786609624653 89 63 42
0.09240511071627844 -0.04500166970508488 -1.076865299624731 80 55 36
0.09170642932565307 -0.04435137690772575 -1.0805908464379788 70 44 27
0.09059781870010114 -0.043354431231576195 -1.084635753662916 63 37 24
0.08830801767944804 -0.041358706607095376 -1.0895963971422438 51 26 14
0.0850025355231553 -0.03850398929150392 -1.0953532043613257 53 28 16
0.08712068042140561 -0.04023490182291881 -1.0969280255168306 55 31 19
0.0904059010712219 -0.04295283745808341 -1.097588472191056 56 31 19
0.0911775050786924 -0.043545421896955615 -1.1001929753677788 63 37 23
0.09556012352701732 -0.04719180203462992 -1.0999749305348212 61 34 19
0.09259745090247332 -0.04462645398838976 -1.1054927272929107 66 36 19
0.09292340459982584 -0.04484222626189923 -1.1084418564386496 75 41 18
0.09322023455244263 -0.04503336318564379 -1.1114140559214765 81 45 19
0.09355579049291027 -0.04525725181671351 -1.114355901790057 87 54 26
0.09290704719253737 -0.04464852479644191 -1.1180780645819688 91 62 33
0.09487955159084857 -0.04625712616164362 -1.119720958189179 93 66 41
0.09639313177720032 -0.04747762636307594 -1.1217222455743596 97 71 46
0.09791187328194063 -0.04870259398796234 -1.1237140117854871 94 69 45
0.09776650973318965 -0.04851971537481909 -1.1270349170658693 90 65 43
0.0968938506200725 -0.0477214198931467 -1.1309430871304023 91 66 45
0.09673337061521463 -0.0475256325569656 -1.134282490676454 90 65 44
0.09605504229825762 -0.04689159785453991 -1.1380431849321528 88 63 42
0.09649032715350843 -0.047199860654886044 -1.1409052314086614 87 61 42
0.0974689225226251 -0.04796792694889113 -1.143324853030886 87 61 39
0.10107958971595438 -0.05096364865939976 -1.1435939762692897 87 63 42
0.09856685338111801 -0.04877696863089299 -1.1488584299309972 77 54 37
-0.02189013765549469 0.028075673796814728 -0.10930983296453213 106 94 88
-0.02342684723827837 0.029404634348750434 -0.11234066340070002 103 87 79
0.006715357601753742 0.004555487697619061 -0.11914209306800355 102 71 51
0.008499442844605687 0.003128085022739753 -0.12190466825884817 100 68 47
0.009243597265613123 0.002563568806789463 -0.12473555631188372 95 63 42
0.010859545208968388 0.0012755311146462733 -0.12750115061993902 92 60 39
0.010622866427717195 0.0015249443887640482 -0.13040079328511606 91 59 38
0.009987360038036248 0.002158479883644801 -0.13621972349343728 88 59 38
0.00612711681144534 0.005415707812388532 -0.13941986789533642 84 56 36
0.005610851488119864 0.0058975023959400704 -0.1423592694346667 83 56 38
0.007157604944202863 0.004666833466183703 -0.14512692792372045 79 56 42
0.008305683650026529 0.0037670344931797183 -0.147924479273872 80 60 48
0.00414843078963122 0.007271553294939795 -0.15119014788449114 87 69 61
0.003824960015366724 0.007593533276912007 -0.15412544496518749 87 70 64
0.005876400472264124 0.005943787559226648 -0.1568430427447503 87 72 67
0.00029124358073468956 0.010634493467554221 -0.16027748052421545 86 73 69
-0.00713160963436061 0.016851513990573597 -0.16391309073386118 85 74 68
-0.011652164195062802 0.02065914427047135 -0.16729293819386507 87 76 71
-0.016392326247968707 0.024649489827279047 -0.1707141415762557 91 80 76
-0.020732734671895566 0.02830823671898456 -0.17411443656725786 94 84 80
-0.018086991340744932 0.026165537188837816 -0.17680230609141004 96 88 83
-0.024480748543412742 0.031530031381694655 -0.1804448215613703 98 91 85
-0.02872535041648399 0.035110051778070764 -0.18388066620026924 100 94 88
-0.03534040661456317 0.04065925662798178 -0.1875968381814056 101 96 92
-0.03793262850895325 0.042867541206826044 -0.1908878398744354 106 102 99
-0.04649397185129593 0.050034302693253874 -0.19487423207230248 115 112 109
-0.054786069422696995 0.05697805543079874 -0.1988646344965806 148 146 145
-0.059391605073188004 0.06456391392208205 -0.4039051742947593 97 85 80
-0.04885539693033271 0.05584332202033372 -0.40440229524220783 94 81 75
-0.0383186393783713 0.04712150614443221 -0.40485760469878573 94 79 71
-0.02926355530656776 0.039633524109018395 -0.40565008355579535 92 73 62
-0.01803656303498255 0.030335067631959842 -0.40584708022114996 94 70 56
-0.016432970788825475 0.029055190571230564 -0.40849973077097584 93 65 48
-0.013713706185232405 0.02684546203279705 -0.41085511252419415 93 64 46
-0.012223920370056346 0.025885540139895413 -0.425781025514136 91 60 39
-0.009537838619002634 0.023702858349897153 -0.428112108440389 91 61 41
-0.008644161162532957 0.02301419375284188 -0.43092876416772036 92 63 45
0.0015883221658249194 0.014540069399007614 -0.43114402457850903 95 68 51
0.0003280361512957297 0.015646731068220086 -0.4345409260472722 93 68 52
3.1092912106123194e-05 0.015950338652720303 -0.4376723942115495 98 75 64
-0.0043921048660522655 0.019694371768810906 -0.4419805030486099 112 96 89
-0.01110600719577532 0.025348791328535708 -0.446964793352027 142 134 133
-0.022949195489297122 0.03528081806246569 -0.45345879939718087 182 180 182
-0.0569991550893347 0.07013797896016204 -0.8148781171662133 101 87 79
-0.060528003410578776 0.07315698708429641 -0.8200555957154213 98 80 73
-0.04484487352204798 0.06013492163082662 -0.8185396770371877 91 71 62
-0.031759642907484856 0.04922761848713153 -0.8149724336224657 87 65 55
-0.033264873509116485 0.050549972579170946 -0.8190624873848377 86 63 51
-0.030870975654469585 0.04860381681089623 -0.8210910779293125 84 58 46
-0.02547884027337656 0.044143939421130166 -0.82151282035911 83 55 41
0.008300952206960754 0.016832649974801148 -0.8583236632690494 91 60 36
0.018838393348322435 0.008050528206567542 -0.8555298617748635 93 60 38
0.025109958729357285 0.002847131207223394 -0.8551427745392864 96 64 43
0.024344570883099922 0.0035483356522240106 -0.8587892422838549 98 70 49
0.019775854274603905 0.007441360805389666 -0.8646432208803729 98 73 53
0.016384577398479802 0.01034663846221874 -0.869834502609973 97 77 59
0.01405100764432296 0.012364513996229495 -0.874425166385733 95 76 62
0.012858493942185745 0.013424902614171355 -0.8783593895807676 97 77 64
0.00985718175249338 0.016003643953373822 -0.8833639752654306 98 80 68
0.006539466287276682 0.018908134741157587 -0.8918273539388757 98 82 73
0.006156744537215764 0.019289338832925232 -0.8953137076153945 96 79 71
0.007398341702104863 0.01830695720120834 -0.8978339715531797 94 77 69
0.007445186271657855 0.018327570405744772 -0.9010660358958398 93 76 67
0.006510130858329521 0.019172613397886507 -0.9048898725264874 91 74 65
0.005670596364377972 0.019937559194594084 -0.9086618378059259 87 69 62
0.006568404813275433 0.019243787389120623 -0.911386877446158 92 73 66
0.005540846976878899 0.020166746642425112 -0.915279991130905 97 79 70
0.007588189049644659 0.018507629689092905 -0.917303221137661 99 82 71
0.0035218827994736718 0.021982646682345952 -0.9230626673458289 98 81 71
0.0030604401780703477 0.022430496907206138 -0.9266263757929531 99 81 69
0.005200077031041153 0.020693802947936518 -0.9285894231539885 100 81 67
0.0068362484298746945 0.019379838357884108 -0.9308562342121445 103 84 69
0.006196386384775432 0.019977566339834954 -0.9345313876023997 98 78 62
0.006480674987858065 0.01979908140658085 -0.9376348322809971 88 65 48
0.000993935596379572 0.024468558672247467 -0.9443496686441947 81 56 38
-0.0012002803332318845 0.026372494898060317 -0.9490230964168058 74 48 33
