ply
format ascii 1.0
element vertex 681
property float x
property float y
property float z
property uchar diffuse_red
property uchar diffuse_green
property uchar diffuse_blue
end_header
-0.05463986309764716 0.36123629314040606 -1.1530476427232126 66 51 38
-0.054077741136840905 0.3594047076227803 -1.15765121217652 90 80 67
-0.05518618615815692 0.3623228849911696 -1.1589468736479278 135 129 120
-0.0524474060442138 0.3543003168113621 -1.1678948598400558 164 163 160
-0.04997774271322213 0.3470408827557437 -1.1763401767847292 181 178 176
-0.037918392829855235 0.3124990378886456 -1.2040280404283787 188 187 185
-0.037342327133441 0.31061916732207295 -1.208788457202583 193 192 190
-0.03533277840898754 0.3046596180298788 -1.216447069214827 196 195 193
-0.008859731978783644 0.22907705612767895 -1.2735676698150316 199 198 196
-0.04825230315961879 0.3409478269953047 -1.197515730485076 200 199 197
-0.041194793674665546 0.32061951143160766 -1.2154149257019173 201 201 200
-0.08585942214841456 0.44709653674989447 -1.134656731314214 203 203 203
-0.06342320117975374 0.3818026801187655 -1.2015659135813692 205 205 205
-0.07297648510738179 0.4088018837443791 -1.1850834573880444 206 206 206
-0.07277267803685802 0.407990663932613 -1.1889535412504748 207 207 207
-0.07113663549121158 0.40309517087973884 -1.1958411293178048 207 207 207
-0.07604445124256674 0.41686010203866813 -1.188949980285336 208 208 208
-0.07354002899875678 0.4074036238368425 -1.2288486832513725 212 212 210
0.03451505021157639 0.21354054305418954 0.1260426334954714 183 183 183
0.03477942478139982 0.21264194423936697 0.12322730805772342 183 183 184
0.03765242961819357 0.20472546936967445 0.12073521425214834 182 182 182
0.041190884691254925 0.19501695715202663 0.11829809717369483 169 166 160
0.0422926448874817 0.19186277514287914 0.11554391116616117 137 122 110
0.04246717705277255 0.19120299270181604 0.11267363803096722 124 99 84
0.04248840812912076 0.19095554751727858 0.10978313077031912 122 94 78
0.03037042179615758 0.22338075774896535 0.10561779443905253 127 97 79
0.03486757498040356 0.21108812528478732 0.10322377540700577 141 109 91
0.02886673605601746 0.22705406656018615 0.09977698649191064 146 116 95
0.0258374817350515 0.23502267275510008 0.09665249687155636 149 121 101
0.02508386739369678 0.2368654100996032 0.09375189636389791 134 108 92
0.02252556029218271 0.2435682374429277 0.09070382630087583 127 104 88
0.02268524980217035 0.2429523621758213 0.08789216256845052 118 96 78
0.02314339302581153 0.24153240302378598 0.08509972815478359 108 81 64
0.020981163389509255 0.2471705496368875 0.0821139291234628 103 72 57
0.024059596764631833 0.23869154983064586 0.07949725575637454 87 56 36
0.02158465507211242 0.24517288635286744 0.07650182283207596 86 49 24
0.021594609003312518 0.24495984376303 0.0736716975396633 74 33 9
0.02103679596853894 0.24627667747849788 0.07080830153905968 68 28 10
0.020528723091823242 0.24745963013518169 0.0679500436764416 56 21 3
0.02049617027192939 0.2473610360020086 0.06511608838439456 65 29 9
0.020074279546962795 0.24831183314555033 0.06226389276160421 67 31 9
0.01920809551732823 0.2504604979380143 0.05939626079219902 68 31 8
0.017474124728032808 0.2549492111237788 0.05650443699215373 68 32 12
0.016951788117529162 0.2561716344514348 0.053661096335613334 77 50 36
0.016702696797907923 0.2566573434193109 0.050827058862198154 110 88 77
0.015334815718882788 0.26016043668615957 0.047969258662306294 149 121 107
0.014126959383252036 0.2632325206206521 0.04512365236148736 157 126 101
0.013296906809918893 0.2652859911204753 0.04229102778462461 145 110 83
0.012646318572226936 0.2668556217396705 0.03946490196598797 145 107 80
0.012323623900140829 0.267540784459946 0.03664366536853397 119 80 52
0.012850231525034131 0.265934241425753 0.03382327337889358 108 70 42
0.0133647808818734 0.2643598119888867 0.030996428808949376 101 65 36
0.01370391702048826 0.2632583921942764 0.02816462556251848 97 60 31
0.013225836493190785 0.264362500565544 0.025338094950292746 98 61 32
0.013899586834421121 0.26235736700073264 0.022494294789135203 99 62 33
0.01348502174493195 0.2632899378338229 0.019665526900142134 100 63 34
0.012696391640394517 0.2652326027276092 0.016847631560925856 103 66 37
0.011588700448649764 0.26803714566824044 0.014043752963479865 106 69 40
0.011550536873995515 0.26795378302395895 0.011211187050763058 107 70 41
0.01152465511305524 0.26783713377074336 0.008376412388669797 108 72 42
0.011618096888433876 0.26739804851605514 0.005534754673084195 111 76 46
0.011302994348009618 0.26806244077113583 0.002709203768492048 110 75 45
0.011770010354823113 0.2666137920827695 -0.00015539144693131612 111 76 45
0.01176409254045642 0.2664426218636511 -0.0030000490269337515 110 76 42
0.011915792416920867 0.26584538773236105 -0.005856070605479345 105 70 38
0.011657405541455251 0.26635622450390567 -0.008689429637502424 104 69 39
0.011592354195549173 0.2663445099554337 -0.01153576735016603 104 69 39
0.011940815763807788 0.2652149098132208 -0.014413424738312662 99 64 34
0.011934415783047908 0.26504431795762645 -0.01726906817609012 100 65 35
0.011984834098056216 0.26471997211496 -0.020131327453790107 102 67 37
0.011889177843240187 0.2647904441525495 -0.02298371271116443 100 67 36
0.01187068485478665 0.2646521618930398 -0.025844254340421965 96 63 32
0.011233656842853032 0.26618661289234846 -0.02864892642424581 93 60 29
0.011083525320334853 0.266404310636738 -0.031497824806023346 89 55 26
0.009993627559160848 0.26916413382414867 -0.03425163014297881 87 54 28
0.009906206177288504 0.26921233462345595 -0.037104778758614426 79 47 24
0.00995573538263124 0.26888990166414406 -0.03997443009156941 69 39 19
0.013404104607235193 0.25937015211963116 -0.04323733589026165 48 26 14
0.009643460518777625 0.26935770733148207 -0.04567226591971387 15 7 3
0.009720301899965048 0.2689609699133768 -0.04855111608088726 8 6 6
0.010425258088110234 0.26686385738624824 -0.05151307129528681 7 4 4
0.021132316484502672 0.23768948945118268 -0.05580563781874453 7 5 5
0.02275689521677514 0.23309867975514584 -0.05895278972715241 8 4 3
0.02246993723310789 0.23368261715277366 -0.0618468878503456 9 5 2
0.02021732943197005 0.23958946915626694 -0.06445527384909518 15 7 4
0.013728244156724786 0.25697086456855567 -0.06641287415243553 24 11 10
0.012122913249698455 0.2611280424151297 -0.0690677614389432 39 20 14
0.011327389368536223 0.2630923811727065 -0.07183896507104429 75 51 39
0.012458195583820955 0.25983841858164625 -0.07491848839300058 112 89 75
0.011198955515615353 0.2630592195334065 -0.07761113055659324 108 88 76
0.010327788487081407 0.26522905043005385 -0.08036141313790977 86 58 43
0.01034248181844502 0.2649985974721975 -0.08326178958597721 62 28 8
0.009758373478032129 0.2663908924359207 -0.08605669280613132 67 32 13
0.008139290835674398 0.2705887081886518 -0.08865791891294914 61 26 7
0.006171576373982066 0.2757323881271235 -0.0911814014846701 67 31 13
0.00492170062062483 0.2789309230483631 -0.09382840054764996 81 48 30
0.003840363652255402 0.2816730613038697 -0.09649988525479235 94 65 52
0.001463540970276428 0.28792861922785334 -0.09890269736006803 93 59 44
0.00070415350120627 0.2897989777743376 -0.10162023533276139 97 60 42
-0.0033494351295808578 0.30060433802973996 -0.10363984786605834 108 75 59
-0.005867080918114165 0.3072455871645866 -0.10595611466035179 114 82 69
-0.006436280794936536 0.30860234893522587 -0.10867963689648807 114 78 64
-0.007223011768653656 0.31054948766699236 -0.11135162809892464 104 68 52
-0.008498487828497103 0.31382310565555727 -0.11390737564573858 133 105 93
-0.01007565719695179 0.31791602548523035 -0.11638390892451993 153 130 122
-0.010976278570093909 0.3201735782258917 -0.11900890509966575 135 110 96
-0.010010567979513565 0.31736577831176216 -0.12207827633931934 118 86 63
-0.007914456790295746 0.3114887367714431 -0.12543590501351742 91 51 21
-0.007467163601951224 0.3100866396611123 -0.1284018676912613 87 42 13
-0.010951182925777597 0.31935821898780514 -0.13037363467056523 74 34 9
-0.010542235921608939 0.3180605910618566 -0.13332446252981225 68 29 8
-0.010722124949522405 0.31836170234196337 -0.13612599917617074 67 31 9
-0.010387893212702545 0.31726641942070305 -0.13906568523485777 68 33 10
-0.010503836385992574 0.3173936149869204 -0.14188795451309702 67 33 14
-0.010432368319005986 0.31701161760993085 -0.1447631463811644 66 37 23
-0.010739126382989822 0.31765703662856526 -0.1475348327301849 65 41 29
-0.008195977451322292 0.3105587862964345 -0.15111925773877394 64 43 32
-0.007079505473917072 0.307335865074355 -0.15431488777766536 64 44 33
-0.009416724974871823 0.3134984659527441 -0.15650628184232504 64 46 34
-0.009417550159634677 0.3133118427104928 -0.1593769486840182 64 46 35
-0.009467091349236165 0.3132575060806182 -0.16223498191890892 65 45 36
-0.00982750936411192 0.3140482196404719 -0.16499909406670213 64 44 35
-0.010568006864140292 0.3158724137991046 -0.16764354068915865 64 44 35
-0.009963661668549756 0.3140399692008054 -0.17070918420779388 63 45 33
-0.009745900775437938 0.3132583523637377 -0.17365828546436488 63 45 33
-0.009560575462724555 0.31256468483005717 -0.17660092668451707 63 43 32
-0.00872658066452714 0.31010631638348823 -0.17976136653194374 61 41 30
-0.00859308531059666 0.3095529548299124 -0.18269720121764202 63 43 32
-0.007948560437815874 0.3076090170040905 -0.18580954454371149 65 45 34
-0.007744198322656062 0.306862235320632 -0.1887787134479355 65 45 34
-0.004251488777392787 0.29697457307545605 -0.1958154352640364 65 45 34
-0.003965604973681147 0.296004199096203 -0.19883953656985895 65 45 34
-0.0020146952212276442 0.2905010300133162 -0.20246986400891806 65 45 34
-0.0014486581890812422 0.28876683052579477 -0.2056134239758593 63 43 34
-0.0007673844638072524 0.2867183894265748 -0.2088069394372596 62 42 33
-4.521210478901361e-05 0.28455803058165874 -0.21202411765132356 64 44 35
-0.001330212516213472 0.28786333723350377 -0.21448884126233023 64 44 35
-0.0017478987389552697 0.28880700048718744 -0.21727701789192488 58 38 29
-0.0011593163421942249 0.2870097449867832 -0.22045431591952885 60 40 29
-0.0021187832170852794 0.2894292554718305 -0.2230311443784454 58 38 27
0.0014052510309902067 0.27806667309886424 -0.25120293544550254 61 39 28
0.002851497184591184 0.27392589216779206 -0.2548241193093822 61 39 28
0.0033608181266301246 0.2723395814767281 -0.2580460266717052 63 41 29
0.0032069252394995584 0.2725619459277985 -0.2609782706050485 67 43 31
0.0029803620780080864 0.27298250684672265 -0.263878552500026 65 41 29
0.003064419417737177 0.27255555078375376 -0.26692076652174374 66 42 30
0.0005385934312205909 0.2792500401035467 -0.26876327505044795 65 42 28
0.0031274612612800373 0.27198778496912535 -0.2729654099184066 62 38 24
0.003883412029054109 0.26972644621777697 -0.27633204359243024 61 35 21
0.0031504688809439324 0.2715286227108915 -0.27900131258873356 61 35 20
0.0055686953808986445 0.2647286341814675 -0.28317597605000133 61 35 20
0.006343737442742525 0.2624133030430969 -0.2865802521723009 60 34 19
0.005717726420572 0.26392296772510837 -0.28930980229109754 58 32 17
0.005977562414529472 0.26301376174545316 -0.2924725276434354 58 32 18
0.006130787519056671 0.2623954158005683 -0.2955869037317683 61 35 19
0.0053485703962564 0.264331924157029 -0.2982353364364958 57 31 15
0.004423347502792635 0.26665940798545684 -0.30080642714479056 50 25 13
0.003127295381056175 0.2700004201017956 -0.30318171728982246 63 41 30
0.0018445434176184855 0.273305725151868 -0.30555423871056775 59 38 28
0.0005659228805148242 0.2766003666515328 -0.3079193921614798 58 33 21
0.0055649102241880355 0.26273925305104373 -0.31357138719874716 49 20 7
0.005104877223804427 0.2637958316816987 -0.3163801360710204 55 24 8
0.0050745720742994965 0.2636778519925216 -0.31941657236214577 64 32 11
0.005672342480318268 0.26184266718967253 -0.32279355297551926 73 39 15
0.0014175459174750743 0.2732746820359686 -0.3235406446851348 74 39 19
0.00040871524645393065 0.27583314195521924 -0.32603013044083407 80 47 27
-0.000347191751062223 0.27770037533925046 -0.32865241181557336 77 45 25
-0.0014385907435905537 0.28048551455902165 -0.33108297092922667 64 36 20
0.00037488103526822636 0.275325230147618 -0.33513859506938276 32 13 4
0.002224303824045218 0.27006533459405807 -0.3392337529163429 44 22 14
0.005837944739554325 0.259977262583973 -0.344356513451467 63 38 24
0.007383975228019542 0.2555444310232348 -0.3483241552558673 45 23 9
0.005859647726157824 0.2595128630601097 -0.3505255399275647 43 21 8
0.007157927180622435 0.2557568417252278 -0.35436735467753777 45 23 13
0.007284109929409782 0.25520815654116724 -0.35753205234073676 43 20 11
0.0057922111011697655 0.2590887814404389 -0.35973801931877497 38 20 11
0.0030794337063488955 0.2663127308736375 -0.3612006670626382 22 10 4
0.0030349862532408622 0.2662319260785544 -0.3642521029481845 26 11 5
0.004129715618224873 0.2630314152909606 -0.367998912386678 48 27 20
0.006285152108475002 0.25692505577530755 -0.3724089567294531 38 17 9
0.005656016433845529 0.2584443384037298 -0.37512047310218666 38 17 8
0.005817153400226198 0.25779900048115006 -0.37832062071275946 38 16 7
0.004113100991978466 0.26226343341829444 -0.38035433517045986 42 18 8
0.0026868867695376344 0.2659674880341272 -0.3825500664547886 44 18 8
0.0018233212116228886 0.2681304415620107 -0.3850930943265068 56 25 13
0.0016455406448552187 0.2684143042398373 -0.38807033866688295 67 35 21
0.00043331753895137215 0.27153344407733027 -0.39037977396659584 61 29 15
-0.0008954724391213517 0.2749727150753892 -0.39260428911971973 61 28 14
-0.0018551075786956694 0.2774006014492903 -0.39506069936280874 67 34 19
-0.002996597522483102 0.28032754561056283 -0.39739033617640396 70 34 17
-0.003040162960551984 0.28024435862784 -0.400441804806023 68 31 13
-0.005939273203852825 0.28799228895222884 -0.4015825082322868 67 29 11
-0.007899081307201343 0.29316556604616295 -0.40333178890020543 75 40 21
-0.009916807220755788 0.298498781176174 -0.40502555107337684 98 72 59
-0.01109487396138837 0.30152957381157375 -0.4072769118581384 111 87 76
-0.012065585170767598 0.30399202129987846 -0.4096622828277752 83 46 27
-0.012455064889003872 0.30486000454697015 -0.4124438842367707 70 33 8
-0.012755841571603942 0.3054846449649905 -0.41528607809690626 67 29 7
-0.012938259333622276 0.30578446446249286 -0.41821097412803937 65 27 8
-0.012599820181832276 0.30465450951472506 -0.4215051229753856 65 27 7
-0.012419919052862924 0.3039594185238519 -0.42469189030283944 64 26 8
-0.012587867761512668 0.3042191126171411 -0.4276332342273057 64 27 10
-0.013234966487264625 0.30579445607181455 -0.4302293881364723 74 40 19
-0.013810141821846054 0.30717253241576353 -0.43287401268207615 81 52 29
-0.00874889970267509 0.29307021985319837 -0.4396388629051847 81 54 34
-0.003252098581980549 0.2777681594825529 -0.4467751191510838 80 52 32
-0.0009290689764444374 0.2711813421563457 -0.451614186747259 77 46 24
0.003895386123308857 0.25772030397197043 -0.45834366216489814 72 44 22
0.013447685293433202 0.23126495344958442 -0.4686707926678057 68 39 20
0.01343388063854109 0.23109206724863823 -0.4718650358849085 56 27 10
0.01398477421270048 0.22936699920292522 -0.47549094311283824 52 25 8
0.013412342989835804 0.2307291414389484 -0.47826522097820157 62 35 18
0.013335451363779359 0.2307292181798199 -0.48141798487880005 53 26 9
0.013680209565399636 0.22956990989707027 -0.48489913347984387 55 28 11
0.013577679702126082 0.22964011959482364 -0.48803744725965253 64 37 18
0.013449056495884737 0.22978198652809334 -0.4911568081557191 52 25 6
0.013597068984652488 0.22916293498300244 -0.4944957202953696 58 31 12
0.013518381075785249 0.22916719444566785 -0.4976585832348587 64 36 16
0.013560506389475778 0.22883898783772183 -0.5009196903878147 66 38 17
0.014336745228668603 0.22649084688594734 -0.5047736121311658 56 27 9
0.014028929588832187 0.22712491548525604 -0.5077612132530455 56 27 11
0.013325870242957463 0.22884668654297083 -0.5104269380758587 58 29 11
0.0127001494642556 0.230355886455411 -0.5131516478886068 57 28 10
0.012608662472042134 0.230394819425948 -0.5163124374245858 58 29 11
0.012605856870574077 0.23018951758093448 -0.5195482661323981 63 33 14
0.01252028478650477 0.23021192234517895 -0.5227176804455614 70 41 20
0.01252080475965861 0.22999716136973203 -0.5259608873737533 60 30 10
0.012549721947647662 0.22970403299845493 -0.5292305469728857 56 27 6
0.013254663342608525 0.2275488571124316 -0.5330757175268406 60 29 9
0.012903261152689492 0.2283027150407978 -0.5360302542531087 61 30 10
0.013688728362866762 0.22592481037089224 -0.5399580797500586 64 33 12
0.013750692906425922 0.22553955466687264 -0.5432726149937144 66 34 12
0.013135014426006071 0.22702128081340692 -0.5460030339308808 68 33 11
0.01263994012980247 0.22817088079763925 -0.548835104515556 67 32 10
0.012145361981321351 0.22931926354293924 -0.5516653271650039 69 34 12
0.012413175342193432 0.22836635498358504 -0.5551651514069481 70 35 13
0.012937703230216535 0.22670542048687894 -0.558897642617395 70 35 13
0.012524764291576077 0.22762859895681806 -0.5618024805485368 70 35 13
0.011949134640370493 0.22900046963122814 -0.5645600712324651 74 39 17
0.012130779023907787 0.22828423155155889 -0.5679967862984127 76 41 19
0.011993905027540497 0.2284461785880616 -0.5711493436948293 77 42 20
0.011117611826451566 0.23064759606215693 -0.573629750206599 78 43 21
0.010503636891615716 0.23212576967935494 -0.5763442945688403 79 43 21
0.010910949651696852 0.23078647778216355 -0.5799954806447839 76 40 16
0.010873542664252375 0.23067386166656217 -0.5832416886522495 79 43 18
0.010836037724829217 0.23056137060141318 -0.5864900135759937 81 44 19
0.010798434741519203 0.23044900476448088 -0.5897404564837362 80 43 18
0.010778430608819778 0.23028791608238575 -0.593009657520157 79 41 16
0.010723401853544652 0.23022335869865046 -0.5962481424569296 82 42 16
0.010301773428764732 0.23117081475919815 -0.5991403661654285 84 44 18
0.010696564823692224 0.22986404913292288 -0.6028107271145612 86 46 20
0.010542861701584985 0.230071555758655 -0.6059610378795911 86 46 20
0.010723877170031634 0.2293545375870752 -0.6094354077088515 85 45 19
0.0111892054739293 0.22785189844641113 -0.6131899260793209 80 41 12
0.011589198169750587 0.2265292763997157 -0.6168879707806 82 43 14
0.011728944370090762 0.2259252470561817 -0.6203375991968024 86 47 18
0.010613378862675792 0.22878961955101945 -0.6225550093125941 88 50 21
0.010549842278424308 0.22874724951049158 -0.6258052022359827 90 53 24
0.01028293068137022 0.2292668459633352 -0.6288550731366911 90 53 24
0.009798918008387454 0.23038654982817627 -0.6316878639831068 92 55 26
0.009350991177944898 0.23140663937820358 -0.6345547062167711 95 59 27
0.00878784389922671 0.23274541516426506 -0.6373033648540245 95 59 27
0.008814714769650955 0.23245289569839178 -0.6406477041937464 85 49 17
0.008891247543092423 0.23202284672341406 -0.6440455745541234 88 52 21
0.00888217369951938 0.2318293465907909 -0.6473591179009268 92 55 26
0.009240823299919591 0.2306185036915242 -0.6510538375213605 88 51 22
0.008944825520240642 0.23121831533641823 -0.6540774277891587 85 48 19
0.008648853719942718 0.23181807673325305 -0.6571007162480595 83 44 15
0.00831587308705441 0.23252026810375737 -0.6600850121809965 82 43 14
0.008036429901913583 0.2330743427056895 -0.6631248072000486 82 42 16
0.007910583903428206 0.23320330288703228 -0.6663264457034968 83 44 18
0.007632495721118425 0.23375359744490232 -0.669368121029711 80 43 16
0.007526176884241495 0.23382836624051925 -0.6725925485613308 77 40 13
0.006672942722392768 0.2359710796689785 -0.6750194699843194 77 40 13
0.0062788877049950835 0.2368426633513496 -0.6779340109640832 77 40 14
0.006111309678392757 0.23708711749660624 -0.6810918094543568 74 37 11
0.005575021215301457 0.2383527555070475 -0.6838505282900734 76 38 12
0.005253432753641048 0.23902383179659048 -0.6868405152819238 76 39 13
0.004950527540392359 0.23964318620210015 -0.6898503684595761 75 39 15
0.00464765418864873 0.2402624789826316 -0.6928598514942411 73 37 13
0.004281406473173641 0.24105741588176788 -0.6957988874540548 75 39 15
0.0037451739360044797 0.24232352535464324 -0.6985481457293399 73 37 15
0.0037157744531926065 0.2421849881422768 -0.7018599239670431 72 37 15
0.0036927219492672234 0.24202870061224238 -0.705181181412649 71 36 15
0.0036860729173594266 0.24182677512255113 -0.7085233361889405 70 35 15
0.0031969398957575057 0.24296250085142618 -0.7113226079210748 68 33 14
0.0015771549448813302 0.24723380691281838 -0.7128355309446764 64 30 11
0.0020627528325605493 0.2456668459548384 -0.7167363762685871 64 32 13
0.0024437425866914997 0.24438954414420516 -0.7205249779857673 68 35 16
0.0030504819348285903 0.24248555363932456 -0.7245799723205286 63 30 13
0.004038821328450112 0.2395222460917657 -0.7290849962337116 60 27 10
0.000935216244047514 0.2479123980899054 -0.7288513689733448 59 26 9
0.0015597337900361934 0.24595843620590432 -0.7329367436901982 57 26 8
0.001043160811320408 0.24717093546319963 -0.735694526115968 57 26 8
0.0013894052692514508 0.24598859423514183 -0.7394648304723798 58 27 9
0.000683810228793505 0.24772589629046765 -0.7419984807420251 60 28 10
-0.0003814763742616342 0.25046217248220826 -0.7441007216766752 63 31 10
-0.00014721781014635782 0.2495903936698181 -0.7477436563504857 63 31 10
-0.0014630880312293051 0.2530232241128308 -0.7495361321249645 64 32 11
-0.0017004195070432077 0.25346113479337695 -0.7526143773227258 62 31 11
-0.002498997625246177 0.25545807616541033 -0.7550152739530698 59 28 10
-0.0027930682943299243 0.25605377406533136 -0.7580223504037042 59 28 10
-0.002829302806923513 0.2559330938893075 -0.7613430460322922 60 29 11
-0.004057880515090609 0.25912559948372715 -0.7632080952217751 61 28 10
-0.003292532165501419 0.2567772692287489 -0.7675115991665172 59 26 9
-0.0036712939390343216 0.2576083248626496 -0.7704149020124279 58 25 9
-0.00448974424446779 0.25966173504013107 -0.7727725432649625 58 27 10
-0.005107165208957702 0.26115662074925594 -0.7753743995169505 58 27 10
-0.0051587881200012495 0.2610785203670427 -0.7786790481804696 58 27 10
-0.004775588286703249 0.2597910832085105 -0.7825310623966076 57 26 9
-0.003772577593737822 0.25677936965170645 -0.7871701101901082 56 26 10
-0.004401537614267641 0.25830623417091575 -0.7897591709252307 56 24 9
-0.0062247381101631985 0.2631556215965354 -0.7908284758062772 56 24 9
-0.00800673634046637 0.2678914413484508 -0.7919340693081353 58 23 9
-0.008333496546261608 0.2685789609263207 -0.7948862393405945 58 22 8
-0.008876149992127456 0.2698673431473856 -0.7975603063632464 59 23 9
-0.008832055997124673 0.269522834529451 -0.8009884657361153 61 25 11
-0.008917398691364771 0.26953841967095604 -0.8042521345775981 62 26 10
-0.00983136666226208 0.2718607508808904 -0.806439896217856 60 24 8
-0.009555991712663997 0.2708720283065771 -0.810173961317806 60 24 8
-0.010051238072002484 0.27202885226316165 -0.8129032795245187 59 23 7
-0.011903626052839941 0.2769654775875251 -0.8138437083326704 58 22 6
-0.011437180966671782 0.27544444873478524 -0.8178319567115675 58 22 6
-0.012841324652151508 0.2791337989156685 -0.8193459205999124 58 22 6
-0.012756708254839114 0.27867620033692453 -0.8228309935243463 59 23 7
-0.014571387112591094 0.28351052250055686 -0.8237797627806659 61 25 9
-0.01329786202762831 0.2797399406585059 -0.8288582800631633 63 27 11
-0.014665163125875902 0.2833284704797452 -0.8303935881128073 62 26 10
-0.016084099383527915 0.2870616953697372 -0.8318473817863536 62 25 9
-0.01798730188903991 0.29214574356649803 -0.8326311707799829 62 25 9
-0.019164935396381866 0.295207964424434 -0.8343870276493631 61 24 8
-0.02014287661576912 0.2977139892630156 -0.8364065483292153 64 26 8
-0.021132440885347874 0.3002529282112857 -0.8384025014661679 69 30 8
-0.02114812860689893 0.3000760845317205 -0.8417341408355092 74 32 7
-0.021466247390621217 0.30074270406146936 -0.8446495552835438 77 34 8
-0.022144983957255365 0.3024154346698609 -0.8470630648629272 81 37 10
-0.02181592382535455 0.3012765062875221 -0.8508783243294873 84 40 12
-0.02187809677029582 0.3012289226213277 -0.8541518348738608 84 45 16
-0.024425854810101254 0.3081182105733622 -0.8539328575699 84 45 18
-0.020290666063727834 0.29635535707811367 -0.8631208299762936 83 46 19
-0.02100305148776309 0.29812189364305147 -0.8654886198355012 82 46 22
-0.02327696683126443 0.3042484520056469 -0.8656312869296456 82 47 25
-0.022735693304771182 0.3025155851482755 -0.869770336033141 77 47 26
-0.020921921026352375 0.297228520836193 -0.8757407881599312 75 48 30
-0.021284735411922273 0.29801920008516947 -0.8786037158722082 69 41 26
-0.021230249184203992 0.2976442867520648 -0.882067783531319 68 41 28
-0.02174396848368655 0.2988565476496323 -0.8847121373790463 67 41 27
-0.023028241562812843 0.30222195288809656 -0.8862334817602776 66 40 25
-0.02320365852841525 0.3024894903615327 -0.8893619321239984 64 38 23
-0.015250970078136562 0.2800409169708139 -0.9043955287648702 63 37 22
-0.021531227983662353 0.2973691501558796 -0.8985955834912146 61 35 20
-0.020872077389015455 0.2953027982297562 -0.9029688011666246 62 34 19
-0.02059412421288767 0.29430155376335637 -0.9067874554880948 61 34 17
-0.01806880073083461 0.2870159104400568 -0.9139515627125012 63 36 19
-0.019938645456797507 0.2920194675650473 -0.9145906141362878 70 41 25
-0.018243975212654674 0.28705466844998806 -0.9205476940299219 70 41 25
-0.019186149254867432 0.2894643358649995 -0.9225648297712642 72 40 25
-0.020130598927673993 0.29188085202796965 -0.9245712006878258 72 41 22
-0.019050713815764515 0.28863389337214784 -0.9296329337057794 76 45 25
-0.019332980258578963 0.28919767921422457 -0.9326409142699583 77 46 25
-0.019822782320077358 0.2903422985824812 -0.9353324383031654 79 47 26
-0.022436441234050482 0.2974317603793968 -0.9347737749297971 79 47 26
-0.02244025941963282 0.2972170176032052 -0.9381946472292176 78 43 23
-0.022948393033140946 0.29841403109519554 -0.9408416606704697 76 39 20
-0.023125796474986346 0.2986851531006054 -0.9439971043558363 72 37 16
-0.023004028839522656 0.29811840876269124 -0.9476174138362272 72 37 15
-0.023416972623047268 0.299049003007675 -0.9504097249023638 73 37 17
-0.02323648489257362 0.2983174199104981 -0.9541271396995549 77 44 24
-0.02387069731602516 0.2998679037075598 -0.9565726112625854 79 50 33
-0.024887293867843586 0.30249004087303166 -0.9584126928357855 91 66 52
-0.02612250395230572 0.3057253221229126 -0.9598995644652851 99 78 67
-0.027023256750232608 0.30802396088796974 -0.9619054116380864 93 74 63
-0.02796877406646002 0.31044853156204005 -0.9638331401291457 90 70 59
-0.02886318825287626 0.31273033784242155 -0.9658348579410372 89 67 56
-0.029573681285277063 0.3144969496391213 -0.9681238823518357 92 71 60
-0.030643481848794667 0.3172713889210041 -0.969831167436875 94 74 63
-0.03144810596984508 0.31930275861964874 -0.9719567206593154 96 76 65
-0.032458009804274136 0.32191027656422916 -0.9737445048602148 91 71 60
-0.033450505274642876 0.3244695044970124 -0.975552281135272 92 71 60
-0.034599907955621984 0.3274694586409788 -0.9770966725946041 95 73 62
-0.03577036785261154 0.33052913966833974 -0.9785968906900759 97 75 64
-0.03677821724562548 0.3331331670383106 -0.9803534655574365 95 73 62
-0.0383877403407942 0.3374263585941 -0.9811127924929598 92 70 59
-0.038879935847831094 0.33858430172329135 -0.9836999589478392 88 66 54
-0.039501279093583176 0.34010496771184806 -0.9860708183581979 91 69 56
-0.040040217793949937 0.3413945375093151 -0.9885744623554449 90 68 55
-0.040600884492092905 0.34274532479429265 -0.9910387886748542 88 64 50
-0.041306098598371525 0.34450227377791476 -0.9932581651315444 88 60 44
-0.042115471695430465 0.3465521028219646 -0.9952979147007905 82 49 31
-0.04274731517802598 0.34810364003610184 -0.997630204599959 77 40 17
-0.04367834990858486 0.3504960129666286 -0.9994533192638478 76 34 8
-0.04496972526198387 0.35390136731052996 -1.0006587260727329 79 33 7
-0.045092292392087674 0.35402292300561344 -1.0038384263853688 80 36 9
-0.04487703747883796 0.3531949201165613 -1.0075954219274956 80 36 8
-0.04438021032345409 0.3515751009535918 -1.01183915278876 84 40 9
-0.045222421970940355 0.35371913300495483 -1.013793910092083 87 41 11
-0.046030858726642136 0.3557686323038103 -1.015800265322263 87 43 11
-0.046838062914158936 0.35781507139212776 -1.0178025808338846 88 45 11
-0.04816118860900258 0.3613128782016253 -1.018904968972359 89 46 12
-0.04774619898489281 0.3599226077139328 -1.023016180990855 93 50 16
-0.048680357511873856 0.3623271408740354 -1.0247825820995915 95 54 17
-0.04925667124309814 0.3637253876304549 -1.0271672951708093 95 56 17
-0.04956765222302561 0.36437726771519696 -1.0300139832527229 97 61 25
-0.049789633670847995 0.364778726746688 -1.0330166966874714 102 68 36
-0.0505480537579281 0.36669001036600746 -1.0350724615385016 102 70 41
-0.0506136066119934 0.3666512824827335 -1.0383499939028202 101 70 41
-0.05067928039084099 0.36661275628455264 -1.0416294205722074 101 70 42
-0.050341572920510655 0.3654382968129004 -1.045630085069292 101 70 42
-0.04942357060571276 0.3626292580279064 -1.050675179784908 101 70 42
-0.048580534237988464 0.3600304877062328 -1.0555989722671755 99 68 41
-0.048533025434907714 0.3596717425154684 -1.0591034705625857 97 65 41
-0.04806110077936341 0.35811712329021156 -1.0633775586827976 94 64 40
-0.047588037033604876 0.35655875520751357 -1.0676619093239017 91 61 37
-0.05307119788187843 0.3717839408682771 -1.0611347140408611 89 59 36
-0.04722777319961348 0.35509152331043903 -1.0751877302047863 85 57 34
-0.045414785446316275 0.3497549688043812 -1.0819426516078072 79 53 33
-0.052798371502911313 0.37034223861913945 -1.071858962090132 71 43 32
-0.05212825923976012 0.36822824752207095 -1.0765067082438577 61 39 27
-0.05273115183574213 0.36970314800820137 -1.078816432872002 44 23 14
-0.05271776803192354 0.3694403211695259 -1.08226263170278 33 13 7
-0.05219191889805217 0.36773187752920633 -1.0866631044398873 35 15 7
-0.05074996017164735 0.3634386057550183 -1.092778129728377 46 20 8
-0.05052735312402844 0.36258417825790784 -1.09663523115667 58 25 12
-0.0503185019144777 0.3617682068827355 -1.1004720045205951 63 26 8
-0.05137575318576854 0.36452484648536265 -1.1019351134902329 71 33 10
-0.0516481270558054 0.3650668580486631 -1.1048683079289334 74 34 8
-0.05220430419423617 0.3664099923011691 -1.1072648141798316 78 38 12
-0.0525170988217232 0.3670662497025494 -1.1101193555714528 87 47 19
-0.05098883393139269 0.3625242884674098 -1.1164745608682674 86 47 18
-0.05229835718764737 0.36599459463465156 -1.1174370373143236 88 51 23
-0.05244028201017332 0.36616808183090666 -1.120621349350508 95 59 33
-0.05176458003247253 0.36403197656196506 -1.1253759700828245 98 64 39
-0.05410679946925681 0.3704208692988493 -1.1243326372703253 101 70 46
-0.05490604697856212 0.37245182236066965 -1.1262439865583347 100 70 44
-0.05463245026570529 0.3714515653482464 -1.1302263236327024 98 68 44
-0.05333935835879263 0.36756965389645657 -1.1361945489403444 94 64 40
-0.05655420454278007 0.3764284230719856 -1.1334004458945883 91 61 37
-0.053387211548802334 0.36724851323339935 -1.1430389744108589 90 62 39
-0.04988698931531906 0.3571238705677132 -1.153369829881398 75 55 36
-0.04761928785819785 0.3504815439917794 -1.161322124154851 67 52 39
-0.04583825260324372 0.34521361723148897 -1.168344473342934 89 79 66
-0.05196147390687727 0.36230081465749475 -1.159767154177391 134 128 119
-0.04981453175277656 0.35599770883803883 -1.167516316054752 164 162 160
-0.04754137472784463 0.34933568506812596 -1.1755442473617912 181 178 177
-0.03345144311197002 0.30923524990210544 -1.2071633569022617 188 187 185
-0.03326084822367844 0.30845842102755316 -1.2111539689249182 193 192 190
-0.033179012161974705 0.307989068703967 -1.2149317514151177 197 196 194
-0.032637022001680005 0.3062168820974994 -1.2196390967272324 199 198 196
-0.04808325271257552 0.34970842392812257 -1.1921050032264422 200 199 197
-0.04105547021694612 0.32957667440969524 -1.2098587301083636 201 201 200
-0.037800392004042505 0.32012315557574866 -1.2200432620435848 202 202 202
-0.05657859993433927 0.3714567058811513 -1.2099750900276178 205 205 205
-0.0610791485524988 0.38398589058351773 -1.2041245650621033 206 206 206
-0.07804925534682837 0.43187855580702117 -1.1721960923363028 207 207 207
-0.07794010543325382 0.43134552236304247 -1.175821521839373 207 207 207
-0.07720710018909105 0.4290426494410341 -1.1807606838694973 208 208 208
0.03838462131443421 0.2115574827769623 0.12612440159127053 183 183 183
0.03765180232569425 0.21333502561253617 0.12317546719492328 183 183 183
0.04076698033648378 0.20480789381362924 0.12071127202987192 182 182 182
0.042812589187500014 0.19914355941731454 0.11809015272209557 177 176 170
0.04699583418023282 0.187752273031812 0.11569957376394746 142 130 118
0.0455585634009179 0.19141485366526426 0.11263970839489756 128 105 88
0.034934740424174465 0.21968945109813065 0.10859337703803035 121 93 76
0.034049645080466984 0.22187629220557234 0.105648628500885 128 97 78
0.03328794823249029 0.22373281551954552 0.1027215103883567 136 104 84
0.03275036039955603 0.2249890313228408 0.09982017044716053 146 114 94
0.029265578991413452 0.23414428452307873 0.09665035719550441 144 115 95
0.02799291297736195 0.23737190866567034 0.09370151446178539 128 101 84
0.026689452045121145 0.24068263470724383 0.09075860615277648 126 101 84
0.026914133378526786 0.23989706854749956 0.08794592257704634 120 94 77
0.027212738210524848 0.23891304541375769 0.08513490570248011 103 76 59
0.02728816197645821 0.23852718507991483 0.08230348471716202 97 70 52
0.02770937545599622 0.23721383105818278 0.0794925674427171 87 58 37
0.02378271325400852 0.2475611957582539 0.07640281235983892 87 52 27
0.023794257477565084 0.24734714485376655 0.07357484447326522 74 36 12
0.023764515141934603 0.2472437092831032 0.07074249034661015 69 31 12
0.023012937905528164 0.24907671521772168 0.06787199218515833 65 29 10
0.02297087074385948 0.2490063109981734 0.06503849186971487 71 34 15
0.022691101482092926 0.2495736390935438 0.06219331308715173 69 31 12
0.019964501553715 0.2567073908684152 0.059255849738420366 64 27 8
0.01985609904495929 0.25681548642465024 0.0564272524025773 69 32 14
0.018868299486715548 0.25928396696066547 0.05357160462360912 83 55 42
0.019273153916814056 0.25801434185608113 0.05075739821246262 105 79 73
0.017880287709520895 0.2615707421415446 0.047899834910460945 126 99 90
0.016629968670915193 0.26474502806947525 0.04505431557162179 161 133 111
0.015643337454097156 0.2672117896367481 0.04222059566670792 151 117 92
0.015121247389084047 0.26843141379906804 0.039397071704832254 152 114 87
0.01485848935149231 0.26895467408061535 0.03657701111755239 127 89 58
0.016342240950718415 0.26478668213653495 0.033757295558769065 121 84 52
0.015627009653653767 0.26652499076936426 0.030932080912266496 121 85 53
0.017033638549093386 0.2625629159717914 0.02809319142962303 109 72 42
0.014863581941625528 0.2682101260825445 0.02528521905620745 100 62 33
0.014901080788297896 0.2679263114710486 0.02245651938822064 102 64 35
0.014498436076747792 0.26882520426403445 0.01963468079093162 104 66 37
0.01371598533337752 0.27074499507942545 0.016823757060267057 103 66 37
0.013066428362244253 0.2723078638464498 0.01401348241769889 103 66 37
0.012785760672669705 0.2728792836234556 0.011194235037873382 105 68 39
0.012258861887589595 0.27411272568749945 0.008384635496590985 107 71 41
0.012469665322421608 0.2733627812183651 0.005546374215084783 111 75 44
0.012750044347295333 0.27242549319213283 0.0027010437184937716 114 79 48
0.013290059696938444 0.2707896621967829 -0.00016186172543045108 112 77 45
0.013465117623496434 0.2701350032890626 -0.003011400404146082 109 75 41
0.013531865696785397 0.26977145810776343 -0.005858093557604263 107 73 41
0.013561655929846553 0.2695071656633557 -0.008705083180638812 105 70 41
0.013437726866927402 0.26965629840354416 -0.011544008274848624 103 68 38
0.013909068142638134 0.2682036496891673 -0.014426722965645317 95 61 31
0.014123465146247016 0.26744204674127864 -0.01729597419128373 95 60 30
0.014379080264000949 0.26656926100893374 -0.020172446624414454 98 64 34
0.013856970155199336 0.2677894965301981 -0.02298735700891627 96 62 32
0.01376224736276957 0.26785942713296884 -0.025837894063092053 93 59 29
0.013018877245680613 0.26967550950474806 -0.02862926654565607 90 56 27
0.013387587105350054 0.26849771099534286 -0.031524751653707245 85 50 25
0.012958486088444729 0.26946781498415157 -0.03434431461043416 79 45 24
0.012063258218812128 0.2716932766847401 -0.03711287711093842 72 39 21
0.01242630765944959 0.2705302753688124 -0.04001465303220003 67 37 21
0.015339163158753624 0.2624990274811639 -0.0432138222743047 40 22 14
0.01625077569054023 0.25985693500814294 -0.04620217408984918 11 7 4
0.0075087655922316116 0.2832216230189225 -0.04801135245082761 6 6 6
0.011759469072994536 0.2715842937018723 -0.05140375412428767 7 5 5
0.02092808243869522 0.24669258893035964 -0.05548287008391774 6 5 5
0.027491945551415722 0.22881516440648536 -0.059288557534867246 6 5 3
0.024021215823476508 0.237978899236946 -0.06174419287539229 8 5 4
0.01647353943522105 0.25813364235716907 -0.06358214177738189 13 7 4
0.015560461781947185 0.2604073704331361 -0.0663457552863636 27 16 15
0.015003324735758022 0.2617218516077023 -0.06915818910000118 41 24 18
0.014956629274387553 0.2616602083572976 -0.07204840632858299 71 49 37
0.01526827445966375 0.2606321631260899 -0.0749983880112265 99 77 64
0.014737341555903727 0.2618761116898792 -0.07781307809418903 98 79 67
0.0140729925443044 0.2634800602687503 -0.0806025399218128 84 57 41
0.0130641536818486 0.26601347370189976 -0.0833281075901204 65 31 12
0.012601273708646527 0.26707448705141423 -0.08614494845418495 62 28 9
0.010936961128624023 0.27137705320375705 -0.08873928318212068 56 22 5
0.00880871053706786 0.27693223861666527 -0.09123409012977071 57 22 6
0.008531557353680608 0.27749323439513834 -0.09406853601812522 69 38 21
0.00721012324427793 0.28087256978781944 -0.0966973208060401 86 58 46
0.004975765946290497 0.2867165799660012 -0.09913321668630745 102 69 54
0.0037176121218080865 0.28992656921960247 -0.10175226609111128 95 58 41
0.00012690141729188031 0.29943424340013763 -0.10387325579446867 102 68 51
-0.00213228394164193 0.3053487649207495 -0.10625011724995793 112 82 64
-0.004728735953708235 0.3121751223151264 -0.10853568973584224 110 73 56
-0.005393162054424763 0.3137853594463391 -0.11123119372749846 103 64 47
-0.006448020031608548 0.3164503116234293 -0.11383428360017507 149 120 108
-0.007789140011721971 0.3198889401585673 -0.11636395460264262 159 136 128
-0.007094113673302316 0.31782783332577325 -0.11936441036730981 132 107 93
-0.007642708981506013 0.31912601615923075 -0.12207417241859081 119 87 63
-0.007948531220079963 0.3197684197029125 -0.12484063560808292 93 52 21
-0.008818776544592052 0.3219360499996026 -0.12746591874927346 87 43 14
-0.008698310215497065 0.32142664736019677 -0.13033680044046742 72 32 8
-0.007918370277107761 0.31913462969274453 -0.13338091165039911 68 30 9
-0.008138709038352246 0.3195458472488161 -0.13617163170071808 68 32 11
-0.007930368867420656 0.3187981858766664 -0.13907684386286961 69 34 11
-0.007619133700176875 0.31777207886489856 -0.14201389596439626 67 33 14
-0.008187456711188867 0.31912390983822286 -0.14471349451430066 64 35 20
-0.00384715208121357 0.30720200476208914 -0.1487841338967663 64 40 27
-0.005197438732279305 0.3106676199191424 -0.1512772790821996 63 43 32
-0.004069907854035673 0.30743193228059895 -0.1544760571779515 64 44 33
-0.0025977259971331768 0.3032631598373644 -0.15778797028405672 64 46 34
-0.008069349676201182 0.31787880541485736 -0.15904874561814286 64 46 35
-0.008171788281829531 0.31797040342157423 -0.16188472788460828 65 46 36
-0.008381248594939453 0.3183515143830389 -0.1646891388025558 64 45 35
-0.008734982108648481 0.3191230405665188 -0.16744897635457096 65 45 35
-0.0078726613284852 0.31660338846072034 -0.17059123157629924 64 45 34
-0.008054621463082737 0.3169097423075916 -0.1734093816847924 63 45 33
-0.008703505737847811 0.3184800578993401 -0.17607668763989331 62 42 31
-0.006578177960325962 0.3125398275755072 -0.17965205051497626 61 41 30
-0.005896487734188716 0.3105070914649914 -0.18276762625611936 62 42 31
-0.004742425412161411 0.30719467130617184 -0.18605086524866932 64 44 33
-0.003675128302157424 0.3041164251740372 -0.1893168741152212 65 44 33
0.0005731250543245525 0.2924217722424016 -0.19369659431803368 65 44 33
-0.0003998535302797007 0.2948677898413417 -0.19628422684304164 65 44 33
0.00031750781591875776 0.2927349495902421 -0.1994660584421263 64 44 33
-0.00030975436236028997 0.2942446446928909 -0.2021726329711124 64 43 33
3.364878245713798e-05 0.2931243820726843 -0.20522941598177327 62 42 33
0.0025437243558103367 0.2861321916247014 -0.2090905166600442 63 42 33
0.004674528211195239 0.2801663233117192 -0.2128347271322511 64 43 34
0.0012170832327444564 0.2893462262041628 -0.21448925784942252 62 42 33
0.00035931432401292707 0.29148072281594806 -0.21710868493593918 58 38 28
1.35342383133924e-05 0.2922275135413195 -0.21992061725361414 60 40 29
0.0002699854146014785 0.2913414680569434 -0.22296725441871823 59 39 28
0.007379010738810449 0.27032389007345037 -0.2526637655143282 60 38 27
0.006283836500249634 0.2731022570430185 -0.25518772358398484 59 37 26
0.0064160416585421765 0.2725492501497782 -0.2582451271242865 61 39 27
0.0065909443495238695 0.2718800995513203 -0.2613250020145626 64 40 28
0.007525221710968005 0.2691488397253724 -0.26475039335219896 62 38 26
0.005826107277798323 0.2735678653478253 -0.26698971115610826 66 42 29
0.004632238617528872 0.27661559909057415 -0.26944777422359656 65 41 27
0.0068010186867564215 0.27053063078150075 -0.27345606276328555 63 38 24
0.007509315136609865 0.26841147432798085 -0.27680267118132 65 39 24
0.004928217306470348 0.2752279842370873 -0.27860319406122835 63 37 22
0.008446760787377744 0.2654732978957804 -0.28329340419715454 61 35 20
0.007544055833927171 0.26773011285037396 -0.2858878601151802 60 34 19
0.007677476717085463 0.26717157349870563 -0.2889802871179382 56 30 15
0.009565265212966148 0.2618446799323423 -0.29293747852925495 48 22 8
0.00946592707149222 0.26191784321788103 -0.29592960607708685 57 31 13
0.008544542642324002 0.26422561085923457 -0.2985120418164601 54 28 12
0.006490220370810623 0.2696139497323504 -0.3005166064710666 48 23 11
0.005102698925046362 0.2731902961526408 -0.30284420044844673 78 57 47
0.004177280223905219 0.2755107019019967 -0.3053988001281967 63 42 33
0.003959060869178965 0.27590818158586006 -0.30831381343083974 49 24 14
0.009650587213707824 0.2602315074373909 -0.31431987873300415 47 18 5
0.00835984648226537 0.2635447015237892 -0.31669677372193783 54 23 7
0.008879833905999661 0.26193237028310434 -0.32002776189549803 65 32 11
0.007770004786551328 0.26475403300573475 -0.32249097919901104 73 38 15
0.004480823515047999 0.2735065035358359 -0.32376639645887095 72 37 16
0.0032540443743674513 0.2766481112263506 -0.326139893749475 77 44 23
0.003132246422805074 0.27678284724293234 -0.32911280548580824 77 45 26
0.0024149359213145177 0.27853850602334196 -0.3317562495090654 64 37 21
0.003982439187843315 0.2740744438875305 -0.33567454049131445 31 12 3
0.0055709543874290016 0.2695520865935817 -0.33962149560492655 44 23 14
0.00918450485279338 0.25951461587875263 -0.3447379271940355 64 39 25
0.008996202115459047 0.25982811576996034 -0.3477088872986751 47 24 11
0.009553700176117133 0.25811037290007866 -0.3511117919691032 50 27 16
0.008249849468954094 0.2614621250745839 -0.3534370294077818 45 23 13
0.008587684208613916 0.2603423577623078 -0.3567172462489739 39 17 8
0.007832286382192966 0.2622006626778463 -0.3593554324462326 35 18 9
0.005210532908243255 0.26914457244766665 -0.3608748409573094 19 8 2
0.005732699769634968 0.26752264984898505 -0.3642635682223042 25 10 5
0.006531463358566157 0.2651464448330161 -0.36782718594857033 45 25 16
0.008607035153982298 0.2592895031936853 -0.3721806040135243 43 22 13
0.008610873014717114 0.25907855582126404 -0.3752804333965313 36 15 7
0.008859175114663796 0.2582009872524963 -0.37853428665915106 39 17 9
0.006491529122448075 0.264455584384662 -0.3801581076010334 40 17 8
0.005615894638998774 0.2666429904545476 -0.3827015062282852 43 18 9
0.0049692706089373775 0.2682062304875906 -0.38538432917459065 54 23 11
0.004100394632268224 0.27037588841970883 -0.3879214584097128 71 39 26
0.0029449860032228006 0.2733275079790123 -0.39026839468899466 62 30 17
0.0013869733099914072 0.2773779987234579 -0.3923458526488658 58 25 12
-0.0011320098812774154 0.2840511477545856 -0.3937835463251139 65 30 18
-0.0009166802637209648 0.2832646782880798 -0.3969982777266937 69 33 17
-0.0009085860951546926 0.28304346269151953 -0.40008011450547687 67 30 13
-0.003731836714132755 0.29054957566968975 -0.4012756235940964 67 29 12
-0.006630902578268247 0.2982641984816393 -0.4023959911253543 82 50 33
-0.007685274801430504 0.30094465722913005 -0.4047393487156211 97 75 64
-0.008683202957683114 0.3034715051582141 -0.40711356295603507 122 101 90
-0.008995394844745055 0.3041264194309142 -0.40995107511768697 87 55 34
-0.010143735471712524 0.3070647183201418 -0.4122104945157295 71 34 9
-0.009772309022149817 0.3058529405213819 -0.41551821628322183 66 28 7
-0.010174350143970716 0.3067534334046105 -0.4182902850793322 64 26 7
-0.009995983391534624 0.3060685167587819 -0.421469985601812 63 25 6
-0.009494240582560376 0.3044998713719576 -0.42488317832420774 61 23 5
-0.00996540526583927 0.30558906026414906 -0.4276085237900156 62 26 8
-0.011246489512387478 0.30889159352273876 -0.4297493869703273 72 37 17
-0.011366629317410754 0.3090219772502375 -0.4327207284700957 78 48 26
-0.01207607432400358 0.3107629955629887 -0.4352639506619744 80 53 33
-0.0002997057937795533 0.27837372113297326 -0.44695852686688337 79 51 30
0.0027680062866209734 0.2697852592944175 -0.45234007432017825 74 43 22
0.007070336100072676 0.25781910396078955 -0.4586703095860386 73 45 24
0.016274849509753754 0.23244525203730945 -0.46870867674710737 72 44 25
0.01642286953752254 0.23183309085052128 -0.472023693650129 62 33 17
0.016834135648697394 0.2305006765558605 -0.47554189990593393 62 34 17
0.01640670937142054 0.23146200629601335 -0.4784275224979242 62 35 19
0.016698444573977032 0.23045602389578496 -0.48186289253382264 56 29 13
0.01675545902959888 0.23009190052560055 -0.485122459250115 54 27 10
0.01673323542772391 0.22994440232616808 -0.4883235490525442 62 35 16
0.016460540820575027 0.23048220527715213 -0.4913312910802996 47 20 2
0.016435511053571793 0.2303421705061512 -0.4945335268203667 57 30 12
0.016415765903795218 0.230187524618707 -0.49774219249241297 59 31 13
0.01688648562584251 0.22869004811128713 -0.5013432826865823 57 28 12
0.016341759827230004 0.2299722851010894 -0.5041388222793289 47 17 5
0.016122307992137853 0.23036403687976365 -0.5071934780508413 52 22 9
0.015611750012079852 0.23155295823791996 -0.5100127785834794 57 28 10
0.015516085807602727 0.23160571873208252 -0.5131676588833118 60 31 13
0.015548014940712201 0.2313088824442429 -0.5164286816477495 56 26 8
0.015555147284893413 0.23107979311102642 -0.5196720815058071 54 25 6
0.015294193058509459 0.23158502709351603 -0.5226957878263156 56 28 8
0.015617418945078107 0.23048957099929357 -0.5262066614088667 56 28 7
0.01581006510291682 0.22975158732117193 -0.5296136492578801 57 29 9
0.01606191522464806 0.22885106016527085 -0.533074967279017 59 29 8
0.015941977652096817 0.22896928281388368 -0.5362258026985086 61 30 10
0.015735621915407533 0.22932431655081764 -0.5393042635382658 67 36 15
0.01529813261207394 0.23031299874266525 -0.542184906633032 69 37 15
0.015518106309492075 0.2294990649498828 -0.5456312297445218 72 37 15
0.015165269212017114 0.23025562410922668 -0.5485851042576887 74 39 18
0.015188365640156735 0.22998121579581776 -0.5518661720516413 75 40 18
0.014568134266172851 0.23147120461799647 -0.554585429918453 76 41 18
0.014521209130338733 0.23138872428577537 -0.5578071076851766 77 42 19
0.014037066703089678 0.23250562257225404 -0.5606429184057173 78 43 20
0.013894194608719677 0.2326862724950759 -0.5637810357941175 76 41 19
0.013603565904980533 0.23327231403171633 -0.5667877571250814 77 42 20
0.013078045491686112 0.2345030264946349 -0.5695823267170651 77 42 20
0.01447495303124896 0.23045726044379755 -0.5741176627495947 75 40 18
