ply
format ascii 1.0
element vertex 699
property float x
property float y
property float z
property uchar diffuse_red
property uchar diffuse_green
property uchar diffuse_blue
end_header
0.16553399796844448 0.25038096918196623 -0.8903969703506502 82 54 33
0.16458932127973197 0.24885578670196445 -0.8944205142659741 78 50 32
0.16299301133871624 0.24616552706728068 -0.899077248804413 74 44 26
0.1620898391639451 0.2447154606389882 -0.9030776881852383 70 40 22
0.16171052833551983 0.2442025203604247 -0.9065785080244768 75 43 22
0.1590247151446763 0.239565759582817 -0.9123215590464889 88 57 34
0.15965849991800724 0.24086482789922348 -0.914850479327582 99 70 45
0.16183639232298724 0.24492401638576577 -0.9158668214178931 98 69 45
0.16221056628946742 0.245758410818608 -0.9186383958310441 90 61 40
0.165067709942935 0.25103046869501927 -0.9189646302541518 84 57 36
0.16053388463775436 0.24309318788675843 -0.9265716946980282 76 51 35
0.15881549289820857 0.24018852544908903 -0.9314204395780188 64 37 27
0.15599420166689754 0.2353139392095881 -0.9373785442548571 51 25 18
0.15539447872735118 0.23440937327593786 -0.9411401044296254 38 16 8
0.15447869760126362 0.2329404737135085 -0.9452231364919094 38 16 8
0.1550971590517382 0.2342124133890944 -0.947772034945673 42 18 10
0.15852283020029545 0.2404979073443158 -0.9474879523591078 45 21 10
0.16182004720769738 0.24655282182842025 -0.9473114017133778 49 24 12
0.16017069397328393 0.24377371692341043 -0.9521332713152447 53 26 15
0.16158678742254806 0.24646854394079043 -0.9538459638027088 62 37 26
0.161936673574476 0.24725941317053268 -0.9566392393508676 75 49 38
0.16305436381037952 0.24942082773476018 -0.9586440269236471 75 55 44
0.16485025268328946 0.25279243277233365 -0.9599446237307931 80 62 52
0.16699795372432336 0.25679134076335713 -0.9608708770289786 81 64 56
0.1682250697810275 0.259146668867595 -0.962736493742509 83 65 57
0.17022712564170672 0.2628844057730691 -0.963789728730948 83 65 57
0.17188691290690344 0.26601078896701424 -0.9651869167272258 82 65 57
0.17310110490703734 0.2683416645667762 -0.967039593864806 85 68 60
0.17362324531353723 0.26943763042245955 -0.9696108495672882 84 68 60
0.17674414706177782 0.27516880839843594 -0.9694445693307379 87 70 62
0.17547031735351662 0.2730609208939123 -0.9738978694679001 86 67 60
0.17497060120637126 0.2723340317527576 -0.9775408575258571 87 68 61
0.17455844468818343 0.2717635031681279 -0.9810951574529159 95 76 69
0.17491063083844594 0.272555961517608 -0.9838383711190106 93 76 68
0.17591196926482125 0.2745056341803633 -0.9858858442055098 97 80 72
0.178681466783563 0.27960690366677426 -0.9860302964824982 91 74 65
0.18024827992536543 0.2825635412802803 -0.9874512178248651 87 70 59
0.18088446134462138 0.28386105994043337 -0.9898672099002859 89 72 59
0.181353649642861 0.2848608074783839 -0.9924606622489771 91 71 62
0.1832929365651383 0.2884799596162473 -0.9934543698248358 85 64 53
0.1841962076127654 0.29025260068509584 -0.9955650316828066 83 60 45
0.18624331115927223 0.29406271100836534 -0.9964196494028091 78 50 31
0.19021173194672505 0.30129462380102845 -0.9951535957430958 78 40 20
0.19223371053041194 0.30505825011434484 -0.9960030144024851 77 33 10
0.1930540730068577 0.30668115649000866 -0.9981658117642566 82 37 10
0.19370991873400584 0.3080108455551686 -1.0005060557256256 87 42 12
0.19492394704364285 0.31033424679525967 -1.0022227597026336 92 46 15
0.19572497134121714 0.3119219354494823 -1.0043921721485551 94 49 18
0.19442650257319427 0.309771781576672 -1.0089032805930003 88 43 13
0.19476734389911343 0.31054021486664984 -1.011586600649972 81 36 9
0.1922235282016614 0.30617423974763636 -1.0175120871177732 78 34 9
0.1926304980300103 0.3070607354599554 -1.0201279095116826 75 32 8
0.19484891125559256 0.31117062003271195 -1.020692549872714 72 31 7
0.19426048092895315 0.3102854417973747 -1.0244279206141274 71 31 7
0.19601557290469127 0.31357000386856815 -1.0255008723964005 70 32 10
0.19702116918421725 0.31552064774793104 -1.027418314680613 73 37 18
0.19759359199816287 0.31670045170564176 -1.0298257743747008 80 47 26
0.19742322940394996 0.3165589748282186 -1.0330833320007935 79 46 27
0.19636787189461058 0.31484371393946836 -1.0373624962221657 80 50 30
0.1974356456598922 0.3169043238949723 -1.039196714414728 81 51 31
0.19632135548169813 0.3150847569400149 -1.0435532673967836 85 55 34
0.1954342318018128 0.3136695186519969 -1.047654394577576 87 56 36
0.1948176313568994 0.31273556009336767 -1.0514472012241476 86 56 35
0.19420000081863456 0.31180004429040653 -1.0552464015311482 85 54 33
0.19380824578802722 0.31126625795125373 -1.0587859145054828 84 54 33
0.19408764525934533 0.3119254039398649 -1.0615396789804237 85 55 33
0.19386798272877742 0.3116976815930885 -1.0648811481921976 83 54 34
0.1932344261344823 0.31073468894343403 -1.068714739233833 82 54 35
0.19136059681744877 0.3075685085139509 -1.0740252803517174 79 52 34
0.19176727028622598 0.30845418600213426 -1.0766359248593864 67 39 27
0.19026313454232507 0.3059457189106289 -1.0815251693438688 60 32 20
0.18814522865929714 0.30234776312778 -1.0871604040936655 63 35 24
0.19041247734410238 0.3065380918016346 -1.087547358279629 50 23 14
0.18952883554798722 0.3051326478704397 -1.091712753731684 45 18 9
0.18988384479335313 0.3059268059661117 -1.0943897658758983 43 17 7
0.18902813021361048 0.30457146079033715 -1.098531185138832 42 17 9
0.18984583214604578 0.30618702311343793 -1.1006475266570364 39 15 8
0.1905809688389542 0.3076557862752895 -1.102859678514367 40 16 7
0.19159993650860951 0.3096280651206663 -1.1047210573613115 48 18 6
0.19346143941191124 0.31309517378481316 -1.1055444802596317 63 30 14
0.19425098909809996 0.3146595705853177 -1.1076724220824885 74 42 22
0.1949748749940634 0.3161072254343037 -1.1098766905248212 81 48 29
0.1948078748480626 0.3159741980134523 -1.1131771870866896 83 52 32
0.19469649421766372 0.31593994231024103 -1.1164108945829696 83 52 32
0.19646429857307723 0.3192388349455225 -1.1173122996303964 82 52 33
0.19453001299888084 0.31597151411236 -1.1228133526176962 82 54 34
0.1937900716042594 0.3148228893337296 -1.1268370739438265 82 54 33
0.19333979373136417 0.3141881944581413 -1.1305040896937735 81 53 32
0.1966011477941142 0.32013420769025985 -1.1295135489676458 80 53 32
0.1936006596321153 0.3149783650915019 -1.136387617608162 79 51 30
0.19513439584108253 0.3178609071238377 -1.1375571779513187 77 48 32
0.19245242935795603 0.31327107959032463 -1.1440557628702577 70 46 34
0.18898317876370588 0.30728706069186273 -1.1515737427125385 55 37 27
0.1886718897348625 0.3069003355349744 -1.1550955973658938 61 45 32
0.19601021642116762 0.32006763217370515 -1.1488530979834204 83 71 59
0.12476731044107864 0.12589095422527274 -0.07223552361229447 111 101 96
0.13214585815245955 0.13964318889739152 -0.07477148330139477 100 87 80
0.13655920802343477 0.14793048568105738 -0.07746344943280868 89 71 62
0.13602831024805087 0.14710878346722273 -0.08047998385575118 85 64 52
0.13835216306825823 0.15154544734991404 -0.08328884850407577 85 62 50
0.1379792967674145 0.15101476596034175 -0.08629258139800725 83 61 48
0.14049276577663258 0.15579962325305144 -0.08906717630517874 82 59 46
0.16588306394827046 0.20377142114326735 -0.11016749101932027 116 85 69
0.16994936857408344 0.21140568194545917 -0.11262181377869337 112 81 62
0.1743029442005838 0.21956719651251858 -0.11501918811195905 120 88 68
0.17437426577006607 0.2198490465140802 -0.1178828988440436 114 82 61
0.17408065647670803 0.21945959594969777 -0.12079014911103778 112 79 59
0.17544408282527912 0.22211826629880038 -0.12349888672858182 119 87 65
0.17937966524278573 0.22965734270088378 -0.1287386606115673 92 50 25
0.1797489996598006 0.23048653336240543 -0.13155037501816336 89 47 22
0.18053999045743868 0.23209096804607723 -0.13430406581493692 84 44 20
0.18029170120694366 0.23178437450846553 -0.13719617685647817 78 41 19
0.18174312062168524 0.2346026918876254 -0.13985211628524083 72 40 19
0.17996216266583273 0.2314786270905493 -0.14296361461861581 66 37 23
0.17950646240954266 0.23079114241910068 -0.14589281133701099 67 42 31
0.15986992210943388 0.19685055649431543 -0.18982424092603714 66 49 41
0.15630193799441866 0.19061007200218236 -0.19640653601756275 65 48 40
0.15421201530635925 0.18692932415714084 -0.19977731678488514 64 47 39
0.15340716560893458 0.1856075555723836 -0.2029004308151151 65 48 40
0.15273632240069607 0.1845319933872525 -0.2060017932575279 63 46 38
0.15211288307454693 0.1835436751155714 -0.20909832249839963 64 47 39
0.1538912201004197 0.1869619089023314 -0.21168746599410432 65 48 40
0.14854285962885774 0.17871522828470782 -0.24267325708576443 75 55 45
0.14556260711569496 0.1734099271029337 -0.24640255990974844 76 56 46
0.14318872330923005 0.16921689726590863 -0.24999925385741728 79 59 49
0.14346613253827276 0.16988300979759194 -0.2529367245684014 80 60 50
0.1423541423655515 0.16800333464848766 -0.25623159803186685 80 60 50
0.14073404962054786 0.16519318718677997 -0.259667102606695 79 59 49
0.14363079740874982 0.1706581405021959 -0.2619201751576822 82 62 51
0.14294303411326867 0.1695562151952013 -0.2651143423271573 83 63 52
0.14261140101387504 0.169106850801476 -0.2682173924887533 81 61 50
0.1424472142184423 0.16896430847770494 -0.2712775844500921 79 59 48
0.14181586196861057 0.16796636873006898 -0.27446913665337275 77 58 48
0.14213129839484442 0.16870233859425648 -0.27740026367351633 78 60 49
0.1421920000575977 0.16897185017339073 -0.2804024578812599 77 58 48
0.14072411211341118 0.16644292155280818 -0.28384332649654564 78 59 49
0.13748287833796186 0.16066827654120583 -0.2878084996332815 79 60 50
0.13903465206200055 0.16366795678304896 -0.2903906618958111 77 57 47
0.13818802785745182 0.1622775028915588 -0.293674333944875 69 48 38
0.14180211024130748 0.16905082199002644 -0.29562845611451294 83 61 50
0.13335287758095365 0.15374819052589456 -0.3012116021509577 78 56 44
0.13879560596676904 0.16498324687036964 -0.3238791464812532 90 61 43
0.1421490793392177 0.17127434751335116 -0.3258105811333657 92 66 47
0.11809147730212702 0.12826727894860301 -0.352466042084419 95 85 79
0.11626583954280412 0.12525871293674345 -0.35935185582220547 93 82 76
0.12077145083118428 0.13365375816743053 -0.3608513584398572 95 82 76
0.1222271062317868 0.13647595570594015 -0.36343220809497423 81 66 60
0.1230416130253372 0.1381266271503681 -0.3662398777112607 60 43 42
0.1270936189027764 0.14568993339217765 -0.36784461155961684 61 43 38
0.12889031917679775 0.14913328083091953 -0.3702663434388552 73 56 47
0.13093940758860867 0.15303693542835506 -0.37258231396792707 70 53 41
0.13386162671612323 0.15853415746230187 -0.3745542515669829 71 53 41
0.1350051977976672 0.16078317664940728 -0.37718967581268503 68 50 38
0.1361104308283977 0.16296186859246467 -0.3798334238243367 69 50 37
0.13675993461466876 0.1643083671209274 -0.3826484778751106 69 50 38
0.13904115100652648 0.1686328644585216 -0.38481925049026944 68 48 37
0.1409223396678645 0.172226579735179 -0.38713460496638896 67 46 35
0.1412995201901344 0.1730751259194519 -0.39003922997634644 60 39 28
0.1421223346194469 0.17473672708748428 -0.3927629286437284 63 40 32
0.14221699320942546 0.17506957336143777 -0.3957776577710038 64 41 33
0.1454477066374468 0.18112364343310214 -0.397510013190522 69 46 38
0.15799052905882907 0.2044786903548663 -0.4013932450642097 78 55 43
0.16397007359499927 0.21663891137046376 -0.42280852431897353 83 48 23
0.1721036080427761 0.2316176156761496 -0.4221591677135888 82 45 22
0.173994861732724 0.23521939995739433 -0.4242741675084315 81 44 21
0.17364626556624368 0.23473968849764365 -0.427395579917055 84 48 26
0.16999587623406737 0.22824499942831167 -0.43203126968623273 86 51 30
0.10327032915636172 0.11785189213587452 -0.6754560802385906 169 166 166
0.10578677888287338 0.12257813399115308 -0.6770082635566153 156 153 151
0.10843297873574514 0.1275384070416237 -0.6784563548870921 136 132 129
0.11017731734916472 0.13086553880210267 -0.6805050317647383 117 112 108
0.11297296248707471 0.13609468109849765 -0.6818201472797 104 98 93
0.11569254584491584 0.1411852630182176 -0.6831702168965709 98 89 84
0.11774946498257682 0.14507594375145552 -0.6849632708514197 95 82 76
0.12766551513136776 0.16502404270377574 -0.7163293039996373 75 53 41
0.12519322483293205 0.1607238836641215 -0.72134651516667 73 50 37
0.12652420091626596 0.16329685479179612 -0.7235633121583649 71 47 35
0.12686301752042548 0.16407682639639376 -0.7265105862285923 70 46 34
0.12769493928576597 0.16574756055670198 -0.7290879170109954 71 47 35
0.12831809214793174 0.16704093330787295 -0.7318174135681629 71 46 34
0.1318884263455371 0.1739916079948687 -0.7386923836109573 71 44 33
0.1272224014967494 0.16573334786691235 -0.745445743184271 68 44 32
0.1287117450628819 0.1685904347345194 -0.7475062671067005 68 44 32
0.12199833923196562 0.15680729209603284 -0.7591049618759955 66 42 30
0.12097316164888014 0.15512595915125832 -0.7631263124130706 65 41 29
0.11854756891738595 0.15091753734771404 -0.7682492122877271 65 41 29
0.12056847701253161 0.15473437680847074 -0.7699017057610344 65 41 29
0.12505800267641892 0.16300510353733963 -0.7695971025805121 67 43 31
0.12889294651453176 0.170093244772807 -0.7697811893343276 66 42 32
0.13141808382757225 0.1748170418873119 -0.7709810433525246 66 42 32
0.135743312824666 0.18295430908951277 -0.7739136645000505 66 44 33
0.14905818048571312 0.21044138855112832 -0.8294066162630718 65 42 32
0.1503756178035319 0.2129784133406618 -0.8314145213355927 68 45 35
0.16632507051361406 0.2431523784471133 -0.845421556805222 59 25 13
0.16320876381220864 0.2377121327632744 -0.8513659083232406 61 27 12
0.16832799827634323 0.2470800008366203 -0.8498188914941642 66 32 13
0.16937719651450017 0.2491291663966153 -0.8519650713587746 72 35 16
0.1701698914601396 0.25071692310963983 -0.8543408225430932 81 46 24
0.16992296519086525 0.2504358309582142 -0.857671160456494 92 58 36
0.16976221804772057 0.25030975852123916 -0.8609243124546563 92 61 38
0.16960139501088367 0.25018365572416434 -0.86417955635898 95 65 44
0.16950956901854217 0.25018163754027967 -0.8673724727565304 94 66 45
0.1701986476456512 0.2515827437164484 -0.8698359816058694 93 66 45
0.16996747123453654 0.2513304051508545 -0.8731602704575496 92 65 44
0.17015781353768963 0.25183538577863146 -0.8760896385922725 91 64 43
0.17025582280383122 0.252174503110439 -0.8791060154680085 91 64 42
0.1697726689315231 0.2514698790858013 -0.8826745496385856 89 61 39
0.16809714800082348 0.24862422551193164 -0.887383660868003 86 58 37
0.1669138676391331 0.24666309548587567 -0.8916343058063253 83 55 34
0.16741997313638624 0.24773563044768404 -0.8942724148665182 76 49 30
0.16623349201915152 0.24576939548568677 -0.8985383687147903 69 41 23
0.16504355877000737 0.24379743635867512 -0.9028166717409886 68 38 21
0.1657173445539361 0.24517115236255405 -0.9052961409538931 76 46 25
0.16284847707780684 0.24018657917854236 -0.9112205243365739 92 62 38
0.16340218887285396 0.241345066735358 -0.9138220577746217 97 69 44
0.1630133226696803 0.2408120719127007 -0.9173447274494162 96 68 44
0.16310604798610046 0.24114333312690928 -0.9203972696641557 92 61 41
0.16532144441833124 0.2452827100812059 -0.921354903654956 86 56 38
0.16325264142454324 0.24173620149104505 -0.9265417810829538 78 51 37
0.15784472152147339 0.2322012583919273 -0.9350624247163812 65 37 28
0.1554917536978001 0.2281472842287306 -0.9405742103255172 50 24 17
0.15586681338218894 0.2289863664550158 -0.9433730355904622 39 17 9
0.15779213264999323 0.2331038439975368 -0.9541210835674303 48 26 13
0.1593789738439675 0.2361144274224924 -0.9556770795495956 53 28 16
0.16088428552242331 0.23897837282103693 -0.9573064388971043 63 40 27
0.1624737783699812 0.24199268445005173 -0.9588402013276865 73 52 39
0.16445249373557072 0.24570390915111795 -0.9599639003650466 78 60 48
0.16554308494753872 0.2478232358379156 -0.9619910854248566 79 61 51
0.16969867440622854 0.25543317797696513 -0.9608397971974323 80 61 54
0.1711034791777406 0.258114128945951 -0.9625171974261008 81 62 55
0.17546049030366656 0.2660824542782027 -0.9611104708636975 82 63 56
0.17598741034589924 0.2671897031427755 -0.963677937527535 83 64 57
0.17821792503602682 0.2713475844718954 -0.9644563447824225 86 69 61
0.17916209400466887 0.2732013750014515 -0.9665736698284727 85 70 61
0.17675747515231907 0.26905911892357726 -0.9722199576658975 84 67 59
0.17742842865974467 0.2707507494139311 -0.9808602203067545 96 77 70
0.17780044077870577 0.2715800863209903 -0.9835804935148176 96 79 71
0.17956943076084958 0.27490926630942664 -0.9848007288222531 94 77 69
0.18136677349604652 0.2782885910168226 -0.98597924178509 91 74 66
0.18210733358435272 0.2797765583195667 -0.9882871278498376 90 73 62
0.18271808314425625 0.2810320787127022 -0.9907314363015155 92 76 63
0.18367073790054686 0.28289902957855034 -0.9928010483879421 95 75 65
0.18634314050673767 0.2878416684492022 -0.9929908539462831 84 61 50
0.1888822541215595 0.29254501207213274 -0.9933089250100094 84 57 43
0.18868609535640482 0.2923561011376966 -0.9966101935183082 77 48 28
0.19253314202916472 0.299396895264387 -0.995465691394794 78 41 19
0.19379601459615736 0.30181609858611746 -0.9971474542911352 77 34 9
0.19756763506801356 0.30871983635314987 -0.9960442144685989 77 34 6
0.19858536888835404 0.3106995754220163 -0.9979740052834255 82 38 9
0.19920846876796583 0.3119736422010876 -1.0003372928106364 86 41 12
0.2002777959668225 0.3140450201630063 -1.0021986118175912 88 43 13
0.2008656255520011 0.3152556244477967 -1.0045931458148543 87 42 12
0.19863446714742114 0.3114290486246371 -1.010153818967028 84 38 12
0.19595490251539147 0.30680219024438116 -1.0162364872531746 81 37 12
0.19509659327692416 0.30542994156727415 -1.0202784476145448 78 34 9
0.19742690779057465 0.3097538078033346 -1.0207094054528378 74 31 8
0.19670365436501075 0.30862292312548284 -1.024600366448015 69 28 5
0.19828412728737266 0.31160660057691025 -1.0258674949084974 71 32 10
0.19914056701514482 0.3132968258586062 -1.0279536321573897 78 42 20
0.19976883001463774 0.31457936855180146 -1.0302968229823481 79 47 26
0.19935066627770417 0.31399347579556924 -1.033841971443918 80 47 28
0.19867047198664606 0.3129400101973725 -1.0376936795761191 80 49 29
0.2010152412807469 0.3172864137676693 -1.0380456481636282 81 50 29
0.1999109051434151 0.3154759722852859 -1.0423911313645131 83 52 31
0.19727045542924718 0.310924568880534 -1.0485358991886229 86 55 34
0.19754745443517818 0.3115802430700938 -1.051288796039252 87 56 36
0.19644219655222236 0.30976953508905014 -1.0556616349714203 86 54 35
0.19560167190293493 0.30843158740437737 -1.059731706054386 85 53 33
0.19635955173874226 0.3099454110042229 -1.0619230604375214 84 53 33
0.194767076949054 0.3072666043022909 -1.066890724670412 83 53 34
0.19364237528418293 0.3054227231203875 -1.0713153421880013 81 52 34
0.1931644153839586 0.30473267936407444 -1.074979075095883 77 50 34
0.19414247256169326 0.3066392087366292 -1.076909340539128 71 43 31
0.1939703229684517 0.30649460759198444 -1.0802104945896667 64 36 24
0.1927895923638755 0.3045519979152417 -1.084724507948769 65 37 25
0.19249390126664195 0.30418757458785506 -1.0881821686801982 48 21 11
0.19308915967994633 0.30541138818991365 -1.0905671183840284 46 19 8
0.19224206685298545 0.3040643671973062 -1.094695341245867 45 18 7
0.19229017290803552 0.3043130321930056 -1.0977433342824716 42 18 7
0.19297082562503684 0.30568887063519856 -1.1000216182105724 39 15 7
0.19411355665205543 0.30788780799387105 -1.101731780896138 38 14 4
0.1948258921103388 0.309319608387175 -1.103962065936759 48 18 8
0.1957118235996647 0.3110604355886085 -1.1059751153284754 59 26 11
0.1968843474519117 0.3133114611918081 -1.107629932783578 72 41 21
0.19710393060234777 0.313864922810623 -1.1104546067639036 81 50 30
0.19650964592741293 0.3129690058097459 -1.1142868269728134 82 53 33
0.1973877748451483 0.31469518194828716 -1.1162951255759805 82 54 33
0.19711366035425398 0.3143695758168989 -1.1197335570451628 82 54 34
0.19712263325947868 0.3145480902461627 -1.1228212221076117 83 56 37
0.19676616783173131 0.3140761402922244 -1.1263675321644353 83 56 37
0.19591241440107965 0.3127192474471857 -1.130541934850069 81 54 33
0.1980346628146024 0.3166591572345673 -1.1309745903532846 81 54 34
0.19608920034001673 0.31335971085108405 -1.1365313721577548 83 55 34
0.19660572603662968 0.3144417665063186 -1.1389843047700043 82 53 37
0.1938137467349506 0.3096372991157307 -1.1456367273512988 72 50 37
0.1922250968904482 0.306974608667339 -1.1507770508965969 55 38 28
0.1928079652839239 0.3081752482114471 -1.1531561907868537 62 46 33
0.19844733124728392 0.3183692961356507 -1.1490568764681817 89 77 65
0.12585388559668953 0.12152990586616143 -0.07242782918493235 110 103 100
0.1298696085963924 0.12911246887806416 -0.07518532611708686 108 97 91
0.12849216656935433 0.126722586065615 -0.07828636390421653 98 83 75
0.1336462657852481 0.13640799362135372 -0.08093078441677007 86 67 58
0.1350005707589318 0.13906773777959208 -0.0838267790442438 85 65 53
0.13661412329766726 0.14220626554069102 -0.08669497614051652 85 64 52
0.138799404017012 0.14640097472465075 -0.08950766850802842 86 66 55
0.1383563137470399 0.14573769531170958 -0.09252815549966062 92 72 61
0.13784257038501113 0.14494404897838803 -0.0955584547440288 92 71 61
0.1432533848374408 0.15509744560774855 -0.09805802893495857 103 79 69
0.16769968585132006 0.20117331944777272 -0.11323215478439044 107 76 55
0.17214898333747397 0.20954038874162795 -0.11563196275058271 110 78 56
0.1736216911245373 0.2124100989522818 -0.11834837161572982 117 83 62
0.17789021221886792 0.22044105983815407 -0.12072447361488231 117 84 64
0.17963140880027292 0.2238050708608863 -0.12338237594626089 124 90 70
0.1807442764827739 0.2261580017780668 -0.12897135163154427 88 49 23
0.1813814257520483 0.22748322215298206 -0.13175120250239986 88 47 22
0.1813684718095479 0.22760857679917407 -0.13461529460406838 86 48 23
0.18112861466958066 0.22731528996181166 -0.1375115382871472 80 44 22
0.18133101929989676 0.2278381282943336 -0.14034784341538004 74 43 24
0.1823659575668311 0.22989688590572355 -0.14306380403241317 70 41 26
0.1781940972091904 0.22235017324059297 -0.1465403720059465 69 44 32
0.16242662418670764 0.1950975902591825 -0.18403637259009636 68 51 44
0.16265840712314578 0.1956778129342272 -0.1869295112314474 67 50 43
0.1615078831058387 0.19371121635253238 -0.1900869433880897 66 49 42
0.16542692149119576 0.20108445662890673 -0.19226485389164336 66 49 41
0.15846733697797366 0.18841708400147808 -0.19657277929989228 66 49 41
0.15647886363754074 0.18490845498556274 -0.19992570901620607 65 48 40
0.15500759956556476 0.18235310348608105 -0.2031864589264664 66 49 41
0.15368646283467696 0.18007475852837496 -0.2064262858548371 66 49 41
0.15597754487047233 0.18444851374673757 -0.2089140912695428 68 49 41
0.1553471092253276 0.1834422935947863 -0.21201320301768156 68 50 42
0.15128101283671463 0.17720003227895537 -0.23674806465034937 77 58 47
0.14774524034265607 0.17085083445325522 -0.24059318438676416 77 59 48
0.14266109132482155 0.1616544842750476 -0.2448425138889059 78 59 50
0.14120592815998784 0.15913511447303672 -0.2482213209001689 80 61 52
0.1375956400947485 0.1526524503430534 -0.25215402536633513 79 61 51
0.14002873605662725 0.15728535740444727 -0.25456672680978304 79 61 50
0.13807582127549362 0.1538519671212618 -0.2580993380183145 80 62 50
0.13845700429611044 0.15471110889638826 -0.2610340655321674 80 62 51
0.1386340551958185 0.15519485467819322 -0.2640213506343825 83 64 53
0.14619980588466072 0.16926212616657388 -0.2650260141669257 82 62 52
0.14508502775261078 0.16736990164251198 -0.26833985312502423 80 61 51
0.14429102923215142 0.16606771638505063 -0.2715735990316255 75 56 46
0.14302515273311417 0.16389856909909425 -0.2749444619703729 72 54 46
0.14194578084055762 0.16207264053880616 -0.27827189823961807 80 62 54
0.14080144289217586 0.16012773869614094 -0.2816256179987485 81 64 55
0.1399989682167299 0.15881141152466116 -0.28488926868142145 84 67 58
0.13900634515377075 0.15714604926341136 -0.28821424613920904 74 56 47
0.13452034247414346 0.14906344056034398 -0.2925734291967616 77 56 47
0.13478007157230265 0.14969988529538153 -0.2955519872581822 85 66 55
0.13506282315802917 0.15037857604765448 -0.2985228534426012 92 74 64
0.13504141789632643 0.15049861041184373 -0.301585140156994 81 61 54
0.13355438954932564 0.14872614402375336 -0.3204192514785695 89 58 42
0.14124634608180886 0.16316260359922022 -0.3240205321235822 92 66 48
0.11832630359620125 0.12272685251487608 -0.36278859243311606 82 74 71
0.1203881363113371 0.12667004251580558 -0.36516323123822314 78 65 60
0.12252298691342052 0.13074644255539442 -0.36749857408356573 73 55 53
0.12553389788096264 0.136428030426027 -0.3694957057615021 71 53 49
0.12814248856008198 0.14137124559576872 -0.37162496603252115 72 55 47
0.1302663765327568 0.1454253082590381 -0.3739213781655461 74 57 47
0.13238157423953434 0.1494627759463918 -0.37620825879684516 73 55 44
0.1344270567398033 0.15337183235322416 -0.3785091378202967 70 52 40
0.1396753939380604 0.1631485262343732 -0.37955647834670336 75 56 46
0.14019503581800366 0.1642603609976423 -0.38241852952187494 77 60 50
0.13949025618873864 0.16312909162110417 -0.3857605446157421 73 56 45
0.14009155290487946 0.16439044274613038 -0.388589189849357 66 48 38
0.14098458061143937 0.16618595071759518 -0.39129799922201186 66 46 37
0.143003845132029 0.1700437463630068 -0.3935472101724184 67 45 38
0.16521453533869968 0.21274774675029787 -0.42347603935346684 87 53 27
0.17016235550976067 0.2219535753397418 -0.4242513711490178 87 52 26
0.1725789419274174 0.22652861150441952 -0.42614076343839946 87 52 27
0.17216293790927215 0.22592307096590886 -0.42930630485398946 88 54 31
0.17172313726842506 0.22527420606671084 -0.43248635887869746 88 56 34
0.10438320320014033 0.11394583253456111 -0.689704717060417 171 171 171
0.10736373363863469 0.11952965849808833 -0.6909062988282555 155 154 154
0.11001710637224002 0.12451834868517578 -0.6923168110407887 136 129 127
0.11265885344078333 0.12948505613775282 -0.6937187469198972 115 108 104
0.11526866744910716 0.13439291332155362 -0.6951264913894639 102 94 89
0.11793190548157634 0.13939690901483226 -0.6964800655682141 100 89 85
0.12076627495379233 0.1447107015849973 -0.6976953941212065 93 82 78
0.12721115719986453 0.1577457674724348 -0.7187227958930306 78 58 47
0.12573194409919444 0.15522981349924686 -0.7230214489069955 77 57 45
0.12581479659389908 0.1555474861711189 -0.7261702248099443 77 57 43
0.12691951202137658 0.15771831676066428 -0.7285566672150339 76 53 41
0.1275223985513439 0.15897883827333403 -0.7313129270622406 75 52 41
0.13202923854986798 0.16731761196870656 -0.7311259930837068 75 51 39
0.1291858563442583 0.16232916594849733 -0.7364699875670079 74 49 37
0.12879839430190698 0.16212822191228735 -0.7463805460429651 70 46 34
0.12959404930481808 0.1637374306498262 -0.7489757332036886 69 45 33
0.1305367830716112 0.16561293118903264 -0.7514528177275513 68 44 32
0.12426553780995804 0.15475350311781805 -0.7659793233434637 65 41 30
0.12786000889521168 0.16143280998595394 -0.7663795053985035 65 41 30
0.12931155832778868 0.16422961415797713 -0.7684494193488084 68 45 33
0.13321955760426113 0.17164158646893113 -0.7717622416824439 66 43 33
0.13875477255122176 0.1821631914523835 -0.7769037772204715 66 44 33
0.1382911298413095 0.1814900464023348 -0.7804651683440333 66 44 33
0.13509070149360675 0.17586356314549986 -0.7862571191322766 66 45 34
0.14761748096639254 0.20068142283229634 -0.8171916915755345 73 54 45
0.14672433090851775 0.19923234118891725 -0.8211306327670802 61 40 30
0.15001126172801416 0.20533849174350627 -0.8214643621138151 69 47 37
0.14963300522335063 0.20481990397538882 -0.824956465088701 63 41 30
0.15356644743327913 0.21242169263339478 -0.8310055630128274 72 48 39
0.16895876346947356 0.24168843776455162 -0.8454620058301094 59 27 13
0.16844587984606196 0.24092502443394015 -0.8490415411619574 59 26 11
0.17232385662416044 0.24808602227526538 -0.84860794369498 61 25 8
0.1737845381673752 0.2508836332801158 -0.8503689246171086 72 34 15
0.17336884024643404 0.25029514027231053 -0.8538505121843203 81 47 23
0.17265315699786055 0.2491656195053531 -0.8576133963270962 96 66 41
0.17273442416281126 0.24947409169578325 -0.8606420516077977 100 72 49
0.1719958410543062 0.2483037274922264 -0.8644351686842513 106 78 56
0.17152881022677888 0.24762345530835536 -0.8679802412433961 104 76 55
0.1717491705170114 0.248183078474435 -0.8708841176489878 98 71 50
0.17177610804569776 0.2483938767798425 -0.8739696700044394 93 66 45
0.17162365549618075 0.24828125561859213 -0.8772256048479798 91 64 42
0.17096351292860912 0.24725341042794835 -0.8809653115007589 91 63 41
0.17044011339071435 0.24647236182896726 -0.8845802193299787 89 61 40
0.16936950165016068 0.24470516012836357 -0.8887226659877386 85 56 37
0.16778144503396777 0.24200574967759808 -0.8933696969819077 79 51 32
0.16692889163791982 0.24063248730740688 -0.8973204810267289 78 50 31
0.16609089856321563 0.23928581565502036 -0.9012639589060033 68 37 21
0.1651845333177423 0.2378162945209617 -0.9052803840858435 66 37 20
0.1641246650600063 0.23607058202652734 -0.9094532810102451 82 53 31
0.1638477834657991 0.23573584843997125 -0.9128699446485117 98 70 44
0.16485777355652265 0.23771933576047174 -0.9150286993647591 98 70 46
0.1657894484798808 0.2395614556542873 -0.9172584947059199 92 64 42
0.1658291143287871 0.2397968134846888 -0.9203628681025141 85 55 35
0.16631879229461033 0.24084258362521274 -0.9230224272848918 81 53 37
0.1630903793954761 0.23519339320946964 -0.9293730363474612 74 47 35
0.15959544049375762 0.22906554186632383 -0.9360123519342325 58 30 22
0.15720621754714087 0.22492955716933694 -0.9415705829899788 46 21 14
0.1587227726389666 0.22782517144065262 -0.9432261380166388 40 18 10
0.1588853838955032 0.22828333448992322 -0.9462357724531184 40 18 7
0.15861450844461317 0.22796133531359347 -0.949683283426328 42 20 9
0.1602503862722885 0.23107076158554274 -0.9512003273134324 45 22 11
0.16178861272949885 0.2340039431031773 -0.9528064626066903 49 26 15
0.16242231093668996 0.2353092132272747 -0.9553263225132693 53 29 17
0.16440902378105982 0.23904838493610558 -0.9564570402343011 64 41 28
0.16406267470684283 0.23859012609353253 -0.9599726012243053 72 52 39
0.16600508554513171 0.24224870963858552 -0.9611316505049139 76 59 49
0.1683378088623947 0.2466086118316204 -0.9618745479250692 80 61 54
0.1712333470558732 0.2519798317339989 -0.9620182237694812 81 62 55
0.17487437645130052 0.25869053854619234 -0.9613666416013047 81 62 55
0.1792119628406431 0.26665235093138007 -0.9599632361870042 83 64 57
0.1802629528116358 0.2687041777045207 -0.961976069750376 82 63 56
0.1819769715501647 0.2719475183084999 -0.9632853355287623 82 64 57
0.18176296854821522 0.27172488250493654 -0.9666180187561507 83 66 58
0.17808926988777626 0.26528456365060543 -0.9736153508246894 85 66 59
0.17426820597072157 0.2585807917058778 -0.9807954006446414 86 67 60
0.184589775092936 0.27777604696506925 -0.9822425618909391 90 72 65
0.18770287059460025 0.28352947359447667 -0.981987378068172 92 73 66
0.18664233933853772 0.28210945952154687 -0.992429733038592 91 71 60
0.18868197555341953 0.2859331678713175 -0.9933015769171947 87 63 51
0.19203652981456382 0.2921167796951497 -0.9927185485501301 85 55 41
0.19432249476930663 0.2963810548782177 -0.9932886368353769 82 48 29
0.19727375266273442 0.30183867405695963 -0.9931098227794658 77 40 17
0.19697801914970572 0.3014679160453396 -0.9965053358253878 75 36 8
0.1967441719762756 0.3012083691185333 -0.9998351126905874 74 32 6
0.199200416636292 0.3057758828091728 -1.0001714424490669 79 35 8
0.2013783853138812 0.30984328912164016 -1.0008026028018016 82 38 11
0.20366622326486516 0.3141070611382124 -1.0012965062756558 86 42 13
0.2025391189383695 0.3122443507674486 -1.0056142080521115 87 43 15
0.2039455745730419 0.31492632470054527 -1.007083921932399 86 42 16
0.2035190040484364 0.31432042824470763 -1.0106179984975643 83 39 13
0.19968373385284735 0.3076020724220442 -1.0180230323013444 80 36 10
0.19945248184778294 0.3073474166154325 -1.0213544162126698 76 33 9
0.19744021120312397 0.3038997189157262 -1.0267211898040447 71 27 4
0.1986140238734317 0.30616452452996906 -1.0284552033871266 78 37 14
0.20076945151390177 0.3101885292735973 -1.0290547927858964 84 48 26
0.20193410544901957 0.31243599029259106 -1.0307815411717116 82 49 29
0.20139140185511983 0.3116232057100964 -1.0344735992347742 82 49 30
0.20062584692727492 0.3104113191827955 -1.0384285809920488 82 51 31
0.19997009193269266 0.3093964986493011 -1.0422621985112925 86 55 33
0.19908593292183774 0.30797274968980454 -1.0463675490556061 87 56 35
0.19946778018862876 0.30881734998169874 -1.048999818683006 87 55 34
0.1996361979028893 0.3092795521453363 -1.051880644659532 87 56 36
0.19888354342972123 0.30809202590957063 -1.055844511926599 86 55 34
0.1982322335310499 0.3070863194564082 -1.0596950039105602 85 53 33
0.19703424636292483 0.30510195225824455 -1.0641977125901956 84 52 32
0.1968158142172367 0.3048719994723669 -1.0675474175526596 85 55 36
0.19570273376455927 0.30304043511047973 -1.0719642263612073 82 54 38
0.1961621481665778 0.304024365613312 -1.0745129605662118 76 49 34
0.19543875600510502 0.30289096182724445 -1.0784752286966908 71 43 29
0.19526027971369675 0.30273316708446674 -1.081789329049533 65 36 21
0.19517629790130717 0.30274459661029995 -1.084991850628025 65 37 24
0.1951280417003314 0.30282003505328414 -1.088152765666841 51 25 12
0.1955863690396834 0.30380195365544194 -1.0907015341322586 48 21 9
0.1938377349994228 0.30083531235672367 -1.0959281809868378 47 19 7
0.19468544852323416 0.30251397188644547 -1.098005916160154 43 17 6
0.19533420196261156 0.3038364881664851 -1.1003216885774574 39 15 4
0.1975185943865453 0.30790536898349546 -1.1007529307210144 37 13 3
0.19809462695817326 0.30909718123743934 -1.103145505606237 48 19 9
0.19949153879350584 0.31175670922090537 -1.104523804687562 55 23 8
0.20039161913091283 0.31352744612989614 -1.1065070453802353 69 37 18
0.20077428183439486 0.31437285920071584 -1.1091259343741313 79 49 29
0.1986118770641102 0.3106685456441314 -1.1149049033289176 81 52 33
0.19953640314632587 0.3124827939329857 -1.1168541587047485 81 53 34
0.19907004333878187 0.31181087366976157 -1.1205355586618533 82 54 35
0.19987502260832957 0.31341115984194445 -1.1226284064276175 86 58 40
0.1993541346853489 0.31264201031586375 -1.126382280660167 88 60 41
0.19870088458818314 0.311636606544604 -1.1303075000376097 87 60 41
0.199924580043701 0.3139847182037875 -1.131867053284147 86 59 40
0.19839188924524664 0.31140855729598105 -1.1369108416826594 85 55 37
0.19813081389901283 0.31110432579196323 -1.1403509474201683 81 53 36
0.19510923491715737 0.3058700179882885 -1.1473102546562297 68 47 34
0.19346928963412763 0.3031041905381795 -1.1525268827337047 58 40 30
0.195183380486121 0.30632804811562486 -1.15345996153967 65 49 37
0.20023888197782236 0.31551720836016245 -1.150090414797451 92 81 70
0.12814482223255863 0.11954053268709394 -0.07556584048615181 111 104 101
0.12831442883190763 0.12001182968161736 -0.07857490252264071 105 93 87
0.1313564893826723 0.12581254477170423 -0.08137790861312011 95 79 71
0.13243196702706597 0.1279639177118934 -0.08430973333631321 92 75 64
0.13340411433138002 0.12992330300792074 -0.08724369808483018 96 78 67
0.13513472713231783 0.13328926720095208 -0.09011085273427166 96 78 66
0.13276599284749208 0.12905164106227732 -0.09331352037999266 96 78 67
0.132410678048844 0.1285488002713849 -0.09635593743824455 97 78 66
0.17038582293846904 0.19987572899077855 -0.11040692944720523 113 83 66
0.17360459475012727 0.20614137662726037 -0.11584143207569647 110 77 54
0.18383727220747179 0.2258458915422463 -0.12898269805379248 94 56 30
0.18347115693886706 0.2253160975314314 -0.13189250460360094 88 48 23
0.18334943862563807 0.2252391087329609 -0.13477247990137825 84 48 21
0.18176067637379884 0.22244536884151697 -0.13785673788769304 80 45 24
0.17999369285567196 0.21932217481157476 -0.14097710965582272 75 43 25
0.1829864849785403 0.2250127179569058 -0.14342172810682105 70 41 26
0.18097779021511534 0.2214424825296676 -0.14658680196127882 68 43 31
0.16961343518465988 0.20221654178162882 -0.1832624020470915 70 54 47
0.16734672082546764 0.1981762447663654 -0.18661296478023273 68 51 44
0.16635807300793107 0.19650002131234157 -0.18973310851151037 67 50 43
0.1651909633199481 0.1944942041025875 -0.19289530141539274 66 49 42
0.16025786043513685 0.18552634649352262 -0.19681394574923333 67 50 43
0.15837377047602424 0.1821965984802912 -0.20014951103732984 68 51 43
0.15694511419665316 0.17970936244530544 -0.20340459228544333 69 52 44
0.1555115940715565 0.1772136548346615 -0.2066706820053372 70 52 45
0.1578753599246156 0.18173627582422114 -0.20914391232116677 72 52 45
0.1574766539407182 0.18115325961459527 -0.2121958190919038 71 53 46
0.1546637725640833 0.17610955519793095 -0.2157770318380964 72 55 47
0.14860799836197794 0.16507521365750272 -0.22009389743512084 73 55 48
0.15175336611515472 0.17135153981718068 -0.22836685480010963 77 59 50
0.15100518120416495 0.1701247365746656 -0.2315329538236307 78 61 49
0.15264606931456565 0.17331032976072103 -0.23413840635824243 80 63 51
0.15028969134492348 0.16911399893208073 -0.23769455516466537 81 64 52
0.1425675195148022 0.1550108159541058 -0.2425730150609618 82 64 54
0.14019067056244547 0.15077923927294232 -0.24618339328461697 82 64 55
0.14761318961084058 0.16463930281031858 -0.24736134278776445 82 64 55
0.14647716167834315 0.1626982666046429 -0.2506585267847359 81 64 54
0.14434369355613502 0.1589165922116578 -0.2542195155380432 79 63 53
0.14266624325296062 0.15597730944407667 -0.25767674982575783 79 63 53
0.14256509969111564 0.1559476323482581 -0.26073153158875373 80 64 54
0.14234542273834502 0.15569930672911633 -0.2638193702540502 81 64 55
0.14153134003139098 0.15435434990438351 -0.26706948342915443 84 66 58
0.14018338456603696 0.15202473965742788 -0.2704711178348751 88 70 62
0.1389365848762401 0.14988223572146198 -0.2738544339673606 91 73 65
0.13802920578502395 0.14836629593843284 -0.27715203616380596 92 75 67
0.13688239222794124 0.1464090792067384 -0.2805238888158965 93 76 68
0.13583792887452523 0.14464105456052873 -0.2838748237151784 90 73 65
0.1347921204308619 0.14287094436287098 -0.2872337655314938 90 72 63
0.131857542232787 0.13761842654047074 -0.291151209159609 87 68 58
0.13072351727916431 0.13568677064833676 -0.2945575128694374 82 64 55
0.13428241344533276 0.14240750020454795 -0.29657307061970417 94 79 69
0.13570967270461037 0.14519751654522658 -0.2992088990646891 89 74 66
0.13502584247123406 0.14409576260649318 -0.30247934665649795 87 68 63
0.13573878379404924 0.14556869857794566 -0.30532521814184693 77 55 47
0.1380444399252551 0.15013522701400683 -0.31072941397996945 83 57 43
0.14001858957450306 0.154089614895429 -0.31621374265514207 83 54 39
0.13873952169350212 0.1518915103658875 -0.3196817118347331 89 61 43
0.13933714684994208 0.15315096307076184 -0.3225449030308432 91 65 46
0.13891969406884846 0.1525405429360225 -0.3257404808170492 91 67 50
0.11443370899076455 0.10906807167830013 -0.3652620089360252 123 117 115
0.11849954022301251 0.11671281367350701 -0.3669223009369615 71 61 57
0.12264838532260962 0.12450897663472524 -0.3685264993674046 75 61 56
0.1257892251392207 0.13044930000378716 -0.3704801502041967 78 61 56
0.13129169336357938 0.14073305687225418 -0.37152705434836225 78 61 53
0.13342321656756956 0.14481439946069907 -0.3738165899109671 75 58 48
0.13430833271355663 0.14660260572393996 -0.3765695740490103 75 58 46
0.13383788393032436 0.14589755357539022 -0.37984021901310655 78 60 48
0.13518465596198825 0.14853443583771989 -0.38240848224155843 84 66 57
0.13842305900290935 0.1546491563532532 -0.3842274857979124 82 66 59
0.13891547477676758 0.1557140992769789 -0.38711155085811827 78 63 56
0.14010817879390458 0.15806634524974916 -0.38971429214062836 71 54 47
0.14224008876815147 0.1621447302057263 -0.39193290266171865 74 56 50
0.1441184204600163 0.16575634584894638 -0.39424123496513863 72 52 45
0.16689847291834387 0.2096461969949588 -0.42395037387456275 86 50 26
0.1719004350300961 0.2189839418418556 -0.42469760003737694 86 51 25
0.1758476848184569 0.2263840666932807 -0.425891722389076 88 53 29
0.1727894782242797 0.2209252602068435 -0.4302633719147173 88 55 32
0.17281282776916837 0.2211228246654712 -0.4332371305090311 89 58 36
0.10768672073316093 0.11400569460715684 -0.7024761248977632 169 166 165
0.11039806103525378 0.11911618379201747 -0.703824755444311 149 145 142
0.11322781028949308 0.12444154543842545 -0.7050719493486896 128 122 120
0.11629396592575861 0.13019670915187498 -0.7061321305639149 111 104 101
0.11898623322678009 0.1352696988901351 -0.7074413821367157 101 91 89
0.12056726507299814 0.13831751642288764 -0.7095356626234002 100 87 84
0.12275322909316201 0.14246670823734164 -0.7111816606132915 99 84 80
0.12390926846340451 0.144739380773439 -0.713564273094423 93 78 72
0.12681907806611387 0.15020555337350855 -0.7146566209354398 85 70 62
0.12575144478353473 0.14859479447189902 -0.721872237609195 80 62 53
0.1271912905467242 0.15138304407694064 -0.7240226000396464 78 60 50
0.12886509654774142 0.1545967532927103 -0.7259899063334284 78 59 45
0.1299389087263068 0.15671778207561854 -0.7283961024617555 78 59 45
0.13118541705424072 0.15915280977780893 -0.7306661896160066 78 57 44
0.13116529266075483 0.159282286394606 -0.733885582082406 77 55 42
0.1305771220833375 0.1588771910304629 -0.7471643772569702 74 50 38
0.13019424242408575 0.15834717129677822 -0.7506710439797066 72 48 36
0.13044344107891695 0.15896700454264795 -0.7536910796573095 71 47 35
0.1302787821839809 0.15883411898795533 -0.7570327344361439 68 44 32
0.12869157378434357 0.15678264077851328 -0.7743799286092969 66 44 33
0.13138428324001777 0.16184422969133927 -0.7754533947891358 66 44 33
0.14258581548712274 0.1826992659617001 -0.7760432457995928 66 44 33
0.1420644180246228 0.18191686768037268 -0.7796489903778447 66 44 33
0.1367508154439477 0.17242833895458118 -0.7871692900599506 66 45 34
0.1374880573316824 0.1740996850638321 -0.7929711277415448 65 45 34
0.15423727098096546 0.2064839775856445 -0.8170128316705593 66 46 35
0.15523380573498494 0.20845553784157295 -0.8193070613518321 68 46 35
0.15496472817477486 0.20813101538958173 -0.8226966524300472 68 46 35
0.16169224223350798 0.22082213181160923 -0.8262496096281722 73 51 40
0.1619328189847996 0.2214209972227409 -0.829174367335053 73 51 40
0.16735444324943088 0.23141352769358503 -0.8275026181110493 71 50 39
0.16666610889564165 0.23032737396648278 -0.8312355323282077 71 48 38
0.16581658838553953 0.22927358225347658 -0.8413732820290847 70 42 30
0.17290737913765963 0.2424467725286186 -0.8411976816294137 62 30 14
0.16553037358710954 0.22924175716788903 -0.8510237620305549 61 29 13
0.16957929886206646 0.23673950794167414 -0.8504547989676392 63 30 13
0.17447905496154079 0.2457771595698025 -0.8490784241749334 70 34 15
0.17518347576294566 0.24721401209194302 -0.8515337928304317 77 40 19
0.17497968660697782 0.24700576098088994 -0.8548249145900662 89 56 31
0.17459741183817906 0.2464743979623319 -0.8582839756236542 102 72 48
0.17469481819704535 0.24681182289511816 -0.8612998551568698 107 79 57
0.17340285524677856 0.2446336444168926 -0.865614660109495 110 82 60
0.1729715999171989 0.24401423233353417 -0.8691317731176659 104 76 55
0.1720693687034235 0.24254243061545452 -0.873096208137844 96 69 48
0.17358114972135036 0.24544057040580097 -0.8747866317445083 90 63 42
0.1687565828711313 0.23687000131880728 -0.8824768201937554 92 65 43
0.17245932312731788 0.24373334208818284 -0.8820848096498752 91 63 42
0.1720551240533741 0.24316368235690125 -0.8855913671347252 87 59 38
0.17042110800283172 0.24036900968319494 -0.8902805497176984 82 53 35
0.16943135972223183 0.23874057556630573 -0.8943620431306993 76 48 30
0.16781894130349673 0.23598611592797425 -0.8990524115981305 76 47 30
0.16710193372787074 0.23485193862978063 -0.9028872191323455 69 37 22
0.16638365326572996 0.23371576270175298 -0.9067291209393056 69 40 21
0.16581371293777172 0.232848162939608 -0.9104321521615648 89 61 38
0.16563633176419484 0.23269068531569992 -0.9137556654484943 98 71 44
0.16667712167773763 0.23473594037126067 -0.9158844061331688 99 71 48
0.16613703659203333 0.23392271714947604 -0.919565706210196 92 64 43
0.16585259002523522 0.23357187386763742 -0.9229987255182874 86 55 36
0.16731297644672982 0.23637514824834355 -0.9247022834017837 81 52 38
0.16455024653100447 0.23154498150818942 -0.9306042012698923 69 42 31
0.16097349792638874 0.22524471288366243 -0.9373398151696185 53 26 18
0.1600823820425663 0.22396359280965156 -0.9445839859279506 42 19 10
0.16356066369605432 0.23041260336940145 -0.9442489709057086 43 20 9
0.16146321973020905 0.22678767347732223 -0.9495417330107108 48 24 14
0.1633950592657483 0.23044187032558627 -0.9507525516714623 51 27 17
0.1662840465554542 0.23582420990575642 -0.9509744537090637 52 28 18
0.16750331812155628 0.23819005961807965 -0.9528868379083981 60 36 25
0.1649892308558233 0.23381373648503773 -0.9586266941529731 68 45 32
0.16671191632800053 0.237088468533493 -0.9600182220061698 73 55 42
0.16892478578562334 0.2412476466903871 -0.9608919636527451 78 61 52
0.17031563358366772 0.24392209852808108 -0.9626042947130555 82 63 56
0.17562744059932361 0.25367386613556336 -0.9602264204153866 82 63 56
0.17838058500069942 0.2588055757770093 -0.9604852026139308 81 62 55
0.18297017499291474 0.26725068164770704 -0.958801634593355 81 62 55
0.1837486672769419 0.26897795729431007 -0.9642030395906612 80 61 54
0.18183459908692595 0.26568578151091105 -0.9693384921942252 84 66 59
0.17608079015729594 0.25546730136588536 -0.9785645432906421 85 66 59
0.18247754172383784 0.26716882685350685 -0.974889713653795 85 65 57
0.19656201342817284 0.29337107183668315 -0.9752406627003463 90 71 63
0.19304836960290794 0.28719604245135116 -0.9821291137246226 89 70 61
0.1927653399330304 0.28716607477295497 -0.9917011972304326 85 59 47
0.19535987998403448 0.2920017990929388 -0.9919382127901494 80 49 34
0.1971811907566295 0.2954433683755866 -0.9930111694378473 77 40 22
0.19844992720363516 0.2978887545234507 -0.9946839190976203 72 34 13
0.19876613786382707 0.2986177309198309 -0.9974061656967916 69 28 7
0.19877982232182598 0.2988016868509931 -1.0004640229144626 69 25 4
0.20007823883402287 0.30129970633614367 -1.002087696327109 75 30 7
0.20118471326699913 0.30345162181611285 -1.0039183617827967 76 31 7
0.2012036880949183 0.30364480783766534 -1.0069645464577732 79 35 9
0.20324984167237778 0.30748823422745253 -1.0077261156666633 85 41 14
0.2042438968564524 0.30943672214242585 -1.0096641902206382 86 42 15
0.20583350098547304 0.31245704952974174 -1.010920745467456 84 40 13
0.20452789350936926 0.310265211176111 -1.0154613715063376 83 39 12
0.2031117629209359 0.30787495958534594 -1.0201381355845847 77 33 8
0.2011573946875353 0.3045165840961521 -1.0254418212065992 76 30 7
0.20296271241651298 0.30792470301833724 -1.0264430528599606 78 36 13
0.204245797029429 0.3103925293750186 -1.0280341248362959 80 44 21
0.20350645897497482 0.30922122057763973 -1.0319534729124618 83 49 28
0.20266361630894553 0.30786402115252964 -1.0359988258492863 83 50 29
0.20272264839244108 0.30812949221732866 -1.039002874219389 86 54 34
0.2021273285887626 0.30721804183069784 -1.0427701750633396 89 59 35
0.20131345264786465 0.30591378882840436 -1.0467980735791647 89 58 36
0.20227015665619463 0.3077938890257943 -1.048756419089797 86 55 35
0.202088712317731 0.30762718064313566 -1.0520475812731616 87 56 36
0.20129793687493538 0.3063650545017063 -1.0560596878043766 87 56 35
0.20082118721548303 0.3056678011061166 -1.0597067410198333 87 56 36
0.2005241187138955 0.30529375722419305 -1.0631448624976358 88 57 36
0.1999218762832104 0.3043713550874733 -1.0669491610328166 88 58 39
0.19914561838510664 0.3031364786735228 -1.0709662939424072 84 55 39
0.19751010453521814 0.30035783079466916 -1.076018319143744 79 51 37
0.19685874439640116 0.2993481910382845 -1.07990124136355 70 43 26
0.19678976581001284 0.29938517743751675 -1.0830884814942632 70 41 25
0.19681454752165245 0.2995906762727364 -1.0861639376353944 68 39 27
0.19714000555726263 0.30033631924792326 -1.0888760574235974 55 27 15
0.19992364179495264 0.3054970659949563 -1.0886014660680228 52 23 11
