ply
format ascii 1.0
element vertex 679
property float x
property float y
property float z
property uchar diffuse_red
property uchar diffuse_green
property uchar diffuse_blue
end_header
-0.08494899587075509 0.08361364398280517 -0.9415371264990132 58 35 19
-0.07834841895720794 0.08744212124076481 -0.9485574497000899 60 34 19
-0.08405562506174066 0.08401731533651345 -0.9485805089372411 57 31 16
-0.08745549479265055 0.08195249348723752 -0.9499039953888248 56 30 15
-0.0888189190718167 0.08108778613792281 -0.952385969455444 60 34 16
-0.09260612540061265 0.07879513126955548 -0.9534661462528623 68 43 24
-0.09547542250216241 0.07704350130590387 -0.9550640184530409 81 62 44
-0.0987371127906466 0.07506090013389007 -0.9564241255319267 103 86 76
-0.09695701010915156 0.07604842273343768 -0.960710765716335 110 97 88
-0.09926357167779667 0.07462865388141696 -0.9626164843894769 118 108 100
-0.10251893453126729 0.072650201144103 -0.9639578643147684 122 113 108
-0.10783827644865622 0.06945639247538446 -0.9640726970129451 121 110 106
-0.11115761162460884 0.06744077402921554 -0.9653492495066721 109 98 96
-0.11297164602581274 0.06631180306144269 -0.9675062801026497 109 95 92
-0.12095448301857643 0.06155054595492334 -0.9659889533545969 113 99 96
-0.12420809727323635 0.05957440401727231 -0.9672631967472445 114 100 97
-0.12492654711392773 0.059091075512277644 -0.9700437747840809 120 106 102
-0.1269487860012164 0.05784020564973962 -0.9720398011390102 118 105 98
-0.1321709519080643 0.05470571862521196 -0.9721006103963199 115 102 95
-0.12635080906169888 0.058071593174628094 -0.9788195053325313 123 110 102
-0.1290314386993896 0.05643338584798443 -0.9804056415563528 121 110 102
-0.12819779825470246 0.05686374360505681 -0.9841217917393242 118 108 99
-0.12861480104367135 0.0565579666513387 -0.9870790021046163 124 114 106
-0.12982131587046242 0.055787569387532925 -0.9895522985507003 115 105 98
-0.13224235522512295 0.05430253999301976 -0.9912756458946054 85 75 67
-0.13658895903706572 0.051684627121239876 -0.9918031770732454 82 69 62
-0.14028966521238598 0.04944704764249119 -0.9927144220337609 72 55 45
-0.14290038340669234 0.04785100589627064 -0.994288951405595 68 44 30
-0.14480726873245234 0.04666920140623834 -0.9962928403382711 66 35 18
-0.15140731025143378 0.042726682874149505 -0.995358240215217 63 30 13
-0.15106706933011393 0.042867113095278554 -0.9987489099929262 63 29 12
-0.15254277216035195 0.04193936647572051 -1.0010005287195547 63 29 11
-0.15297720754269087 0.041624128336971586 -1.003904603504492 63 30 11
-0.14666487249893181 0.04527677590916132 -1.0110782953413413 63 31 11
-0.1481770151732785 0.044327515112571964 -1.0133112868359169 65 33 12
-0.1445618578402083 0.04639339677934874 -1.0188053306506282 70 35 12
-0.14580683432495356 0.045601207818214286 -1.0212102133304966 72 38 13
-0.14681812136398906 0.044946485644771376 -1.0237613759175737 75 41 14
-0.1528590196420129 0.04133477323157013 -1.023076064530641 77 43 16
-0.1539500787972232 0.04063344151852147 -1.0255604743454834 77 44 17
-0.151074225322436 0.0422641128753458 -1.0306086704582813 75 43 19
-0.15030055475219675 0.04265884895986279 -1.0343056227205358 73 45 23
-0.14583436604455896 0.045223862288658365 -1.0404113361809517 76 50 28
-0.15569742983092938 0.03936669538798792 -1.037178252341363 78 54 34
-0.15665501142529784 0.038743980568143474 -1.039740929095597 79 57 37
-0.14542513624479622 0.045283382689245054 -1.050310315812237 80 59 41
-0.14381463322068744 0.04616935257684603 -1.0545858588935368 79 58 41
-0.1472952002032928 0.044063744357653215 -1.0555031778843118 78 57 40
-0.15772209687071836 0.03787709284697399 -1.0518007463831356 78 57 40
-0.16080332366737474 0.03600683880173043 -1.052944405028198 76 56 39
-0.16067036581076669 0.0360250234820476 -1.0562219372025614 74 55 40
-0.16173169439936552 0.0353416093772631 -1.0587021423685345 73 54 40
-0.15785692386622593 0.0375576724819345 -1.0644935854147897 71 53 39
-0.15434935220504323 0.039557734643099286 -1.0700550613688535 67 50 38
-0.14997722392206458 0.04206526672557678 -1.0762163404401046 61 46 37
-0.16010154964445925 0.03605900020772044 -1.072575646453559 52 38 29
-0.1609528102356863 0.035498983644718374 -1.0751966065214915 45 30 24
-0.1607214078117892 0.03557474363514382 -1.078553549035968 33 20 14
-0.15678213044285033 0.03782758029376268 -1.0844477542693367 33 20 14
-0.15894332321823493 0.03649835553688662 -1.0861767176900905 36 21 15
-0.15321614569818487 0.039800413386734984 -1.093323280495975 41 27 18
-0.1516673616160727 0.040649089703415374 -1.0976127485270593 44 26 17
-0.1493374938133559 0.04195612053655822 -1.1024504522743528 49 25 15
-0.15030090839205776 0.04132988539780813 -1.1050142187680538 57 31 14
-0.15105309054520857 0.04082767414317541 -1.1077225888653282 65 37 15
-0.1488520035701491 0.0420587443642277 -1.1124906356990945 72 43 19
-0.15647898044129574 0.03752197316037617 -1.110389719262073 83 52 27
-0.15811011916420153 0.03650421351087899 -1.112468400090225 86 59 37
-0.16047784888449573 0.03505433556813288 -1.1140233127214003 85 60 40
-0.16262395285130177 0.033734647543593184 -1.1157265567121162 86 60 42
-0.14415665353238816 0.04432537299387438 -1.1417915895659188 82 59 41
-0.14442817897804397 0.04410484846948775 -1.1448571029571235 82 59 41
-0.1582838686114021 0.03591710855795124 -1.1381631347217647 82 60 44
-0.146814997067072 0.042582462894131555 -1.1496609862876341 76 57 42
-0.14679131607637924 0.04253510193803172 -1.1529373786276327 68 51 38
-0.13744252979035826 0.0479558656309266 -1.1629729709175824 61 49 36
-0.13877508541040356 0.04711284837534447 -1.1652863283080928 77 69 52
-0.14411424561299485 0.043920779222958936 -1.1646758148960064 116 110 98
-0.14236249848597957 0.04488631260276936 -1.169227230575792 154 151 147
-0.1714105597948147 0.027795733837766977 -1.151213813164015 175 173 174
-0.17814504589918076 0.023787528597643083 -1.1494819989662923 186 184 185
-0.189692158535421 0.01695885787520837 -1.1441767538319116 192 192 192
-0.1862805456833284 0.018898650808987363 -1.1498815422997528 197 197 197
-0.18931686354003946 0.017059144710053938 -1.1508228696068716 198 198 198
-0.16143609826101588 0.033338534604542315 -1.1747324996979251 200 200 200
-0.1518443639266203 0.03889830881390702 -1.1851278417729076 200 200 200
-0.1384082983414281 0.046709944137901166 -1.1984377630239902 202 202 202
-0.12632089025777005 0.053730291286669854 -1.2107941963050683 202 202 202
-0.12450783637760365 0.05473007066946347 -1.215480700482872 203 203 203
-0.19066114326748748 0.015911821896418345 -1.1689552996724109 204 204 204
-0.18679154162727202 0.01811865090929191 -1.1750730907815512 205 205 205
-0.15427524263234454 0.037105480909345116 -1.2029163153160236 205 205 205
-0.15457625629330204 0.03686767642939495 -1.2059598391496473 205 205 205
0.02990981638915584 0.17624732154754014 0.13149465094519625 184 184 184
0.03859816864917094 0.18143561147474643 0.12919949602059344 184 184 184
0.02280512918914522 0.1718493922017804 0.1249891707753657 184 184 185
0.010055047375419804 0.1641003980814035 0.12106014912448927 174 172 169
0.009752967375327437 0.16386347296888915 0.11808903003275571 131 118 112
-0.002262702632981742 0.15655877349576483 0.11427560384473295 134 110 98
0.015514478484227517 0.16723033911448493 0.11259278960138669 115 87 72
-0.003590089058178793 0.1556492993716433 0.10832227554208367 106 77 63
-0.024032449693489236 0.1432623645294313 0.10402602527627255 111 83 72
-0.026722874340098835 0.14158565731869976 0.10095348316773983 136 111 99
-0.030065539408687048 0.13951564866439267 0.09784747443245469 137 114 100
-0.03316119065394358 0.13759482427294828 0.09476680797113875 124 100 83
-0.03492031758028198 0.1364803117128391 0.0917755869388091 111 89 70
-0.03857052137762626 0.13422532155582456 0.08867886826391277 101 78 58
-0.04160119145001528 0.13234417820109634 0.0856283743860791 91 66 45
-0.044639131226329815 0.13045881873306733 0.08258654765584908 86 60 40
-0.03758150507787507 0.1346616098419079 0.0800906296143555 75 48 29
-0.04095205656740908 0.13257570246825498 0.07703266448394036 72 46 30
-0.0387481150622216 0.13385124803007695 0.07426232807909863 69 43 28
-0.0378031377026389 0.13436755039520717 0.07142270384711959 65 39 24
-0.041884494625095726 0.13185334866302698 0.06834563412860525 65 41 27
-0.042911775331928914 0.13118061437037146 0.0654175684439748 69 46 32
-0.04593237942754011 0.12930625587928027 0.0624061789031526 69 47 32
-0.044781333772740524 0.12994679296594672 0.059575800116721346 68 47 31
-0.044796764258415146 0.12988410280840004 0.05669413355403882 69 48 30
-0.044870030668406446 0.1297865295318341 0.053809066893917165 68 48 30
-0.04262260462509668 0.13108766177697354 0.051006720496964926 72 48 33
-0.04145743196396169 0.1317363679976639 0.048158208415190605 71 48 33
-0.04170376033720209 0.13153432844838026 0.04525833754366679 69 47 32
-0.04297739800507644 0.13071320049167065 0.042326252471336534 68 46 31
-0.04335981366330132 0.13042917268992746 0.0394233101105622 68 45 30
-0.043880266034126564 0.13006197025893873 0.036516609622363916 67 44 27
-0.04387755845627959 0.13000999577782013 0.03362391600243112 67 44 26
-0.04409526625945656 0.1298251981187859 0.03072463221459467 67 44 26
-0.044259728389465874 0.12967246930457077 0.0278260118157791 68 45 27
-0.04455504647234655 0.1294408954705853 0.024923980485026025 69 46 29
-0.04511155912257438 0.1290519730809875 0.02201674729820588 69 46 29
-0.04444912655571941 0.1293973167857389 0.019131113754868593 69 46 29
-0.04516626862152434 0.1289116261773084 0.016220572750216537 67 44 29
-0.04521840586006426 0.12882649320329734 0.013320368625276184 66 43 29
-0.04529077937951764 0.1287291520896502 0.010418821402013778 69 47 33
-0.05043586790359772 0.12557679557717327 0.007463963529841201 72 50 36
-0.050549629987479125 0.12545465380051013 0.004568747178246066 74 52 38
-0.04834193950914619 0.12673042082380673 0.0016885621613805758 72 50 36
-0.04803491074851876 0.12686154905753147 -0.0012102735372028243 73 51 37
-0.04305533422687991 0.1298060354530358 -0.004095547766784632 74 52 38
-0.04541103266878496 0.12833374998444264 -0.007011602674093552 75 53 39
-0.04566611746348453 0.1281262637339519 -0.009920911698760563 75 53 39
-0.045921253858244 0.12791873893649475 -0.012830624433210503 75 54 38
-0.04560402987131129 0.12805575891505303 -0.015742750816760763 75 53 39
-0.045891539898409425 0.12782871339093915 -0.01865409243839324 74 52 38
-0.046130520453830336 0.127630873333451 -0.021566065236011164 75 53 39
-0.0461097329936294 0.127589376129992 -0.02448076052479594 75 52 39
-0.04609521334066413 0.12754408137265005 -0.027396752085199545 74 50 37
-0.046080864804283785 0.12749865878550984 -0.03031408243163318 70 46 34
-0.04797728996956827 0.1263033226651829 -0.033206181635325134 69 46 35
-0.04814112080600169 0.1261506905723801 -0.03612009254357557 71 47 37
-0.04850565807110459 0.12587727443484104 -0.03903123846367236 68 44 34
-0.04502676920310221 0.12791643069566025 -0.042015875876390676 64 40 30
-0.04431609399924024 0.12828980590953173 -0.044956172616052247 60 36 26
-0.04519242116043502 0.1277083210723714 -0.04786438563068994 60 39 29
-0.04395466213569786 0.12839870088163619 -0.05082228310567062 38 24 16
-0.04257103402254611 0.12917672682270287 -0.05378958839630366 16 5 5
-0.03996455932155137 0.13069022387790466 -0.056797017560400086 18 9 8
-0.043294524124834026 0.12863274673825237 -0.059639396985816745 56 45 43
-0.046283541415725 0.12678053012548265 -0.06248214792853268 66 55 53
-0.049291893614368934 0.12491685370409228 -0.06531514385683627 68 58 57
-0.05070533607850873 0.12401253486895998 -0.06819442108739633 67 56 55
-0.05722213636753879 0.120039261463599 -0.07088366921254148 62 49 44
-0.05933946666805236 0.11871196589574678 -0.07371983711818228 78 64 60
-0.06317917736591319 0.11634910161173348 -0.07648098444143298 101 89 85
-0.06540917869937535 0.11495434149543322 -0.07929723794615116 97 86 81
-0.06792418449175645 0.1133883447500027 -0.08209458945827752 73 59 51
-0.07089182440636804 0.11155035832614972 -0.08486395309911045 47 30 19
-0.06527413795078782 0.1148738564547236 -0.08802780235877593 40 23 15
-0.06448899341073613 0.11529190137455345 -0.09097697877541347 33 17 9
-0.07321225137491602 0.10999423828520603 -0.09344994576706286 27 12 4
-0.06979660535465008 0.11199358756756382 -0.09652802804253603 38 22 16
-0.0630117875505375 0.11601772841982573 -0.0998013463350212 75 61 56
-0.07577064181034658 0.108295335018717 -0.10200989276737944 74 58 53
-0.08379567374829816 0.10341869834679289 -0.10444726988316587 69 49 43
-0.09190957777658047 0.09848915179741802 -0.1068525087587935 77 59 51
-0.09539440084544336 0.09634181182212116 -0.10951305443730955 85 69 63
-0.10474289936088274 0.09067127200911904 -0.11179448966674024 91 75 69
-0.09929767111146648 0.09389018508021525 -0.11499916850028863 85 67 61
-0.10296043023716914 0.09163644715600568 -0.11762040528540679 136 121 116
-0.10887490163516847 0.08803012099806863 -0.12007678953394386 99 86 82
-0.1141430261571771 0.08481245368760774 -0.12255876419088478 134 119 112
-0.10941656718557366 0.08759908749231923 -0.12573885202318283 69 48 35
-0.11028698511016422 0.08702339659556586 -0.12852638713883716 59 33 19
-0.11322467052807006 0.08520601776568625 -0.13115687596898754 43 17 5
-0.11405361467651381 0.08465537112840274 -0.1339403650480035 37 14 5
-0.11940869802624512 0.08138638815691387 -0.13636633139377807 35 15 5
-0.11767410094721467 0.08237551153079387 -0.13934461252676622 32 15 6
-0.11652250931194508 0.08301438716783359 -0.14228238726659392 33 13 7
-0.11918393367297647 0.08136346777348949 -0.14490551021585676 38 18 8
-0.11787488077521968 0.08209681988848921 -0.14786071828192957 42 26 17
-0.11343089735066454 0.08471236682119786 -0.15109598388640508 42 31 25
-0.10953430914147994 0.08699894480728675 -0.15429939581795146 43 34 29
-0.10850440223763344 0.08756419217382418 -0.15725702869496416 44 35 30
-0.10598729071707409 0.08902216323517069 -0.1603575396566865 45 36 31
-0.11399347460514897 0.08416283061855273 -0.1624734780518139 47 38 33
-0.11608386371606313 0.0828550462216587 -0.16513203944220586 47 38 33
-0.09737054091782771 0.09403443927906693 -0.16982475490681603 46 37 32
-0.09524249377574927 0.09525810262666518 -0.17292912687747092 46 35 31
-0.11210264001193938 0.08508551923331581 -0.17411277691846833 46 35 31
-0.10926620264999075 0.08673460804700456 -0.1772743926780364 47 36 32
-0.10484946200877472 0.08933182804174787 -0.18061356097063386 47 36 32
-0.10531939992801537 0.08899639356634559 -0.18344710114060866 48 37 33
-0.10408483324507481 0.08968372880810108 -0.186465579100706 49 38 34
-0.08415102964722908 0.10159054273594705 -0.19155597670254945 49 38 34
-0.08644081498694468 0.10016254819130482 -0.19422337034207315 49 38 34
-0.07467999346724644 0.10716414963924754 -0.19848648177321346 49 38 34
-0.07928904844522768 0.1040176786285499 -0.21853879824571745 45 35 30
-0.10308251430043829 0.08969482859889305 -0.2184306870264374 44 35 30
-0.0859577741970047 0.0999096788596339 -0.22356249120503388 43 34 29
-0.08182575519063129 0.1023328595016153 -0.22704319103853943 42 33 28
-0.0687608548497318 0.10967079240974142 -0.2555245551116624 43 32 28
-0.053589950181770395 0.11870709941437922 -0.26077706777624426 42 31 25
-0.03914620839295606 0.12730662626687733 -0.2659751756013646 42 31 24
-0.026072862166902508 0.13508401520284452 -0.27101632622386174 39 29 22
-0.06100976894595821 0.11409401457230404 -0.2686548721120232 36 25 19
-0.07116566763652166 0.10795362577819329 -0.2700596044385532 36 25 19
-0.06385593391627567 0.11227767684938117 -0.27420256427804335 37 26 21
-0.057480118405550215 0.11604172930259206 -0.2782232030377204 34 23 18
-0.04836089290215464 0.12144874505170239 -0.2827136691011472 32 21 17
-0.05629776338557436 0.11663840278391058 -0.28443782013886354 33 22 18
-0.0653117487708641 0.11118340180787756 -0.28595592767734035 33 22 18
-0.06835047151848062 0.10930780401043402 -0.28844554219488894 32 21 17
-0.05432949796418845 0.1176495546785378 -0.2938189569091432 32 21 17
-0.06192587108681794 0.1130442866097438 -0.2955389095153398 30 19 16
-0.06305737060082733 0.11231092668963197 -0.2983526105779939 25 15 13
-0.06641067086017485 0.11024718848908137 -0.300774719254151 31 20 17
-0.0693945778576893 0.10840483243631227 -0.30325138637720667 38 25 21
-0.07178617566243697 0.106917290120255 -0.30582442950482186 45 30 24
-0.07538625225473353 0.10470635946968843 -0.3081721109182213 64 47 39
-0.07624522970522835 0.10413666583232144 -0.31100769932566463 43 23 14
-0.0704675245365961 0.10753998142268326 -0.3150631229218958 43 20 11
-0.07095720383862528 0.10719119401421083 -0.3179758619368268 41 21 13
-0.07215718413335112 0.10641724816789641 -0.3207548687437424 41 21 13
-0.07063154361240193 0.1072747459232259 -0.32404739834577195 42 22 14
-0.06921074907902444 0.10806936511688697 -0.3273267633574583 46 26 17
-0.07299312169063399 0.10574991910286444 -0.3296077493529303 52 34 25
-0.0665258928019428 0.10956444629417536 -0.33387449839508904 42 28 23
-0.062049469289718745 0.11218720768651584 -0.33777438408604255 19 9 7
-0.060969476276394374 0.1127773202010795 -0.3410174403826329 19 9 7
-0.057772141099004415 0.11463421717229375 -0.34469010890979845 28 19 15
-0.0553098918310882 0.11605106934510287 -0.3482271351460442 24 15 11
-0.04105011933843791 0.12452582080739555 -0.3541816337307764 21 13 10
-0.047526460434727316 0.1205945128837391 -0.35592074395591405 19 11 8
-0.0617071208870388 0.11205488178033574 -0.3560376329783505 19 11 8
-0.06317611956007585 0.11111988702102327 -0.35876734022438256 20 12 9
-0.03472665769602308 0.12808020961113448 -0.36781555659390386 18 11 8
-0.041117197069205205 0.12420077748136882 -0.3695428554839637 18 10 8
-0.047440688235475786 0.12036185076988891 -0.3712626505874376 29 17 13
-0.05135202653824504 0.11796587152694746 -0.3734837073059454 42 25 17
-0.05407974460262846 0.11627793438607512 -0.37595063975293685 41 23 15
-0.058022748875509185 0.11386345790002818 -0.378141085610207 36 18 11
-0.058099080670664174 0.11376122546245301 -0.3811779866239158 34 17 10
-0.06325019646079535 0.11062477462795728 -0.38307869920561755 31 14 8
-0.058260501058844436 0.11355146355528464 -0.3872531378937658 31 15 8
-0.06050091054078454 0.11215542105629163 -0.38980044556831406 51 33 26
-0.06559352469675067 0.10905447060858782 -0.3916860761713944 52 34 26
-0.06961274946685156 0.10659547075955882 -0.3938028521270956 49 27 18
-0.07328543584067274 0.10434385369399937 -0.39598711593189967 47 24 14
-0.07607302631733376 0.1026214764596417 -0.3983673782900703 45 20 11
-0.07546718144555212 0.1029273813303301 -0.40154280792311736 44 20 10
-0.08270053273312719 0.09854831757026222 -0.4028500983191468 47 20 11
-0.08747072284990662 0.09564168403927262 -0.4047248520175009 53 24 16
-0.09642043530803626 0.09023784604227993 -0.40557017052181393 78 52 43
-0.09765329963234365 0.08944558765957497 -0.40826902580380503 85 67 57
-0.09967922041939514 0.08817954537528554 -0.41076952980335585 123 106 95
-0.09980397247271028 0.0880494786305003 -0.413735355214859 71 42 21
-0.10444130549907284 0.08522348493655656 -0.41557485772211455 64 34 12
-0.09563035225833721 0.0904316106297342 -0.4207827571068079 61 30 13
-0.10624130466540697 0.08403738303522534 -0.4211014060499072 62 33 16
-0.10725782535668459 0.08337478613852656 -0.42383200128788623 61 33 16
-0.11122541369657137 0.08094960699863896 -0.4258012947310767 57 29 11
-0.10726542507685609 0.08325942019047611 -0.4298106525940765 56 28 11
-0.10354722546679881 0.0854245370360748 -0.43377291647168753 61 36 20
-0.10166530060289293 0.08649278441727598 -0.4372678807854926 65 44 29
-0.09806356450225764 0.08858785852361288 -0.4412261457756562 66 46 32
-0.09416018235147185 0.09086277734826492 -0.4452794541988794 64 41 29
-0.08761262465469022 0.09471618483072955 -0.4500578672570708 60 36 24
-0.08429170739551986 0.09664266926260842 -0.45399037665888803 53 32 22
-0.06904315303953529 0.10568982378022301 -0.461180260450119 42 22 13
-0.05505325115404561 0.11398452076449078 -0.46808337948386347 42 23 15
-0.04525428115172793 0.11977648898195203 -0.47388449245605735 41 21 14
-0.021469047524802762 0.13391626280816538 -0.4836045917028939 40 21 13
-0.04110451050178121 0.12213773057801719 -0.48128437218213815 38 19 10
-0.03828792495627828 0.12376077313398814 -0.48520657586327864 38 19 10
-0.037530781276535766 0.12415451159831785 -0.48855770201900456 38 19 10
-0.039930372178967666 0.12266432707005469 -0.4910136425392458 39 19 10
-0.0436633494883526 0.12037860204678844 -0.49307971572827886 41 21 12
-0.047698819561001554 0.11791260971279381 -0.4950460414206021 42 22 13
-0.022183663639744805 0.13307874121615543 -0.505583248488656 43 21 14
-0.026092950237744897 0.13068751859831748 -0.5076142781330863 43 21 14
-0.016331463103060426 0.13645249053059783 -0.5136544350284807 43 21 14
-0.010619011035402831 0.13980125679763727 -0.5185335422118379 42 22 13
-0.013929016550271983 0.13776744701460414 -0.5207471993071678 41 21 12
-0.01289493791606515 0.13832505936061007 -0.5242523793530405 41 21 12
-0.013163302338480329 0.1381057184252314 -0.5273699707849859 40 20 11
-0.024963396982903147 0.13065469265110577 -0.5460834590685559 43 21 10
-0.02439018333052502 0.13093736053505806 -0.549452691513227 43 20 9
-0.025180315062416248 0.13040720588132085 -0.5523913272966691 44 20 10
-0.025390612114065153 0.13022272602768653 -0.5555142272472983 46 22 12
-0.024381759484232615 0.13076494256552051 -0.5590306584287812 48 24 13
-0.023102231531406003 0.13146839615664904 -0.5626400685175043 48 24 12
-0.01989706930972579 0.13331942906635957 -0.5668834735573636 47 23 11
-0.02210951961988708 0.13194145393438056 -0.5693641604819125 45 21 9
-0.022962294288968912 0.1313738898103253 -0.5722863534097246 46 22 10
-0.026413438403505143 0.12925797706351877 -0.574345161312215 46 22 10
-0.0131623419297493 0.136915290038069 -0.591640921537368 48 24 12
-0.016365505369717592 0.13494722950404117 -0.5937776811149498 48 24 12
-0.023721340087856688 0.13050563694826284 -0.5944799137861582 48 23 11
-0.02789372896035605 0.1279607839519793 -0.596253520201497 48 22 11
-0.03103002611235889 0.12603331786228594 -0.5983720615107667 49 22 10
-0.0457830448163359 0.11718723097077874 -0.596431188875101 49 21 10
-0.044406633619934424 0.11794812451942893 -0.6000885503517703 49 21 10
-0.043787754114492594 0.11825776868112994 -0.6034856735336377 49 21 9
-0.04257012217521064 0.11892389093760655 -0.6070986909058376 49 21 9
-0.041920260639101425 0.1192518213175903 -0.6105155922593528 50 22 9
-0.024098006253591847 0.12980439368895125 -0.6200840794612545 52 23 10
-0.024029133822755677 0.12978566691451238 -0.6233322221502976 55 27 11
-0.02610937933596562 0.12848743946856878 -0.625804609323315 60 32 16
-0.026443078994425856 0.12822906769678966 -0.6289057831470197 68 37 19
-0.03347329141927216 0.12398442118086121 -0.6295591693674356 65 34 16
-0.02847736685449316 0.1268986841522887 -0.6346065345450101 63 32 13
-0.03133561888884033 0.12513772067778495 -0.6367733417548745 64 33 14
-0.031557149715471314 0.12494622836292876 -0.6399096877105903 63 32 13
-0.031798503316016996 0.12474292678218968 -0.6430392864452696 63 32 13
-0.032504384576388226 0.12426317418985075 -0.6459952405098435 63 32 13
-0.031078412923580045 0.12505203405001614 -0.6497535977856951 64 33 13
-0.02986024941392855 0.12571711388363935 -0.6534401380595019 66 35 15
-0.0276956263584755 0.1269452182307755 -0.6574931637018514 63 32 12
-0.026503037397342027 0.12759482182257914 -0.6611839718324547 58 27 8
-0.026599631061384105 0.12747734812764477 -0.6643850624395586 56 24 7
-0.028173347775435342 0.12648112987097113 -0.6670164487647843 56 24 9
-0.029686214388386215 0.1255211917067714 -0.6696669761815643 56 24 10
-0.03173052667033449 0.12424521910183588 -0.6721058388643651 55 26 10
-0.03427380697283161 0.12267258556075467 -0.6743427319058046 54 25 8
-0.03353893630774715 0.12304977531022768 -0.6778632630929198 55 26 9
-0.036480662251882456 0.12124036943535212 -0.6799322312670969 55 26 10
-0.03748920996291508 0.1205807596033747 -0.6827606660541075 55 26 11
-0.03696089350710072 0.12083507606667995 -0.6862011880523817 54 25 10
-0.03842784969414795 0.11990292667589973 -0.6888437069176454 53 24 10
-0.038048633620412456 0.12006853267665107 -0.6922272754717558 52 23 9
-0.038663490402787576 0.11964307294159184 -0.6952106656579201 51 22 8
-0.03783727059032799 0.12007434823606097 -0.698780368377628 53 24 10
-0.03284341749968661 0.12298304507698916 -0.7040608021364695 53 24 10
-0.0357972227765391 0.12116704473371699 -0.7060931888207683 54 25 9
-0.03684461521311254 0.12048438462086636 -0.7089034820442686 54 25 9
-0.03809893690455987 0.11967878098080166 -0.7116253717717338 54 25 9
-0.040683752622823866 0.11808249665705299 -0.713789111292767 53 24 9
-0.041913991889057756 0.11729137455321946 -0.7165119337888861 52 23 9
-0.040698035220251894 0.1179539660809679 -0.7202610543887206 54 25 10
-0.043697858285360935 0.11593132591708596 -0.73194939995661 52 23 9
-0.04393704328691583 0.11572916451092953 -0.7350879258928301 52 23 9
-0.04691506890893837 0.11390001912427217 -0.7370427770553521 52 23 9
-0.0474904395635819 0.11349823876930368 -0.7400311987315407 51 23 9
-0.05141078623300312 0.11110967029681526 -0.7415596733334018 51 22 8
-0.05585719100034427 0.1084089121384844 -0.7428440420206528 51 23 9
-0.05624183601143512 0.10812069976937173 -0.7459003696212129 51 23 9
-0.05652467293771432 0.10789294659682586 -0.7490017216840748 51 23 9
-0.0565965478297574 0.10779045980047923 -0.7521971480234948 51 23 9
-0.05494877330803158 0.10870905570283951 -0.7561605857018182 52 24 10
-0.050005984349289975 0.11158392450445755 -0.7616074907934175 51 23 9
-0.047649069709281164 0.11292313784841204 -0.7659119936210476 52 24 10
-0.04874451095826664 0.11221256102980458 -0.7686677255698585 52 24 10
-0.0498843968608266 0.11147565029952657 -0.7714005776719347 51 23 9
-0.059166038562260354 0.10590578297106137 -0.7704214621825762 50 22 8
-0.06131659667288482 0.1045693649252803 -0.772670381333451 51 23 9
-0.06328795086227744 0.10333943724824467 -0.7749948134073743 52 24 10
-0.06508843029331819 0.10221103736058015 -0.777391952720345 52 24 10
-0.08795149429752294 0.0875168864137041 -0.8275481545804866 53 24 10
-0.09056146428629756 0.08591026821209005 -0.8294523160241258 53 24 10
-0.09063226524222646 0.08580888358261396 -0.8326231563651192 54 25 10
-0.09038160225565942 0.0858980096677471 -0.8359573236559544 56 27 10
-0.0889616629019488 0.08668008395343246 -0.8398858727841798 58 28 11
-0.09407977747360158 0.08358735981865192 -0.8404991056002765 61 30 12
-0.09449451372362364 0.08328218646407992 -0.8434930814664823 64 32 12
-0.09727818729308774 0.08157327680185208 -0.8452738411777708 67 35 15
-0.09853899657765847 0.08076687537354697 -0.8478280085879818 70 38 18
-0.09628567319799701 0.08204261798504969 -0.8521920669883903 71 40 19
-0.09745549478888138 0.08129012205400382 -0.8547933787677986 70 42 22
-0.09833264606505007 0.08071106556819073 -0.8575437748424699 69 41 23
-0.10063930776548524 0.07928523393151776 -0.8595461583716398 69 44 28
-0.10129891053232555 0.07883516453550853 -0.862403832146991 72 51 36
-0.10311813268897688 0.07769826638543845 -0.864650640141228 73 53 39
-0.10331688008125378 0.07752122990469962 -0.8677471032505351 75 53 39
-0.09836134624559782 0.0803967125019869 -0.8735749508970067 72 52 38
-0.088970370161048 0.08589845583219442 -0.8817824172542615 65 46 35
-0.09180164189935375 0.08416196610999248 -0.8835050899349165 63 44 36
-0.09432432922368204 0.08260837499997514 -0.885383425862503 63 44 37
-0.09543657406399003 0.08189004375018462 -0.8880116867690783 61 42 34
-0.0919730580336807 0.08388084318970832 -0.89310638587002 55 37 27
-0.09247088485965674 0.08352619423457788 -0.8960707318941484 52 34 22
-0.09742335326162098 0.08053451082766708 -0.8966130851967095 49 31 19
-0.09687757783119416 0.08079779107716736 -0.9001371097264708 47 26 16
-0.09318418964126408 0.08292408467758644 -0.905388321860516 45 26 15
-0.09228576373166426 0.08339583479157288 -0.9091197454309502 45 27 14
-0.09144031104601363 0.08383613945046273 -0.9128270435997752 56 37 25
-0.09192551827033327 0.08348887843364244 -0.9158027053199517 63 45 30
-0.09308956284710955 0.08273991838290454 -0.9184008964077717 64 45 30
-0.09261773929512691 0.08295899045983762 -0.9219079468344286 64 43 29
-0.08939133969576325 0.08480783437341705 -0.9269594537953211 63 42 28
-0.0819474362177884 0.08915168134594648 -0.9343931644648205 58 38 23
-0.07401944878280804 0.09378134027323566 -0.9421307297277909 55 33 19
-0.07442662800595713 0.09347953302408936 -0.9451885769528168 57 35 20
-0.09176868006637617 0.08316014935268082 -0.9386375728942238 58 35 20
-0.08385072334068501 0.08778327468789476 -0.9464018287840565 59 34 19
-0.09815460933790551 0.07926241831745634 -0.9415021222350675 57 31 16
-0.09921246873270682 0.07857661748946049 -0.9441418411993169 57 31 15
-0.0954872574068427 0.08071951640599628 -0.9495308654230601 59 33 16
-0.09656006224195846 0.0800248000911446 -0.9521661370454234 69 44 25
-0.09909353399438148 0.0784664215718201 -0.9539524459855376 74 56 37
-0.1020990698538327 0.07662908103130264 -0.955455763493172 92 75 65
-0.10044930996870176 0.07754433166410768 -0.9596642257908656 109 96 87
-0.10200813877845964 0.07656250408697407 -0.962002729320459 124 114 106
-0.10669015087243294 0.07373444327831585 -0.9625022135184308 128 118 111
-0.11359882900957267 0.06959045366532973 -0.9616722927677825 117 107 101
-0.11466625968969445 0.06889966205333789 -0.964270373061178 110 98 94
-0.11761954050528142 0.0670942801160968 -0.9657467918951511 113 100 96
-0.12743306914493557 0.06123455993137997 -0.9631288239993665 118 105 100
-0.12518978422931076 0.06250088411044205 -0.9676749973275721 118 105 100
-0.12414060848115581 0.06306136228791995 -0.9715160133161906 129 116 110
-0.12205675988512175 0.06423312909400912 -0.9759849515592842 122 109 101
-0.12256636526117587 0.06387232029568213 -0.978899034225169 116 103 95
-0.12358969247029492 0.06320799759158621 -0.9815016248928827 125 112 105
-0.12494459726519175 0.062347828209544494 -0.9839002565108164 116 105 97
-0.12660138515785055 0.061309391446167635 -0.9861110246029451 126 116 108
-0.12779230694291538 0.0605462462740479 -0.9886014883073838 118 108 100
-0.13078099980343316 0.05872124809508848 -0.9899859761262138 119 109 102
-0.1359741645952992 0.05559438168743572 -0.9900033593490614 85 75 67
-0.1366837207656331 0.05511593247502213 -0.9927695851585951 79 65 59
-0.14093146775328225 0.05254795347663216 -0.993342861720061 72 54 45
-0.14430200056676523 0.050498288066601775 -0.9944456883987902 69 45 31
-0.15196912609320556 0.04591172191321243 -0.9928577618211639 66 35 19
-0.15061653614178047 0.04665147630358252 -0.9968819449058084 62 30 13
-0.15237817119265812 0.04555239436469795 -0.9989589889168211 63 30 13
-0.15337297028745117 0.044906144185615254 -1.0015131647241464 64 30 12
-0.15353726668888296 0.04475022527276246 -1.0045893185023966 66 33 14
-0.15150766551132364 0.04588936983236014 -1.0090562382010129 66 33 13
-0.15454761221635516 0.044035920066449845 -1.010310901341471 65 33 12
-0.15355412997785087 0.04456334050571638 -1.0141264177688958 68 34 12
-0.1457001570169286 0.049139702491467 -1.0223354375636422 71 37 13
-0.14631921114338275 0.048715005910236565 -1.0251412787829866 74 40 15
-0.15502936489544367 0.04351558783416655 -1.022738335057721 77 42 16
-0.15386832836197534 0.044141635704800786 -1.0266751946409822 78 43 17
-0.1533480955099674 0.04438946359521226 -1.030203236899114 79 46 23
-0.1539630644523856 0.043967443906806195 -1.0329973459971038 78 49 27
-0.15308778288427413 0.04442464851746134 -1.0367617658609931 81 55 34
-0.1447841502562493 0.04926400040720175 -1.0453877970171772 81 58 38
-0.16130779018200458 0.03945716561062486 -1.0377670226070235 80 57 39
-0.14917767526096087 0.046553231580156305 -1.0489303745000684 79 58 40
-0.14793149163175912 0.047228776841394045 -1.0529625018191906 79 57 40
-0.1463627262578784 0.04809445325468289 -1.057214754631751 77 56 39
-0.15115329560918678 0.045209588514481404 -1.0572526910750903 77 57 41
-0.16396707525855714 0.0375937001944138 -1.051929387275289 76 56 40
-0.16209721365035717 0.0386372661063256 -1.0563643312967175 74 55 40
-0.16145746770005762 0.03895534556537916 -1.059984180604416 73 55 40
-0.15900514234524132 0.04034203677123306 -1.0648263842967784 73 55 40
-0.15573241486305156 0.04221218856023346 -1.0702331776592409 69 51 39
-0.16664266706941244 0.0357209171558793 -1.066064778517824 63 48 38
-0.16673430354271407 0.03560782142453732 -1.0691906715868649 52 39 30
-0.16796924043706501 0.034820792520068776 -1.0715399904149612 44 31 24
-0.1634167311679302 0.03744498584572351 -1.077834535216894 33 19 15
-0.1620515317724605 0.03819030618672169 -1.0819680249227448 32 19 15
-0.16160406538421207 0.03839464650346779 -1.085478719643263 38 22 17
-0.15594573583238192 0.04166964747575417 -1.0925800913792618 41 26 17
-0.15657130225788168 0.041241375563129234 -1.0953672937207457 45 27 18
-0.1545784055376979 0.04235596472070138 -1.0999668281872739 52 28 17
-0.15299036833656396 0.04323183922128884 -1.1042948735760194 62 35 17
-0.14916882628838465 0.045423413107322744 -1.1101868883784225 68 39 18
-0.1614681758817394 0.038117805695037144 -1.1048329143686262 75 44 20
-0.16429234318965233 0.036394600579632744 -1.106069516514398 84 52 29
-0.1672439236120148 0.03459653189320798 -1.107206529987077 85 58 36
-0.16344081516828157 0.03677709434869216 -1.1130938759202262 85 60 39
-0.16476201753294878 0.035939372709578504 -1.1153760974319171 85 61 42
-0.14008541890155832 0.05023042621771963 -1.1458919441780104 83 60 42
-0.16071076197041118 0.038026416629041083 -1.1343720263908195 82 59 41
-0.1594554605719391 0.03870556422998859 -1.1385059836003126 81 58 42
-0.14795932951029356 0.04541319492004548 -1.1500333395467248 77 57 42
-0.14678116346025544 0.04604629601149816 -1.1541460988812942 66 49 36
-0.14560081619337029 0.04668056169853116 -1.15826687751195 60 48 35
-0.141013796510224 0.0493197690175491 -1.1648724141495301 77 69 53
-0.1419267236136323 0.04872170923974186 -1.1674859834292444 116 110 99
-0.14357088732253817 0.047693362944507614 -1.1695623779655713 154 151 147
-0.17426953593027267 0.029567887375948662 -1.1503166875433843 175 174 174
-0.18285761306180948 0.024454941171483554 -1.147213531288758 186 184 185
-0.11946188558635942 0.061696257679105526 -1.1971877816252008 192 191 191
-0.11973816630391604 0.06147196268956709 -1.2003155208800278 196 195 195
-0.12025142513409752 0.06110824469865313 -1.2032678977545186 198 198 198
-0.15061326316362172 0.04318574896117111 -1.1840112494735253 200 200 200
-0.14883673065833347 0.04417010644098789 -1.1886091448789942 201 201 201
-0.13421595809141385 0.052709089986803584 -1.2028258939227088 202 202 202
-0.12701452926476745 0.0568832565137519 -1.2115384657943498 201 201 201
-0.12398226499874665 0.05860491895133911 -1.2171459225929728 202 202 202
-0.20529032644444134 0.010728322717927013 -1.1591397946286137 204 204 204
-0.20609886110117664 0.010194197230145554 -1.161694822664929 205 205 205
-0.20833700426252955 0.008819506243162984 -1.1631635567659284 205 205 205
-0.14344717301555737 0.04691313042371572 -1.2156858223574134 206 206 206
-0.13274866116075185 0.053141799275620426 -1.227146009024859 206 206 206
0.023253518977808196 0.17577783072784603 0.1310503800906091 184 184 184
0.048492842700546726 0.1910068154255341 0.1300670830799818 184 184 184
0.05214446464871361 0.19316281207371588 0.1273341378119294 183 183 183
0.0487227417793963 0.1910358518687192 0.12405467671561364 173 171 168
0.029653949827335165 0.17943571580534068 0.11963344542206683 133 121 115
0.011957750969051606 0.16866771924309157 0.1153743893475399 136 112 101
0.012388660796569861 0.16887455172415483 0.11244723704965817 117 88 71
0.007351671037766121 0.16577135696051304 0.10914260231521583 110 80 64
-0.025000098698876476 0.14613437902765494 0.10402833815075013 113 85 71
-0.02324044057341708 0.1471465201755972 0.10124450943275429 132 108 94
-0.02816138122308857 0.14411507092752093 0.0980296865561225 132 108 92
-0.03675041956481433 0.13886388864585822 0.09460393592927777 115 89 69
-0.0374173852125452 0.1384075892951073 0.09168166875047076 104 82 59
-0.03801394961008693 0.13799391240996225 0.08876451511992543 97 72 51
-0.03990843415178811 0.13679484008889808 0.08577465223021827 82 57 37
-0.03180539947283324 0.1416453427300899 0.08333891254133345 74 49 30
-0.03370875238881639 0.14044078271239754 0.08034191452633951 71 45 28
-0.03626776399866191 0.13883962123311971 0.07731638143117492 71 45 28
-0.03590666680009941 0.1390052753149005 0.07444369441495666 73 47 31
-0.03732635638918249 0.13809355513176041 0.07148288973763478 70 44 29
-0.04083073991842387 0.13592078127357649 0.0684290072573168 69 45 31
-0.04309789332383605 0.13449661709730945 0.06544108970710481 69 46 32
-0.045169088311778696 0.13319110270645942 0.06246807590396835 68 45 31
-0.044692255345807494 0.1334268650957724 0.05960594791657674 69 46 32
-0.04597311673658638 0.1325994909966502 0.05667145269811649 70 47 31
-0.04319376087340353 0.1342277353466104 0.053893584743678176 70 47 31
-0.039323100238716005 0.1365157538228013 0.05114430928677814 71 48 32
-0.038360312912740765 0.13704504840840903 0.04828051728089147 70 47 32
-0.036402195391838664 0.13817612728680836 0.04544465700608801 69 46 32
-0.04144985132590542 0.13507094630469701 0.042383988056594026 68 46 32
-0.03423408431446744 0.1393808800564327 0.03969783655649038 67 45 31
-0.03974280010575881 0.13599714530040108 0.03663553532506451 66 43 27
-0.04186644610652547 0.13466023193927878 0.03367819913135578 63 40 24
-0.04227103000791149 0.13436266152390158 0.03076827129888243 62 39 23
-0.042553735340271966 0.13413876917739187 0.027861180697685516 66 42 27
-0.04352896313738837 0.1334962608089109 0.024939493949629316 71 48 32
-0.04149377900076917 0.13467340534381347 0.0220768186583215 71 48 32
-0.042151010202639554 0.1342230782062202 0.019159569814398383 69 46 30
-0.042162474176010156 0.13416305624100192 0.016253291136729707 67 44 30
-0.04271877593439011 0.13377374097679906 0.013338281068347002 66 43 29
-0.04277079877659494 0.1336891804065994 0.010429966483882655 66 43 29
-0.050371634955609756 0.12904297971632808 0.007442845953309865 69 46 32
-0.049644484393939314 0.12942943352498038 0.004552026213482963 68 46 32
-0.03778772739644523 0.13654054845007313 0.0017335428062285182 66 44 30
-0.0440906893078926 0.13267899997381868 -0.0012200322621773894 66 44 30
-0.04028120267519615 0.13492733073939514 -0.004118889407471123 65 42 29
-0.04315639129719581 0.13313701630627958 -0.007043271185560307 62 40 28
-0.043471120470476125 0.1328936172533122 -0.009959188697646355 65 43 30
-0.044047239535648444 0.13249231883216006 -0.012874834853148092 68 47 31
-0.04408888145513617 0.13241387370942415 -0.01579166718022276 68 46 32
-0.044435184552625503 0.13215139267161313 -0.01870804092574758 68 46 32
-0.04417012704081953 0.13225815163188892 -0.021628787332823515 67 45 31
-0.04380946550771951 0.13242260883864002 -0.024552580567457325 68 46 32
-0.04379513079208372 0.13237787150799388 -0.027475292219754244 68 45 31
-0.04387701791063073 0.13227500394363784 -0.030398173834306264 68 45 31
-0.04383690911283721 0.1322457839520826 -0.03332376759062216 68 44 32
-0.045787777050342926 0.13101436896289878 -0.03621958045555762 70 46 36
-0.0488099833419772 0.12913620489262112 -0.039091251728526163 73 49 39
-0.04348565407126507 0.13229738855533713 -0.04211359033596791 71 47 37
-0.045142299721396155 0.13124370303176913 -0.04500988191777439 65 41 30
-0.045433720122061635 0.13101426027567167 -0.04793260942194318 63 41 29
-0.04276150632877115 0.1325738091335609 -0.05092786019952143 51 33 24
-0.04186983167054228 0.13305839897156718 -0.05388721740509414 25 9 7
-0.039672732895103556 0.13433084399563203 -0.056887352183288886 37 21 19
-0.04591994670689644 0.1305065250386662 -0.05964648591788843 59 42 38
-0.04896988983757626 0.12861220449339886 -0.06248535900673483 62 47 44
-0.05160603672143099 0.1269677766396152 -0.06532858635459388 57 46 45
-0.05229535751890062 0.12649832199891986 -0.06823173195552489 78 68 66
-0.0567353372261853 0.12376563996816284 -0.07099656659507488 69 57 52
-0.05972746545327988 0.121906843556958 -0.0738026836787499 83 69 65
-0.0636603125325302 0.11948061971388164 -0.0765619405021975 107 93 88
-0.0668894829354191 0.11747917329992258 -0.07933817249525904 95 81 78
-0.07215033790327136 0.1142521965171353 -0.08201587425685336 70 53 47
-0.07807936138985715 0.11062244852389994 -0.08464617230059622 53 35 25
-0.11287965671995677 0.08957689565657088 -0.08589789931506346 39 22 14
-0.06506178667366963 0.11836906865095605 -0.0910629208781201 35 18 11
-0.07085915285798398 0.11481900402390036 -0.09368501685899752 29 14 7
-0.07110376828866674 0.11461836713405388 -0.09657866779828515 38 21 17
-0.07134443691471855 0.11442010261662341 -0.09947296858722907 79 64 61
-0.07299228897960287 0.11337319297187717 -0.10228914262036325 69 53 50
-0.09344778212658043 0.10098455382352378 -0.10401758987473411 75 56 49
-0.08991338178199099 0.10306336519445684 -0.10709932671952778 87 70 63
-0.09477928412649758 0.10007672384750221 -0.10968143090752547 88 71 64
-0.10256993734702614 0.09532690343547569 -0.1120638427932031 94 77 70
-0.10271109889606488 0.09518954827343305 -0.11491448489459465 84 67 60
-0.10636122146266475 0.09293668883836936 -0.11753296466954022 134 120 115
-0.10917951798679104 0.09118550718541381 -0.12019655580799223 126 111 108
-0.11470855991178198 0.08780039789539429 -0.12266199866609966 119 101 95
-0.1134567441664931 0.08850302501076907 -0.12559520051325956 73 52 40
-0.1149220117978562 0.08756781691868465 -0.12833456894224285 57 31 18
-0.11506068595954788 0.08743224606896514 -0.13116979233662213 45 19 7
-0.11551205702042737 0.0871082019514812 -0.13398173313661796 38 15 5
-0.12162060702526156 0.08337482653320423 -0.13634800578315623 33 14 4
-0.11946674546610708 0.08462095368442911 -0.13935900486616776 31 13 5
-0.1183492347271391 0.08524242168367047 -0.1422936371659417 32 11 5
-0.12022900796318195 0.08405775102333043 -0.14498165296998447 39 20 9
-0.12085675537027953 0.08362755872933511 -0.14777170543949233 42 27 18
-0.12094616773858091 0.08352172811692365 -0.15060794503324526 43 32 25
-0.12070632602741053 0.08361424344162263 -0.15347455222614742 44 35 30
-0.12068063481829942 0.0835777091642479 -0.15632377293287378 45 36 31
-0.11769482550170235 0.0853243200498387 -0.15944926492364947 46 37 32
-0.11695037282638159 0.08572059745598189 -0.16237448726432213 47 38 33
-0.12859479314247957 0.07865456963868177 -0.16410915675233703 47 38 33
-0.10252138281172438 0.09430676511397823 -0.16950725409159662 46 37 32
-0.1042896289820949 0.09318908826015716 -0.17221602213867765 47 36 32
-0.12234036421903174 0.0822655968174667 -0.17326325773651816 46 35 31
-0.11193639835931814 0.08847878324506075 -0.1771931287566457 46 35 31
-0.10122465401438795 0.09487660625324458 -0.18119365595795486 47 36 32
-0.10087456175595112 0.09503455622068814 -0.18412414847269934 49 38 34
-0.09981680701122012 0.09561854785307458 -0.18713421030963243 49 38 34
-0.09026182554223232 0.10131840545438933 -0.19108934751872358 49 38 34
-0.09288269240859826 0.09968725327869803 -0.19371116392542145 49 38 34
-0.08901796933539532 0.10196063026428977 -0.19706552221021842 49 38 34
-0.08664732681732194 0.10333433069246374 -0.20026169283815012 47 36 32
-0.08125050400972407 0.10626084594288834 -0.2185257957506675 45 36 31
-0.07702375977404925 0.10875048917720519 -0.2220131027631326 44 35 30
-0.08761015257530327 0.1023265396197091 -0.22358744431040953 43 34 29
-0.08446133034432446 0.10416749906655774 -0.2269388152400026 43 34 29
-0.08167403122978074 0.10579071809627835 -0.2302543951575816 42 33 28
-0.06857510534572658 0.11323657501538698 -0.2558235316274692 42 31 27
-0.06707062323943278 0.11408680366067575 -0.25903221548943856 42 31 26
-0.05817646660475069 0.11938048460725817 -0.26336917098896306 42 31 25
-0.04462744965644099 0.12747247458093874 -0.2684542969052232 40 29 23
-0.03900959621770651 0.13079488526367616 -0.2723573025607475 37 26 20
-0.0748367827053613 0.10919916407992855 -0.269768147555004 37 26 20
-0.06507822446268989 0.11501150248090608 -0.27429794942057284 37 26 20
-0.056962452952245606 0.1198355997986134 -0.2786001516245455 36 25 19
-0.05352545720893932 0.12184660933639996 -0.2821723308522306 34 23 18
-0.06364610687002498 0.11570797624796433 -0.2835297348630843 32 21 17
-0.06544509409887914 0.11457179527837508 -0.2862348682529854 33 22 18
-0.05094902029930313 0.12322946343709054 -0.2916721698830435 33 22 18
-0.054614120174402626 0.12097141199299252 -0.2940796049856484 33 22 18
-0.058744873512321626 0.11843373836685427 -0.2963952623761165 33 22 18
-0.06253497800465055 0.11610101764367861 -0.29875642480107467 22 12 10
-0.0649795569614138 0.11457704054483878 -0.3013409972813997 24 14 10
-0.06697577939480312 0.1133226000393929 -0.3039974562159299 33 21 17
-0.0704375862197699 0.11118770278901385 -0.30638595938860025 47 34 27
-0.07408413612272192 0.10894201704289593 -0.3087299146822855 63 49 40
-0.07540465753550177 0.10809393654526793 -0.31148640835785457 40 19 11
-0.07338363466102382 0.10925327971106034 -0.3148552034492687 40 17 9
-0.07091657888222065 0.11068039410968364 -0.318315681450619 39 18 12
-0.0734189442875205 0.10912237634417646 -0.32085275227142734 39 19 12
-0.07161230944165285 0.11015261062606271 -0.32419955176480725 39 19 12
-0.06978719675915704 0.11119379789638781 -0.3275578118192182 41 22 13
-0.07389114559202514 0.10867406558758859 -0.3297777447776553 48 31 23
-0.0647358093909069 0.11411717338297786 -0.33457176593112536 36 22 18
-0.06065595656058069 0.1165118388699646 -0.33840069914759024 19 9 8
-0.05753321756469814 0.11833149658413028 -0.34205557818648596 17 9 6
-0.05630267697561366 0.11901478908381465 -0.345343598399647 29 22 15
-0.04851242718778001 0.12363640162177941 -0.34996538758582824 24 17 11
-0.04416925059002448 0.12618797412896002 -0.353912853586191 21 13 10
-0.04478711486709103 0.12576097023871627 -0.3568551776473981 20 12 9
-0.06161226924598413 0.1156047988426071 -0.35642713527688213 19 11 8
-0.08234264312063055 0.10310556290735494 -0.35512009220647206 20 12 9
-0.033492721039878465 0.13237186969947726 -0.3684584414044444 20 11 8
-0.040763529236460566 0.1279514150404002 -0.3700017571999926 19 9 8
-0.05081310442484424 0.12186370579337974 -0.3709219269553995 33 21 18
-0.05585647617552599 0.11878101460227772 -0.37289326146258617 50 34 26
-0.0607522789726678 0.11578719043774297 -0.37487984750312076 44 27 17
-0.06312952781777424 0.11430495946267186 -0.3774057247490539 39 22 14
-0.06187901646790303 0.11499962603419864 -0.3807315215794028 32 17 10
-0.06529512622405856 0.11289422830066809 -0.38301634743459323 32 17 10
-0.05987622447432452 0.11608971227474461 -0.38728832546755465 33 17 10
-0.061035507056462115 0.11533836225925148 -0.3900816610857159 51 34 27
-0.0666230419209044 0.1119305742219173 -0.39185433979426665 53 36 28
-0.07054206027586013 0.10952401541295317 -0.39399447237003626 51 28 20
-0.06891483969566249 0.11044448803903957 -0.3974167192394239 49 26 18
-0.07676594778244084 0.10567976915177191 -0.39861563660989136 45 20 13
-0.07785433589687782 0.10497157251965787 -0.40139110705089504 45 20 11
-0.08450238845008784 0.10092913618577552 -0.4028350909428601 46 20 10
-0.09028939454830655 0.09740348599659553 -0.4044634086341317 50 21 13
-0.09757814992622665 0.09297765896723681 -0.4057073515279605 74 50 40
-0.09994502493729612 0.09150359114680441 -0.4081294295508438 92 76 66
-0.10268654713809564 0.08980502136808516 -0.41045185944768997 117 100 88
-0.10183141536481738 0.09026302140234303 -0.41365831688394317 69 40 18
-0.1010989010671227 0.09064742648142207 -0.4168386299332628 65 33 14
-0.10013864721515608 0.09116828545456476 -0.42008037997517933 62 31 13
-0.1087631339099074 0.08594339457757176 -0.42089493501546144 62 32 14
-0.11118026824739626 0.08443990475521196 -0.4232655940618173 58 29 13
-0.11284968248575597 0.08338473021300118 -0.42582118790655404 58 29 12
-0.10736450662781312 0.08661780392589023 -0.43022705580658804 58 31 16
-0.10451540778215106 0.08827061769741776 -0.4339661892669108 63 38 24
-0.10372805443214235 0.08868762966961688 -0.4371750252793061 67 44 31
