ply
format ascii 1.0
element vertex 656
property float x
property float y
property float z
property uchar diffuse_red
property uchar diffuse_green
property uchar diffuse_blue
end_header
-0.00441894216807728 0.023317333918296147 -0.017598103282782832 182 182 184
0.007928865459570875 0.02281170918702282 -0.08639726999377978 181 181 183
0.017048735497674466 0.02410619499783421 -0.08973128817432005 181 181 183
0.024548779796161685 0.025151070750479537 -0.09303363479341183 181 181 182
0.033924577977507975 0.026482876487663978 -0.09643294281168507 181 181 180
0.041694803033020644 0.02756740174703577 -0.09979706346098424 178 175 173
0.057322191805979555 0.029855643063747803 -0.10351544674628246 128 118 116
0.03544286941604305 0.026393981977927194 -0.10565321210881479 118 103 98
0.021029089748957272 0.02407835842701056 -0.10806160520993807 110 95 88
0.01988513469243897 0.023796513541176022 -0.1110442823584879 111 91 83
0.012112213097333971 0.02249986364775284 -0.11370668223386418 112 87 80
0.007537911117540475 0.02169352790270068 -0.11650515385705047 109 83 71
0.04043727619683953 0.026620777263633 -0.12120314009123363 103 73 55
0.0442158578839864 0.02709079862580267 -0.12447225391683593 99 67 45
0.0447750393513565 0.02706817350816076 -0.1275801270139459 101 69 48
0.0561928120957355 0.02870497230862922 -0.1312945955933665 102 70 48
0.059215766668987826 0.0290579634689575 -0.13456574261609872 101 69 46
0.03744562766360887 0.025624078637356454 -0.1363938959584991 100 68 45
0.04021065552747542 0.025938276987247082 -0.13963287477199013 99 67 44
0.029435311318468153 0.02418563856569508 -0.14204654703259684 96 65 44
0.031320431863281886 0.02436563431033669 -0.14522880036585176 92 61 40
-0.028818287320539697 0.015086115235037067 -0.1444039692023032 88 62 43
-0.02898630524879816 0.014955921882349198 -0.14736978428522435 87 66 53
-0.02376687703147248 0.0156467642290066 -0.1507014842216573 92 75 66
-0.009670081222503176 0.01768946312510753 -0.154665575583049 95 81 72
-0.0032146593953168504 0.018566855448061276 -0.1581328238889884 96 82 74
0.0026363295448793254 0.019351488977390377 -0.16157736809780965 96 83 77
0.009288917650116892 0.020257442359672688 -0.16510032695956559 95 84 79
0.009882313244468081 0.02024082151539209 -0.16818803216002756 102 89 86
0.010895520203412348 0.02028793584374918 -0.17131117199886145 106 95 93
0.021867211662625303 0.021848855468039066 -0.1752201523053392 109 103 100
0.03348853173730219 0.023507274830883197 -0.1792160173275493 112 110 107
0.043085063508235724 0.024856791842346022 -0.18308372942304343 141 140 140
0.052628090458928405 0.026197103169995642 -0.1869777446170553 172 172 172
0.06073965126885369 0.02731902574469907 -0.19078126819535915 182 182 182
0.06941080948349106 0.028524950209986244 -0.19465922197637242 180 179 181
0.07815994812939817 0.029741722172088404 -0.19857197877645372 180 180 182
0.0040354787822044005 0.01838969722793009 -0.19512083053462706 179 179 181
-0.000327062415872402 0.017621273317591467 -0.19777313592471296 179 179 182
-0.004224303331195407 0.016923786409069917 -0.20045629615041155 180 180 182
-0.00900077521244047 0.01609348055799767 -0.20304632324145314 180 180 182
-0.011199173576291452 0.01565405318747427 -0.20586878711542642 180 180 182
0.06614023429810287 0.021322688547857398 -0.3852703640480699 180 180 182
0.025473301889088862 0.01517334913681187 -0.3811359269379916 181 180 183
0.034561442572615585 0.01641070704063213 -0.3859563615061704 180 180 182
0.04117603689803634 0.017280142160867352 -0.3903514547813187 180 180 182
0.04716962212922648 0.01805672380955905 -0.39465350235286456 178 180 182
0.056160007913336765 0.019276734031479212 -0.3995370414166307 180 181 182
0.06002804755682887 0.019736821815637018 -0.4034830897450501 174 171 172
0.06453448621810148 0.02029097408046447 -0.4075643329039158 134 128 128
0.0655191370554015 0.02032321398309246 -0.4109850708306254 117 104 99
0.05745866450879544 0.019016764942302127 -0.4126594324887443 118 98 91
0.049855347403590974 0.01777878735489514 -0.4143989468670776 119 98 86
0.04770097429967207 0.017347353502021955 -0.4171878454512038 119 96 83
0.05013961132234693 0.01759503363525216 -0.42088223448040135 115 91 78
0.05084851725324939 0.01758680552535582 -0.4242399818997557 109 86 71
0.04547076683956568 0.016679415581187934 -0.4263750027499795 111 88 72
0.036509227930573 0.015243428452965706 -0.4277666281457605 113 89 77
0.03527209156364661 0.01494846678323363 -0.43071212358724364 113 92 81
0.03412100117722058 0.014666288428048955 -0.43367285426158475 116 98 91
0.03207188727670175 0.01425174578893292 -0.436444707159321 122 110 104
0.034148783245317324 0.014445667196391782 -0.4400755337773072 149 142 138
0.03504580293883111 0.01446542745581255 -0.44346540765657416 180 177 177
0.03725577409214961 0.014678455773506379 -0.4471386764388297 182 181 186
0.03503880347934782 0.01423927818597519 -0.4498721983848053 180 181 184
0.05163759311007042 0.016570047027870946 -0.45666008814607906 180 181 183
0.0617009516204019 0.017937236502154945 -0.46208162475278414 181 182 184
0.029962767721672 0.013154584487317864 -0.4583837902749197 181 182 184
0.0722369753342553 0.011207580403710345 -0.700072951622307 196 196 198
0.0700083683995923 0.010770253945608481 -0.7027025077624934 196 196 199
0.07019217168230724 0.010678105500324442 -0.7061354913949701 196 197 199
0.06685703689977697 0.010082878729959659 -0.7083843909679967 196 197 199
0.06869656705850109 0.010227361690405577 -0.7123766849398749 197 198 200
-0.02840898186382579 -0.003760382726439488 -0.6826973339541853 197 198 200
-0.03181352370746182 -0.00435939645134038 -0.6847482183352586 198 199 201
-0.26114441124640353 -0.037299730389388185 -0.6119782872491666 200 201 203
-0.26071432845194503 -0.037338026866267596 -0.6149634417664775 200 201 203
-0.2663890002388697 -0.03824657041575112 -0.6158230306839616 200 201 203
-0.27161379785004464 -0.03909040334000683 -0.6168227470341916 201 202 204
0.00491742451152212 0.00019425559207309623 -0.7169635448543625 201 202 204
-0.000510340240137172 -0.0006936994097960503 -0.7183249558527849 203 204 206
-0.005911059945208838 -0.0015772275229494238 -0.7196795134278721 203 204 206
-0.011720125348048852 -0.0025182659561503243 -0.7208719569807415 204 205 207
-0.27031371439724466 -0.03950120229618285 -0.6342449920629505 205 206 208
-0.219009460651712 -0.03241431193175141 -0.6585601297300131 207 208 210
0.04082260013277003 0.002358777940671783 -0.8135500831315297 208 209 211
0.04316893342628983 0.002570724314217704 -0.8178549786203235 208 209 211
0.04571511957212154 0.0028104895783028286 -0.8222485488234305 208 209 211
0.04525597267611507 0.002626792741010131 -0.8254546609555704 208 209 211
0.04666220687672307 0.002705605911458832 -0.8294071769530283 208 209 211
0.047632384831573046 0.002722860293433167 -0.8331907278509805 210 210 212
0.049681892822398266 0.002891710683514487 -0.8374145586937154 210 210 212
0.05290400328728537 0.0032250759350831437 -0.8421218870555855 212 212 214
0.050278302089742974 0.0027364369451307255 -0.8444624762813057 214 214 216
0.04768814294380512 0.0022530441572197954 -0.8468103280834558 216 217 219
0.04414393094384718 0.0016359779323972812 -0.8487596969208575 217 218 219
0.04077564408935293 0.00104396024852884 -0.8507711737378606 217 218 220
0.03875895873792498 0.0006418561188518065 -0.8533318324271792 217 218 220
0.03630765899837142 0.00017900406123188412 -0.8557067968200346 218 219 220
0.033598703164387816 -0.0003197202168016902 -0.8579676469964741 218 219 220
0.031224388607269518 -0.0007713024250636177 -0.8603610064130864 218 218 220
0.028260086960191458 -0.0013052681663639903 -0.8624999664295802 218 218 220
0.025643919946873178 -0.0017902123081666374 -0.8647773857754133 219 219 221
0.02107956340168453 -0.0025474561592470565 -0.8662222139690807 219 219 221
0.01586104003497911 -0.003395694260389298 -0.8673749744369269 219 219 221
0.01182217290172731 -0.004078472138653158 -0.8690154011911648 219 219 221
0.006246172732967459 -0.004975600059933166 -0.8699847883580101 219 219 221
0.0020510209097510668 -0.005679264943451619 -0.8715311818189361 217 218 220
-0.002225284494246055 -0.006393815615988101 -0.8730298810246093 217 217 220
0.0015698308045795084 -0.005981575685562068 -0.8780166670198272 217 218 220
-0.007705816717658326 -0.007393040791205355 -0.8773262415403082 217 218 220
0.1560223236903027 0.014046308817387894 -0.9884330649016116 157 155 155
0.1503542901448944 0.013132245910473586 -0.9894790183397308 123 117 115
0.1448313365382369 0.012238925807678477 -0.9905737404795738 104 95 93
0.13763577341005506 0.011114293992840169 -0.9908833333863803 99 89 86
0.1351669944006046 0.010645566476646287 -0.9933485345623333 95 83 80
0.12933109807791235 0.009710616050580746 -0.994249454909464 93 77 75
0.05756751764013471 -0.00047492966386906976 -0.9679953248085295 90 72 67
0.12730649083972656 0.00905176063943261 -1.004083965805525 87 68 63
0.13372192473894148 0.009812738897197845 -1.010688899342613 85 66 57
0.02301486652178089 -0.005617503275422826 -0.9621422471506642 84 65 52
0.01758216545545732 -0.006488272541303054 -0.9629926939801072 82 63 50
0.012278681575055794 -0.0073405985597032805 -0.9638874761913091 82 61 49
0.008989834461139073 -0.007914212889261252 -0.9657250986706715 83 61 50
0.00781717649376551 -0.008195464151092381 -0.9685644091142571 83 59 48
0.005447257888843343 -0.00864177324750108 -0.9708270316754246 82 60 47
0.002487276473262523 -0.009169207139794383 -0.9727990896225697 82 58 46
0.022172915193282572 -0.0065754427223456285 -0.9857014938304398 81 57 44
0.013036176183808201 -0.007954511986226404 -0.9847009262439366 81 57 43
0.005943689824750437 -0.009051055341748833 -0.9846651133370212 81 58 44
-0.0014454193241156266 -0.010187625545390079 -0.9844617611765543 81 58 44
0.007737124258525019 -0.009043533277905004 -0.9923530729669956 81 58 44
0.004163621841162285 -0.009654733181740649 -0.9940063923432974 82 56 43
-0.0031998496081613037 -0.010786501729464743 -0.9937793175888099 81 55 41
-0.017270487858362354 -0.012838956166511095 -0.9902081836131149 79 53 38
-0.0007631591672292992 -0.010929467549441671 -1.008585371566087 81 55 43
-0.05721071740040051 -0.018790958662897123 -0.9836582352962636 82 55 44
-0.02365612329230897 -0.014307171901513482 -1.0038669742723203 81 55 44
-2.9012906435865737e-05 -0.011187867195325482 -1.0191757868962685 80 57 44
-0.0015833163570458109 -0.011520582017735953 -1.021798498809322 82 60 48
-0.03151917453692912 -0.0157388777147514 -1.0099767934840616 86 64 53
-0.03213596752695627 -0.015941310676651655 -1.013021646218288 86 66 55
-0.037762068228327964 -0.016828940077435624 -1.0134998968351667 87 67 58
-0.031675043147067025 -0.016114428315273294 -1.0199805509938602 86 66 57
-0.03113891263865952 -0.016159335743465068 -1.0236211535920539 85 65 56
-0.0387907006911683 -0.017322888412025908 -1.02302849774511 85 64 54
-0.028814873949735212 -0.0160785837731715 -1.0315624346149175 84 61 49
-0.033842464951842 -0.01688329304764818 -1.0323173614389372 81 58 44
-0.048151050893124714 -0.018953603414541265 -1.0282060938201398 79 55 39
-0.08520920993020414 -0.02412445122228084 -1.0121183125351627 77 51 34
-0.08467294082837871 -0.024166608029262765 -1.0156812258055374 75 50 31
-0.08624195198969438 -0.024495711583546832 -1.0181363343868324 75 48 30
-0.08314839074036728 -0.024189721367526593 -1.0230565254118893 75 48 31
-0.08482030475390671 -0.02453284048247896 -1.025457202861573 78 50 32
-0.08526481064797288 -0.024708808514308674 -1.028507814551316 83 54 36
-0.08613459914704139 -0.0249426136491673 -1.0313309884959023 86 60 43
-0.08568954848475932 -0.024997629753123366 -1.0348580390031477 91 69 53
-0.08583847680290069 -0.025133461519063482 -1.0380684698918385 91 71 56
-0.07941094250803964 -0.024376140951220572 -1.044830840077592 91 72 57
-0.07858385042067438 -0.02437994532637865 -1.048583402399174 90 72 58
-0.07740153716135345 -0.02433570315335539 -1.0525334042737688 92 74 62
-0.08554754499748247 -0.02555688356174816 -1.051403605499724 91 73 63
-0.08310164518817911 -0.025341161491080958 -1.0560397227728986 91 72 63
-0.08415970163864722 -0.025600614393848326 -1.0587634626400573 91 75 61
-0.08307817790783743 -0.025570187322295962 -1.0626626386079825 94 77 64
-0.08015479645209839 -0.025290581167591683 -1.0675840536682069 96 79 66
-0.08609896719775587 -0.026211403066065488 -1.0676057172679638 92 78 66
-0.07912825461860427 -0.025384613867258026 -1.0747838810775356 85 69 61
-0.08310127974968952 -0.02603837108051454 -1.0758883047776036 72 55 51
-0.0820187280063076 -0.026008470444599172 -1.0798069959615129 62 46 41
-0.08225634254709922 -0.026157086520573664 -1.0829905867350067 66 50 43
-0.07690567582452985 -0.025551197680220003 -1.0893188504230713 68 51 44
-0.07307054385285688 -0.02515055455831763 -1.0948120727656758 65 48 41
-0.0681154618285586 -0.02459935890415441 -1.1009542555540257 70 52 45
-0.06913298167905584 -0.02485414667079466 -1.1037238053623497 72 53 46
-0.0653732316071253 -0.024465011233477187 -1.109212467222007 69 50 43
-0.06622469062463505 -0.02469758124671086 -1.1120812437040615 69 49 42
-0.07199127296100878 -0.025591927896119443 -1.1121317307312906 72 52 40
-0.07937149793745832 -0.02670279838491889 -1.1112359476985487 76 55 40
-0.08444768522265683 -0.027502856705163507 -1.1116443581117839 81 58 42
-0.08968356478320992 -0.028323816873883252 -1.1119441435376394 86 63 46
-0.09446358000134693 -0.029082915319483624 -1.1124915474609036 94 71 55
-0.09731622476674366 -0.02958254964400405 -1.1141451928067438 99 76 62
-0.08452425057356978 -0.02798110850192329 -1.1249210574434778 99 76 62
-0.08118181617915009 -0.027649612934300166 -1.130211770284022 96 74 60
-0.08110737165643463 -0.027757010587247565 -1.1335969946449993 95 73 58
-0.08794996697155893 -0.028792017991914685 -1.1329105309731748 93 70 57
-0.08659628467217276 -0.028727654283174274 -1.1370428196567626 93 72 61
-0.05709434221121898 -0.024892431812608855 -1.1578573152088296 93 75 63
-0.06493230839465686 -0.02606110994628262 -1.1565902394151046 93 76 65
-0.06994519375254676 -0.02685074063550022 -1.1569807296395989 91 77 68
-0.07623485307755457 -0.027810620263811953 -1.1565919583153352 101 91 83
-0.08095430606001647 -0.028559800568309562 -1.1571238739324865 122 115 109
-0.08605633675964793 -0.029359586745434225 -1.1574106682899967 146 141 136
-0.09014800702485022 -0.03002381035263366 -1.158290266879918 166 162 158
-0.09436845287062595 -0.030704777262978936 -1.1590790847416423 178 177 175
-0.09892260240673528 -0.0314298161622949 -1.1596521306637906 185 185 183
-0.09977456835901735 -0.031660420977629763 -1.1624627316336373 190 190 190
-0.11297805462583116 -0.033538071397842914 -1.1577363499733782 192 192 192
-0.16091238684294565 -0.04004339357444374 -1.1317143964632514 194 194 194
-0.1666019346900146 -0.04091464447859738 -1.1314468563590103 195 195 195
-0.16505162274285487 -0.0408211432853118 -1.1356160824531434 196 196 196
-0.16171060358733744 -0.04048953976749529 -1.1408974866414348 198 198 198
-0.16616934607895895 -0.041196089725120455 -1.1413645957060363 199 199 199
-0.013256069480844068 -0.02109781337171541 -1.2429952290271007 201 201 201
-0.0019383768829602521 -0.019716997554002302 -1.2535556189710984 202 202 202
0.010593529231811255 -0.018176415513969077 -1.2649180257755401 202 202 203
0.01914385678534633 -0.01716592568247096 -1.2738268847029757 204 204 204
0.05061344250881841 -0.013115954853430811 -1.2971979604161943 205 205 205
-0.11475426833478519 -0.03517130091941351 -1.196402130288016 205 205 205
-0.13393194251882234 -0.037829847247863785 -1.1875819788954234 206 206 206
-0.13243389873189063 -0.03774696151028994 -1.1918230879374938 206 206 206
-0.156699319042934 -0.0410758081628529 -1.1796666883073719 207 207 207
-0.1607844715946839 -0.041730746379746296 -1.1803106840831878 207 207 208
0.003187110582126131 0.029384612247726864 0.03560250720371298 183 183 183
0.004684002904362787 0.029517000788405617 0.032692350458947264 183 183 183
0.004857901319556149 0.02944127810355736 0.02974463637753315 182 182 182
0.006514697627071757 0.029598457418984748 0.026828631200938674 182 182 182
0.008174678965952763 0.029755920702916223 0.02390649913024982 182 182 182
0.009278871810855668 0.029825910322095226 0.020967261994203422 182 182 184
-0.005474395909399423 0.02740699628214386 0.017736159874902988 181 182 186
-0.002570569299139112 0.027759841795539555 0.014841356069309078 181 182 186
-0.001035832542537269 0.027897612150863484 0.011915910580257129 181 181 184
-0.0011254422188553548 0.02778049958933685 0.008962457590272963 181 181 184
-0.000637068716983556 0.0277539432845991 0.006015032428474521 182 182 184
-0.0012798359936176448 0.02755005972888311 0.0030528223695915195 182 182 185
-0.0022977897587184225 0.027287432607621443 8.782404844486869e-05 182 182 184
-0.003283783680035802 0.02702987167482333 -0.0028751555230880086 181 181 184
-0.004093101457735509 0.026800024126102173 -0.005835363789019228 182 181 184
-0.005360408833253361 0.02649855248205283 -0.00879656694936436 182 181 183
-0.006605115181414802 0.026200704233732806 -0.011755175467698125 182 181 184
-0.00615187965620047 0.026168451296596784 -0.01470844815084133 182 181 184
-0.00687826996516495 0.025951708616805676 -0.01766458042339585 182 181 184
-0.0071946836401824 0.02579906334279118 -0.020620338748548593 182 182 184
0.00971867447008877 0.02833794835445589 -0.02362460204241241 182 182 184
0.008855864266640768 0.028099052639934598 -0.02660447928463853 182 182 184
0.01496882707135173 0.02695556562698938 -0.08673077301549434 181 181 183
0.02227956497186845 0.027983775945866207 -0.09001197482786248 181 181 183
0.029829226233343397 0.029048202933291675 -0.09332554455332348 181 181 183
0.037782614430595315 0.030174344935166963 -0.09667900046738598 181 181 180
0.046943414925196075 0.0314866280667327 -0.1001067083644444 155 150 147
0.044257035901777375 0.030963397139091436 -0.10306622338384305 119 107 103
0.02773152725880731 0.02829819008944081 -0.1054170692383926 112 101 92
0.010766843138534675 0.02556672774384216 -0.10769936221959109 108 95 87
0.009806251694818913 0.02531265888368562 -0.11067605255062467 111 93 85
0.003753457180011195 0.02427121277381933 -0.11340650400225931 109 87 80
-0.0068642008800197 0.022524716392966982 -0.11589365625832437 107 81 68
0.04588432032225229 0.03057121890590609 -0.12158641647105846 103 73 53
0.046572230048571285 0.030569962266253747 -0.12470256856684042 101 66 46
0.04740172477148035 0.03059045007403182 -0.12782980670707636 99 67 47
0.04424687386798949 0.02999574026177876 -0.13073922203794971 101 69 49
0.04527409478070722 0.03004668279887852 -0.13387941592987426 99 67 46
0.03658631882633047 0.02859879891012912 -0.13645398211919985 92 61 41
0.036852493287682545 0.028532585008151035 -0.13954248877292696 93 62 41
0.03352372871111292 0.02791211030539809 -0.14241122999636072 93 61 38
0.037663677728210485 0.02844290255098703 -0.14574356521473178 86 58 37
-0.024287947271525535 0.018791744841092705 -0.14480866990831762 84 57 41
-0.04063508659213823 0.016170119818585894 -0.1467097689992002 83 61 46
-0.03322481717173924 0.01720750944865684 -0.15017368789368277 86 69 58
-0.020135399677684747 0.019118034163662364 -0.15405539555723313 91 77 68
-0.010986083330771005 0.020420981857773354 -0.1576990958190049 91 78 70
-0.004277434896448662 0.021347571520450043 -0.16119532751795979 93 80 72
0.0017916562791473883 0.02217507975258436 -0.16466608885324852 92 79 71
-0.004328471913238156 0.0211286843886894 -0.1672368210791504 91 79 73
-0.0012780529016145278 0.02149171454242501 -0.1704962621722581 96 86 81
0.007862121425138383 0.022789580966145563 -0.1742445813335026 100 91 88
0.016553642458498125 0.024017548114381997 -0.17798629182538328 102 97 93
0.0257824706983416 0.025326996530973506 -0.1817997982150855 109 105 102
0.03518425805090366 0.026661944589589967 -0.18565730264678543 119 115 114
0.044474793389692735 0.027978778149449667 -0.189535558962121 149 147 147
0.05317792321688874 0.02920451855364179 -0.1933930335122989 173 170 171
0.061497741785977514 0.03037053690285773 -0.19724494599537365 182 180 182
0.07000373352574533 0.031564136932346804 -0.20114038331345238 179 179 182
0.07646108441642234 0.03244304335736326 -0.20487730047763175 179 179 183
0.08780232755264215 0.03406887791700673 -0.20908639630392414 180 180 182
0.09602854873830641 0.035216739493994634 -0.21303932122408076 180 180 182
-0.007291807506864416 0.019193095674442388 -0.2094131898135025 180 180 182
-0.011845983702279492 0.01839080792448523 -0.21200310826617316 180 180 182
-0.01586522202267596 0.01767071297828044 -0.2146338318893317 180 180 182
0.030991255841590827 0.01925110795607112 -0.3791660662042685 180 180 182
0.03633586032299693 0.019942085279146437 -0.38330381979623734 180 179 183
0.04494746910506364 0.021122269369585108 -0.3880564626836645 179 180 184
0.05041177391561465 0.02182973337989564 -0.39225792082206584 181 180 185
0.05850179443644845 0.022929948212215646 -0.3969658388166284 180 180 183
0.06599472160472947 0.02393979466446094 -0.40158883600304174 166 164 164
0.07024796122722513 0.02446373141058668 -0.4056248120361454 118 109 106
0.06292950667285449 0.02325531609924353 -0.40747102460147383 108 94 88
0.0676633622324257 0.023850756195211154 -0.41161077523689277 109 91 81
0.04765050011152799 0.020744732817209784 -0.4109739630257386 110 85 74
0.039339372517368326 0.019390227270613472 -0.4125601745199171 114 88 74
0.038764337856709345 0.019192674793289177 -0.4156443077604469 110 85 68
0.044482117835869264 0.019935189015380227 -0.4199767034907575 108 82 65
0.041270850336744394 0.019343649162643365 -0.422542706855739 107 81 64
0.04131892729425135 0.019238951926610685 -0.4257570231389894 108 82 65
0.02847629042004013 0.017210659395444868 -0.42635374527256786 107 81 65
0.027320933700071187 0.016927057736039332 -0.42930432885715153 106 81 66
0.026235769835522657 0.016654001238098896 -0.4322671392157232 107 83 70
0.025100523102141503 0.01637355083774175 -0.4352174987186452 110 91 80
0.025336079954604906 0.01629742339141584 -0.4384528864080728 119 107 99
0.02566158476786347 0.016234617651833087 -0.4417094214523669 141 134 133
0.027762088429103327 0.01643599993436442 -0.4453459594836616 175 174 178
0.02643216087100135 0.01612654524847621 -0.44825545111852233 180 182 185
0.040059511035714396 0.018042464656906815 -0.4543912526939731 180 183 185
0.04949394763560329 0.019333250678355902 -0.45965996614103904 181 182 184
0.05741257591041092 0.020397591485763953 -0.4646280756901597 181 182 184
0.014006184808457264 0.01383365812514755 -0.45829709967888554 181 182 184
0.07290408815428052 0.014698375867203142 -0.697246066030884 195 195 197
0.07222787483168348 0.014482720309526007 -0.7003957280922702 196 195 199
0.07150613766889502 0.01426050418012768 -0.7035294818824974 196 195 200
0.07652248720703622 0.014868022882135436 -0.7085881244129477 195 196 200
0.07214578368899495 0.014117252954724241 -0.7104969607210831 196 197 200
0.04393140390547942 0.009922836329594939 -0.7043143666739353 196 197 199
-0.009481732836242263 0.0020923117029360318 -0.689459072318372 197 198 199
-0.013548066524667862 0.0013918897319959815 -0.6913153919639285 198 199 201
0.06630367133022097 0.012801991621931491 -0.722014181891549 199 200 202
0.02288445177336841 0.006420874992688518 -0.7103889864106836 200 201 203
-0.036847369915574246 -0.0025315337158474567 -0.6993777467654102 201 202 204
-0.002203569795063781 0.0022316197245706507 -0.718056995676289 202 203 205
-0.01153866195919416 0.0007740408702457922 -0.7180108779696457 203 204 206
-0.013549369002671507 0.0003710828899602947 -0.7205505388021137 204 205 207
-0.0525733224849748 -0.005353818209792912 -0.7098081295867394 205 206 208
-0.2899510533648503 -0.039584029002830846 -0.6274588470628086 205 206 208
-0.3166464075780102 -0.043613517919437364 -0.6233534292588436 207 208 210
-0.30851194807143584 -0.042542070531331376 -0.6290843678922511 207 208 210
0.01971943860393298 0.0028351649193424505 -0.7989300047170614 208 209 211
0.035193607029074925 0.004925597537976906 -0.8083361169317157 208 209 211
0.038923825888604144 0.0053398312632640735 -0.8131726766275327 208 209 211
0.047275966202658254 0.006412256482139736 -0.8198502837699255 208 209 211
0.05142107650891527 0.006884345701060439 -0.8248872752477341 208 209 212
0.05521612857636393 0.007306050362495389 -0.829800124669166 208 209 212
0.05676593564918904 0.007407676286057985 -0.8338284044442531 210 209 213
0.058027586037643936 0.0074680685066849176 -0.8377475840321512 210 209 213
0.05900127536011439 0.0074873052380284785 -0.8415562988980049 209 208 210
0.058929771892586885 0.007357787648420169 -0.8449461651134592 207 207 207
0.05642778196606965 0.006882844742078648 -0.8473480842094208 206 204 203
0.054700961822378324 0.006518249174385524 -0.8500599750393928 201 200 197
0.05288554817048381 0.006141222681272984 -0.8527312667525078 195 195 191
0.04840670222487345 0.005386341118088667 -0.8543005320904836 191 190 188
0.0457300551791395 0.004887606089527624 -0.856601938372638 191 188 186
0.04295064522258743 0.00437455818009299 -0.8588532097687142 193 191 187
0.03983736844725051 0.0038144563888980187 -0.8609574300328364 198 196 193
0.03631536690449888 0.0031967529003247286 -0.86288156019375 205 203 200
0.03287614041720813 0.0025911329491240254 -0.8648301879312268 211 209 208
0.029259091381814775 0.0019606880719306857 -0.8666937140939464 215 214 214
0.0254289651754058 0.0013004607736274848 -0.8684562913495248 217 217 216
0.020750394049861218 0.0005206114349621399 -0.8698464767274517 219 219 218
0.06255392207071472 0.006313760798597412 -0.8910796228391296 219 219 220
0.06949946084352199 0.0071751167775630995 -0.8975051615130355 218 218 220
0.07469847300013893 0.007788849020769796 -0.9032036998255771 218 218 220
0.002650885233009437 -0.002506993596737464 -0.875530523920116 218 217 221
-0.0030823424926958165 -0.003433269561272753 -0.876392809138955 218 218 220
-0.005977165560241984 -0.003958412551408937 -0.8784737748303059 218 218 220
-0.007740647689432792 -0.004323697251452322 -0.8810412496677887 217 218 220
-0.006127791979881128 -0.004212811071687757 -0.8850865736327774 217 218 220
-0.01096298498381404 -0.005010871300420244 -0.8862971258203177 216 217 219
0.1474336255215942 0.01630360244684785 -0.9849747287000682 130 126 125
0.13480373920306815 0.01440420230590543 -0.9828319354628522 108 99 97
0.10757557908429596 0.010457600124564627 -0.9739665604838478 99 88 85
0.09595179001780932 0.008703080357459765 -0.9721785324475134 95 82 80
0.09073699451065159 0.007848527104934909 -0.9733076332398776 94 79 76
0.08034714973800519 0.0062692206206744205 -0.9720256835566753 90 75 71
0.07640269671122335 0.00559407305680628 -0.9737037463652243 88 72 65
0.044705152184565305 0.001032864444385731 -0.9624318247154154 87 69 62
0.1302418873390651 0.01288559410963739 -1.0059064615299118 85 67 58
0.12729918327321985 0.012348175230911765 -1.008124679703613 84 65 55
0.12678395172885684 0.01215055298708298 -1.0114785833247977 83 62 52
0.0067346224134155475 -0.004757854968909514 -0.9582915447071797 83 61 50
0.015351346421559331 -0.003672246976001131 -0.9657762205509614 83 59 49
0.0032352306194344538 -0.0054836863390491306 -0.9634142309769259 83 59 49
0.0013208947835552654 -0.005869357485943916 -0.9658902187005872 83 59 49
-0.004268710889951788 -0.006767777821573624 -0.966597656404087 82 58 48
-0.00893321796817828 -0.0075365326373289555 -0.9677330121219143 82 56 45
-0.01475147100222185 -0.00846566407718334 -0.9682963865893168 82 54 43
0.004189869207473607 -0.00594312459221856 -0.9808492744232354 81 54 42
-0.0036666255501519307 -0.007156424638237936 -0.9804263038414672 82 56 43
-0.01042202464292763 -0.008215498470449792 -0.9805157480815293 83 57 44
-0.006974142610215506 -0.00785350059162434 -0.9855844223830079 83 57 44
-0.014429648112307875 -0.009009090503952422 -0.9853037995467362 82 56 42
-0.02163147445146625 -0.010128559146605709 -0.9851243472802789 81 55 40
-0.015202380113429143 -0.00935221686536224 -0.9916726906508442 80 54 39
-0.027389024274571724 -0.01128079358768505 -0.9923503021022863 80 54 39
-0.019363697679032912 -0.01028380043065439 -0.9997253308229229 81 55 42
-0.012562814074203177 -0.00945775602729465 -1.0065146665268654 82 55 44
0.008874324332433625 -0.006602209894100201 -1.0207036709296176 80 55 44
-0.019997368375438196 -0.01072522185175287 -1.0095325357684468 79 57 44
-0.03274272828276922 -0.012609675647108635 -1.006444565257875 82 60 47
-0.04759580733745003 -0.014784657385060178 -1.0022413234890177 84 64 53
-0.04871813056787591 -0.015056448274372775 -1.0050014973139294 86 67 56
-0.04541448552955013 -0.01471550901700407 -1.0100275656343338 86 66 57
-0.05237030755632936 -0.01579453289592648 -1.0097910730027517 87 66 58
-0.05641337017029953 -0.016469934932599947 -1.0110348950311807 86 66 59
-0.054979039407773905 -0.0163877050593774 -1.0151017221606078 84 64 56
-0.050320821762751225 -0.01586022433093348 -1.0208494935175139 83 61 51
-0.05461816623036826 -0.016570300647145826 -1.0219479974081687 83 59 46
-0.061932209635596466 -0.017696395699497585 -1.0214559000106278 79 56 41
-0.08220630836019752 -0.020610136530256087 -1.0141414584501347 77 52 35
-0.0892600965758808 -0.021697888474483444 -1.0137163316728666 75 47 30
-0.08869220426348327 -0.02173397693546745 -1.0172928552257294 73 44 27
-0.08749675693526271 -0.021683698757741128 -1.0212053232017235 72 43 27
-0.08580234081323872 -0.02156488164174032 -1.025388657233221 72 43 27
-0.08560351253094059 -0.021652260057576363 -1.028781874275073 74 47 30
-0.08543783388595462 -0.021744278187404317 -1.032159566349656 83 57 40
-0.08714476298739039 -0.022093994297954472 -1.0345342989094 87 63 47
-0.0883041373106934 -0.022368259652511303 -1.0371994552936017 88 67 50
-0.08680062449299328 -0.02227641261423438 -1.0413005657072714 89 70 54
-0.08468697478052956 -0.02210097238112912 -1.0457390751066031 89 71 57
-0.08438811599410562 -0.022175072202409763 -1.049199819623022 90 72 59
-0.08379408760786562 -0.022208743110394627 -1.052824118235276 89 71 59
-0.08383663622719467 -0.022329885057559274 -1.0561037114575906 88 70 58
-0.08775114000500912 -0.022982115427632167 -1.0572594114950284 90 72 60
-0.08221491649927613 -0.022338326832772204 -1.0636068699646253 91 74 61
-0.08323758913504117 -0.022594022539934484 -1.0663521891374754 92 75 63
-0.08077553685222086 -0.022372352067863782 -1.0710264275604495 93 76 66
-0.08259434048707599 -0.022737113858211633 -1.0733312184168298 87 72 64
-0.08822556898719869 -0.023623422583925316 -1.0735053508285417 77 63 56
-0.08381300975609815 -0.02313525882411307 -1.0792794056770718 61 48 40
-0.08419204004037086 -0.023302812178416513 -1.0823818359774937 65 47 40
-0.08230515510725521 -0.023160706266574127 -1.0867598534738403 65 49 42
-0.07920913662619752 -0.022853714534976078 -1.0918286876136767 64 47 40
-0.07491411200469357 -0.022383441566351442 -1.0975889555626566 65 48 41
-0.07599829991623996 -0.022647900860725347 -1.1003098691911024 72 55 48
-0.07232226796927001 -0.022262899293714538 -1.1057411580656586 68 50 43
-0.07119843754480645 -0.02222641310934212 -1.1097280284024094 69 50 42
-0.0728710785620607 -0.022571267145715508 -1.112117013891046 70 51 40
-0.08076995084735324 -0.02376420110806965 -1.1109209096679324 73 52 39
-0.08607026477472123 -0.024602366323156762 -1.1111976619753858 75 54 39
-0.09368625693647134 -0.02575512859691902 -1.1101174531986537 80 58 42
-0.0988219765710836 -0.026569567105460785 -1.1104515352607134 88 65 50
-0.10206619773591086 -0.027126204916144408 -1.1118702188179943 93 70 55
-0.1047548465019518 -0.02760698017299686 -1.1136034296255193 95 73 60
-0.08825952231451673 -0.02548100988273433 -1.1265638505392834 98 76 62
-0.08352730090464626 -0.024954614752671068 -1.1326740749753024 95 73 58
-0.08944860676553572 -0.025875009158500155 -1.1325257523788823 92 71 57
-0.08652518881270899 -0.025594654220252294 -1.1375847677222528 93 71 58
-0.057335021660340726 -0.021752386859851775 -1.1582238105270741 92 71 60
-0.06638825070933642 -0.02309802570175104 -1.1562332332528005 91 73 61
-0.07149323447328437 -0.023907625474975863 -1.1565663315426042 91 74 64
-0.07700772683098449 -0.02477211364953788 -1.1566381078245462 95 82 72
-0.08265169518658133 -0.02565350475825001 -1.1566143318156217 109 100 92
-0.08898396641446452 -0.026627391033114105 -1.1561581608023341 131 125 119
-0.09288562014225195 -0.027271806139149053 -1.157147529700036 156 152 146
-0.09645508363898857 -0.027870885410582497 -1.1583256561158175 170 169 165
-0.10005783044864662 -0.028474075787156935 -1.1594725170407103 181 181 179
-0.10725109422348125 -0.029561832954552503 -1.1584230299761573 187 187 186
-0.11337544206897787 -0.030504446893846 -1.1580020529313124 190 190 191
-0.11804026502728512 -0.031249405502966766 -1.1584543527133682 193 193 193
-0.16237114270386732 -0.037344027710025984 -1.1345405317342427 194 194 194
-0.14320120282859422 -0.0348721094227952 -1.149567030389247 196 196 196
-0.1482943651275492 -0.035672238889757575 -1.1496817833595305 197 197 197
-0.030570480288683755 -0.02004982639693543 -1.2292938076512276 199 199 199
-0.023240532476842685 -0.01918436143875262 -1.237322858514702 201 201 201
-0.012352811431794064 -0.017841309952611482 -1.2476015948112795 201 201 201
0.0011865503143872191 -0.016143161739914473 -1.2595814719525136 202 202 202
0.012189340871150756 -0.014787628703128587 -1.2700179050491753 204 204 204
-0.00790145787120533 -0.01761009558841012 -1.2609096605925063 204 204 204
-0.13285495002453654 -0.03462396185581726 -1.188784798356336 205 205 205
-0.13414532831873965 -0.034912015911666996 -1.1912583537631214 206 206 206
-0.17028053115714184 -0.03987174649094277 -1.1715322084345452 206 206 207
-0.17520811481484608 -0.04064484540122828 -1.1716140599574427 207 207 209
-0.13836060051236934 -0.03582163423898974 -1.1984402154326173 208 208 210
0.001697360452214726 0.032373993523030026 0.04140580081781798 182 182 182
0.0037650313890317914 0.0326002476622607 0.03852000772621113 182 182 182
0.004540429798643061 0.0326210590937495 0.03559189396595751 182 182 182
0.0057953071696958255 0.032717853291852644 0.032672455820876946 182 182 182
0.005217541967349211 0.03252367792592814 0.02970395464304832 182 182 182
0.007107813804625879 0.032721009030134925 0.02679158253087479 182 182 182
0.009002487023975126 0.03291879898471362 0.023872411180048375 181 182 184
0.010901558162443611 0.033117046405079544 0.020946416434759238 181 182 184
0.003328041188399469 0.031813938561596894 0.01784212383372001 181 181 184
0.005743409839892291 0.032093985585864584 0.01492495841540353 182 181 185
0.007912477329208653 0.03233473308382194 0.011995601951363493 182 182 185
0.00769128272896679 0.03219679965416882 0.009025953663512139 183 182 186
0.007775057619816245 0.03210711021981321 0.006059391917751314 181 181 185
0.007131610768434776 0.03190231375008585 0.0030835747839931043 180 182 184
0.006937691731948402 0.03176863657658858 0.0001125149788305216 181 182 185
0.006297205144993742 0.03156432986573491 -0.002862653409789083 181 182 184
0.005514397035340221 0.03133755072122785 -0.005838056856715467 181 181 184
0.004088568307305086 0.031009209214548854 -0.008815387543918137 182 181 184
0.0036560490062373524 0.030837866053513897 -0.011786588666687577 182 182 184
0.0028804546473409857 0.030612352213750263 -0.014758340615611081 181 182 183
0.004856929428024924 0.030821281936413855 -0.01772858978839238 182 182 184
0.00700353928603277 0.031056808534102646 -0.020706262948797453 182 182 184
0.007755642837499251 0.031072093228700207 -0.023687700119377732 181 181 183
0.004779128252073061 0.030499283754560125 -0.026656526735414698 181 181 183
0.0032498698114761197 0.030154884318783087 -0.02962614362050711 181 181 183
0.0035960954624697835 0.03010615242911612 -0.03260620011414287 181 181 183
0.042826582757712284 0.0344904311110263 -0.08472165116527178 181 181 183
0.034461976572164384 0.03307397116546822 -0.08749401755211811 181 181 183
0.03267854292229839 0.032688916353084366 -0.09047908273366947 181 181 183
0.03494116557442156 0.032937379361180345 -0.09361170308279551 181 181 182
0.04239440676676641 0.033997834186239376 -0.09695488418972696 178 175 175
0.05490852225012363 0.035849165583596146 -0.10052696472185262 125 118 115
0.0355530242566834 0.03271523865347224 -0.10279906418808339 115 103 98
0.01792203223423887 0.029852895919749548 -0.1050888875368081 110 97 89
0.002576133945571369 0.02734947440027725 -0.10742950225367591 108 93 86
0.002403701041349203 0.027218114536085167 -0.11043152408278653 113 95 88
-0.00953180337817183 0.02524964830117311 -0.11286862751578848 106 85 78
0.03881545775797741 0.03269378551224368 -0.11826138513510032 105 80 68
0.05168701810171531 0.034596157703454006 -0.12198851888427925 99 70 51
0.04652265987854118 0.03368324684873571 -0.12480653624528631 94 61 40
0.04681049867274742 0.0336211730906649 -0.12790552847654715 96 65 45
0.020450985299139378 0.029404439911303065 -0.12952270497514734 100 68 49
0.01572204749953572 0.02856172013564142 -0.13229853388415755 98 67 47
-0.014334858119496065 0.02377325168700799 -0.1335736140125112 96 64 45
-0.022125777699102074 0.022455870760659306 -0.1361001717224969 95 64 43
-0.025355508675589705 0.021849438542185566 -0.13888608635877867 90 59 36
-0.02658528525744338 0.021554587088514796 -0.14179005948454726 84 56 35
-0.035750290505547844 0.02002515790599584 -0.144177103812067 81 54 38
-0.046786302792429096 0.018205638420179453 -0.14641330914613387 78 54 40
-0.04460600151368817 0.018442204537390653 -0.14951431139675264 77 59 49
-0.02810851828701203 0.020903868273620663 -0.15361706256768162 88 74 65
-0.01969076493838003 0.022108304184127056 -0.15719832384534496 89 75 68
-0.013691205135863672 0.022936189936926654 -0.16063136856007734 89 75 67
-0.007270868266130985 0.023828729957643506 -0.16411520254168357 89 75 67
-0.0177121667080639 0.02210325367425275 -0.1663464346965834 88 75 69
-0.010090615462622538 0.023181625464724513 -0.16993894333456455 91 79 74
-0.01022773804778478 0.023055652863878392 -0.17294633197830392 95 86 81
0.0009927123291310208 0.024690779577486686 -0.17686462202928585 97 88 85
0.008970515679013729 0.025822028054557827 -0.1805538354084665 101 93 90
0.018607912370930228 0.027209545692195906 -0.18440689504385793 103 97 94
0.028578515022647077 0.028647606078221262 -0.18831907876217913 109 103 102
0.03703005606927649 0.029849332809553156 -0.1921321672789435 121 118 116
0.04514808506675259 0.030998486358048208 -0.19594326838072815 150 150 149
0.053475898437147895 0.0321791906477126 -0.19979939553447001 174 175 174
0.06073637888710382 0.03319385486528777 -0.2035854860510389 179 180 182
0.07051625303368779 0.03459728692219236 -0.20762806161457306 180 180 182
0.07860455643127394 0.03573814017592507 -0.21154317722348492 180 180 182
0.08700806382030951 0.03692679061220461 -0.21551465260066355 180 180 182
0.09518431170908362 0.03807938951592749 -0.21949133089196335 180 180 182
-0.0030604178975264587 0.02279725878393659 -0.21300576131808094 180 180 182
-0.00628495029305063 0.022193772398321918 -0.2157304125830013 180 180 182
-0.012772036484476092 0.021087121459361747 -0.21811483970466847 180 180 182
0.0822976365875343 0.030292267521949426 -0.38532938582496057 180 180 182
0.04207970660523619 0.024081969845207333 -0.38135799299934897 180 180 182
0.04803675765116203 0.02487418364274097 -0.38562590572729744 180 180 182
0.055091385091670615 0.025831982807797957 -0.3901145687398871 179 180 183
0.061832400735819935 0.026741464999219155 -0.3945690999058962 180 178 181
0.06940228009622881 0.027775644303498007 -0.399200397832571 172 167 171
0.07617958841958786 0.0286889984816364 -0.40370844490952335 112 103 103
0.07969427650158618 0.029107979050149096 -0.40762255753343385 109 93 86
0.053272682190628286 0.02499929395556956 -0.40584267174486927 112 92 80
0.044285176859776176 0.023529038932303084 -0.4073315760257968 111 92 79
0.037960079523484666 0.022462061859709184 -0.4093094045112517 110 87 75
0.029598712879939308 0.021088122647943706 -0.41087080680953114 105 79 67
0.022098545301955055 0.019845102027945077 -0.41257675959606094 106 80 64
0.01235954759312513 0.018264895569829565 -0.41381587358214816 106 79 61
0.008969239017227848 0.01764372476484428 -0.4162960229337632 105 78 59
0.015969908126444 0.01859029962717175 -0.4208627302507977 100 73 54
0.03391304290060124 0.021186063859347296 -0.4276775403234865 101 72 54
0.031843187360447486 0.02076315861316251 -0.43045047762883965 102 75 57
0.028258636246632524 0.020112199003352222 -0.4329055258883108 103 76 59
0.020416083571767454 0.018820227157963627 -0.43446471268345044 103 80 64
0.01813310525992269 0.018366170978477155 -0.43716590951386847 101 84 71
0.01796879403065714 0.018231206745753778 -0.4403087841916398 116 104 99
0.01842088697144964 0.01818895529344525 -0.4435837263851615 139 132 132
0.0187682683259746 0.01813085613016245 -0.44683906256076983 178 178 178
0.028980930584190337 0.01955589896800432 -0.4522278497962941 181 181 182
0.03765541636618573 0.020748587263782023 -0.4573158680955262 181 182 184
0.045247954289470094 0.021777718072754332 -0.4621957894347778 181 182 184
0.05327721771408797 0.022871548514011138 -0.4671977569578873 181 182 184
0.0748292755292994 0.018376586850915616 -0.6948304498096642 195 195 197
0.07161362678923831 0.01778876563264254 -0.697143956724374 195 195 197
0.07437413794365653 0.018075617203618832 -0.7014353555185991 195 195 198
0.07841997966789882 0.018432555229964488 -0.7095546311446864 195 196 200
0.07697989364709688 0.018104526515526645 -0.7124580752926696 196 197 200
0.03723927281180642 0.012181687051154143 -0.7023721372687625 196 197 199
-0.0009990150689244276 0.006482710689287491 -0.6926686563900316 197 199 199
0.059454697303479215 0.01519364901371002 -0.7166283283451489 198 199 201
0.033016926921807896 0.011219460805551675 -0.7108978312709466 198 199 201
0.006593821894945992 0.007250384556069554 -0.7050867033785878 200 201 203
0.012638598739698484 0.008017887947429053 -0.7104660670302656 200 201 203
-0.028112330888701506 0.001964817679162411 -0.6995373103932248 200 201 203
-0.03605659943090911 0.0006956052664822548 -0.6999776309553487 201 202 204
0.019960258286831234 0.00874137529918894 -0.722923991800222 202 203 205
-0.0021817115499246503 0.005403538056645011 -0.7183957056059797 203 204 206
-0.008417382634423431 0.0043826658115642125 -0.7194514001124895 203 204 206
-0.014706583639509177 0.003354672296594679 -0.7204688140332275 204 205 207
-0.31193656934138525 -0.03997312767461102 -0.6170553431878639 205 206 208
-0.30635642504936683 -0.039258036023282185 -0.6218314738221007 205 206 208
-0.2956399427353662 -0.0377974367997434 -0.628487668197241 206 207 209
-0.3551207885842543 -0.046532142343874906 -0.6096396056459022 207 208 210
-0.34845968232353114 -0.045658744250107706 -0.6147707142388428 207 208 210
0.047876646200202586 0.010351993567886762 -0.8035144582676161 208 209 211
0.0533956263188376 0.011031210688735436 -0.809046415124154 208 209 211
0.0335252818195636 0.008046157965695487 -0.8046845362888618 208 209 211
0.053518212402881155 0.010813154620357153 -0.8158898660257123 208 209 211
0.05524409775956206 0.010944036706867125 -0.8199697489470695 208 209 211
0.059012874415635325 0.011369090717769564 -0.824864878878522 208 209 211
0.06218788783129835 0.011708113810058603 -0.8295383448788396 209 209 211
0.0652367154458428 0.01202854299892505 -0.8341736600582569 210 209 211
0.06741172578781639 0.012222780023324144 -0.8384707684038828 204 202 203
0.06912783760795115 0.012350679494899049 -0.8425921591546631 188 185 185
0.0693552069792485 0.012264197106667402 -0.8461196223297861 170 165 164
0.06351112007990148 0.011304719778440511 -0.847187234068074 149 143 140
0.0648790974489384 0.011382352209057124 -0.8511736292841934 140 132 126
0.06292156448261128 0.01098203822101685 -0.8538064125500407 131 123 116
0.05519760420072735 0.009753845887764755 -0.8540666789287303 127 119 111
0.05587081561344011 0.009731834254581996 -0.8577642657185793 129 117 110
0.05253789683773581 0.009134881516576064 -0.859807425173844 132 120 112
0.04932354492028625 0.008555268829437149 -0.8618902132227552 134 122 113
0.04594676739300892 0.007952691013583632 -0.8638959661629343 138 127 116
0.041147464092066224 0.0071465952698747184 -0.8652959101432545 146 136 126
0.037840592422163935 0.006554795290264606 -0.8673090490942069 158 150 140
0.03277071227650259 0.00571088204938533 -0.8685680099447781 168 161 153
0.028899889962238273 0.005039131259512254 -0.8703198654404797 189 184 177
0.025450610473555096 0.004428091158032714 -0.8722396720981406 206 202 197
0.049424505969765414 0.0077393254954754576 -0.8858699860935421 214 212 211
0.05518022879926929 0.008443294846988789 -0.891765602166285 216 215 217
0.06032730674709083 0.009059561848072682 -0.8974200243110745 216 217 219
0.06832672018376021 0.010082596940823182 -0.9043269245252568 218 217 221
0.004882074237771261 0.0009038088346011962 -0.8802449025113271 218 218 220
-0.0007149316793944593 -1.1460504279359185e-05 -0.8811623798556869 218 218 220
-0.0027356013991902683 -0.00041591411084726526 -0.8836272227538559 217 218 220
-0.006062676731849723 -0.0010064830965233404 -0.8855129513670192 217 218 220
-0.010726051137953954 -0.0017871983908744025 -0.8867997476054881 216 217 219
0.14281994046597116 0.01922557703148301 -0.9797116196566474 136 132 132
0.129991861782728 0.017277855594585084 -0.9774895639333178 111 102 102
0.11989881180932008 0.015720008193350322 -0.9764732347241196 101 90 88
0.09641233374835476 0.012262000007598549 -0.9692915531070052 100 86 83
0.08869948638178252 0.01104495801580476 -0.9692809626537213 97 82 79
0.08082769067286433 0.00980622556372724 -0.9691724148605086 94 79 75
0.07279011199918875 0.008544862391864805 -0.96896191647759 91 74 69
0.049845565513589374 0.005171762280614986 -0.9617984343981443 89 72 65
0.03825686130008485 0.0034100102144860867 -0.9598547133931054 86 68 60
0.13312317698884563 0.01672390041799062 -1.0077052214443063 85 66 56
0.1277355519152443 0.015836204375173607 -1.0087805427442496 83 63 52
0.019586385465517386 0.00040993471700769 -0.961385224927877 83 61 49
0.01638361844222455 -0.00016151900418787807 -0.9632855330984947 83 60 49
0.014860584078074529 -0.0004951905686511882 -0.9659742273110742 83 59 49
0.011670460670856975 -0.0010643065495328369 -0.9678646755467036 82 58 48
0.0167366211535733 -0.00046692059405571695 -0.9736951927433686 82 58 48
0.01781787079305769 -0.00043281157536122217 -0.9776315979535065 81 57 45
-0.00904557905468134 -0.004342681363564367 -0.9681102356795257 80 55 42
0.009625114624354919 -0.0018259496177812848 -0.9805135956485007 81 53 41
-0.003648569094348769 -0.003815959907233213 -0.9774830785425616 81 53 40
-0.013115430461971223 -0.005267873461220259 -0.976262224713539 81 55 42
-0.01917957610841374 -0.006239303416483058 -0.9766731267235426 82 56 43
-0.006784555797635844 -0.004610436465725926 -0.9861160963487041 83 57 44
-0.009316408854057795 -0.005084381882758053 -0.988258253031923 83 57 42
-0.010894040686986212 -0.005423809140502771 -0.990864445217961 82 56 41
-0.014490579331547876 -0.006047067003071144 -0.9924664194713314 80 54 39
0.022209876759166497 -0.001004472985910429 -1.0140937368571967 81 55 40
0.028226922997876103 -0.00027835460352902686 -1.0205398930247762 81 55 40
0.039783215904249464 0.0012251093639554164 -1.029781564033 81 55 42
-0.02101712574374759 -0.007432748511327494 -1.0027146474168136 80 53 42
-0.007988319943793731 -0.005721160431069981 -1.012656788310483 79 54 42
-0.04151413402165416 -0.01054254302539269 -0.9990972894944972 79 56 44
-0.05113244190251276 -0.012007307806660927 -0.9975578113049226 85 63 50
-0.055070830577338636 -0.012674793020382255 -0.9988792835646239 85 65 54
-0.05374130316941436 -0.012603745349279261 -1.002880545806633 87 69 58
-0.056519610099487416 -0.01310823384044571 -1.0047817849738483 88 69 61
-0.06069564648317309 -0.013808118415438261 -1.0059559167188128 93 74 67
-0.06467462808776053 -0.014479980760674908 -1.0072188684567733 95 76 70
-0.061373358939517855 -0.014133090276196289 -1.0122400061714556 92 72 66
-0.06171228704321048 -0.014295604944400315 -1.0153825522650295 88 67 58
-0.06668778647636826 -0.015106118641197236 -1.0161081645401355 85 63 52
