ply
format ascii 1.0
element vertex 689
property float x
property float y
property float z
property uchar diffuse_red
property uchar diffuse_green
property uchar diffuse_blue
end_header
0.09765633872104634 0.05626280161664831 -0.1031885665973208 96 74 67
0.09788895551398481 0.053061011253384076 -0.10592349566760415 93 72 63
0.09835945083709341 0.04507675708084084 -0.10844233702337774 101 79 69
0.0985758871572466 0.04218791078736478 -0.11116727677453715 104 81 70
0.09876739200835923 0.03979678476592441 -0.11390783638437782 115 91 81
0.09898418607599434 0.03689343297070236 -0.11661784247780711 136 112 102
0.09928249079042602 0.032343876473099886 -0.11923889870596684 143 116 103
0.09956576244684985 0.02809102132096119 -0.12186255821908273 118 88 69
0.09976581804821753 0.025511482650116178 -0.124562384295463 100 64 38
0.09997219532739679 0.022800886645468695 -0.12724855282820935 91 50 19
0.10024229191848033 0.018798843409255823 -0.12985607802867027 87 46 18
0.10019708905697038 0.02116876832777492 -0.1328159086941479 84 47 19
0.10017105008273673 0.023155077087065025 -0.13576166102445028 83 46 19
0.10036039803912172 0.020781664671180075 -0.1384529414943879 77 42 19
0.1002542743046111 0.024395694493236367 -0.14150669059609053 67 36 17
0.10014544306097362 0.028070939193832793 -0.14457644564182864 67 40 25
0.10040320428343999 0.02430846113577794 -0.14717833036777425 68 43 32
0.10052828631985372 0.02323703401089353 -0.1499478491837924 67 45 32
0.10058881306873592 0.023477483257989318 -0.15280400632826271 66 45 34
0.10046774452866117 0.02741514551766261 -0.15591762041876936 65 45 34
0.10043717268181471 0.029516207599996985 -0.15891467674827667 65 45 34
0.10088893120191167 0.023265809290774354 -0.16416160003453728 65 46 34
0.10069687452823578 0.028667725201931452 -0.16741373508033408 65 46 34
0.1005693277627459 0.03276058982148952 -0.17058309391962256 64 46 34
0.10036898509039366 0.03834930018180324 -0.17388312218391122 65 45 34
0.10069769352302758 0.0331194608625022 -0.17633867183854804 65 45 34
0.10049654353376325 0.03873514025489294 -0.1796608841200276 64 44 33
0.10068649836599503 0.036342949913785595 -0.1823384752871905 65 45 34
0.1005646346425092 0.0403447920673386 -0.18554908210029486 66 44 33
0.0995715945760267 0.06990203370735774 -0.20561318079754443 65 45 34
0.09963871603146214 0.07005886172426995 -0.20856115588218258 64 46 34
0.10026433898492546 0.05868495088439776 -0.21039798909029098 64 46 34
0.10033788639823775 0.05870153980884382 -0.21331805841579088 64 46 34
0.10017483803505818 0.06361179131876643 -0.21672669766646588 66 48 36
0.10035997607084901 0.06286827136301945 -0.22250860144081694 64 44 33
0.10051181256528074 0.061267935162191235 -0.22527175478872546 63 43 33
0.10034949436726633 0.06618365350245602 -0.22871997550374198 63 43 32
0.10035382588932534 0.06764760690262342 -0.23181439317835917 63 43 32
0.0994827641193748 0.09204095756835136 -0.2463510731432063 64 44 34
0.09993905076044521 0.08411244845574772 -0.24842354235209577 64 44 34
0.09996268798169333 0.0851993977378862 -0.25152265640200405 65 44 34
0.1001402400084938 0.08307456700436597 -0.2542474821845902 65 44 34
0.10080545820593445 0.07075455916258487 -0.25574861009583977 65 43 33
0.10079696152463438 0.07250742935901162 -0.25891662703674695 63 40 30
0.10053093322967745 0.07965518094629592 -0.262752661595007 60 38 27
0.10013246690705152 0.08959017878015471 -0.26695795614904017 61 39 28
0.10017694565444037 0.0918531766931717 -0.2732244306884325 64 42 31
0.1001326966935398 0.09438500539006878 -0.2765451235421221 63 40 30
0.10010191764228625 0.0966385549880043 -0.27983865567403976 62 39 28
0.10010793901598099 0.09812230163337549 -0.2830389435078709 60 37 26
0.10038253630450292 0.09395411404368739 -0.2854912430039712 59 36 26
0.10038242841867973 0.09556864620241853 -0.28871219832181255 57 34 24
0.10035377697559991 0.0977885587518188 -0.2920220513421923 57 34 24
0.10028653411406031 0.102451547030613 -0.2986973778156701 59 36 23
0.10037543745288284 0.1021993187102978 -0.3016832185544334 60 39 26
0.10056175996990192 0.09988587267037169 -0.30437553135295353 74 55 48
0.10067938982803395 0.09902409093835093 -0.3072713201070362 69 49 44
0.10081075148759748 0.09787050374687785 -0.3101232078239256 85 65 55
0.1009420236213929 0.09671758663972913 -0.3129729199774053 88 64 50
0.10110482250984808 0.09489406203449477 -0.31572053515116305 94 63 48
0.10118740350607869 0.0947728000700304 -0.3187198256015733 81 47 27
0.10142129120327266 0.09143408677080661 -0.32123112372409984 76 39 18
0.10131014337379685 0.09543476313667525 -0.32486002905596145 73 37 17
0.10142031297317594 0.09472803373737805 -0.3277727154481365 72 40 20
0.10136891711968027 0.09746564874891221 -0.33122395261749904 80 52 34
0.10142103940202456 0.09799956531458545 -0.33433644257135126 71 46 30
0.1013631351159097 0.10088500474916848 -0.3378275006067779 46 25 15
0.10130401143475778 0.10380211116965675 -0.34133395213323997 35 15 8
0.10120978131246644 0.10747594389103646 -0.34497401939587496 62 39 29
0.10113792822823481 0.11067759612925529 -0.34854921689340607 64 41 29
0.10126037543277844 0.10972150890052022 -0.35144571458685 68 43 31
0.10124190153440232 0.11178706123263091 -0.35484671322873923 65 40 27
0.10063809988675773 0.12642196623191018 -0.3603805875336503 68 43 29
0.1005873534644273 0.12920012763858013 -0.36393831209692723 64 40 26
0.10093879070920327 0.12333541896072671 -0.3660178126870875 65 46 33
0.10129757991238006 0.11730317485766578 -0.368051228331913 46 28 22
0.10156932460148504 0.11313629028516001 -0.3703941586332862 45 29 26
0.10177295121421054 0.11043152968694608 -0.37298401301348544 56 42 37
0.10194938067341372 0.10830969306755184 -0.3756707560804632 68 50 43
0.10214257880872608 0.10582280034043978 -0.3782864779800443 72 48 37
0.10237526242467902 0.10247889337187657 -0.38074013784026695 65 37 23
0.10254176388873833 0.10056167698101934 -0.38344593018837325 71 44 27
0.10273433024649747 0.09807752584539631 -0.38604232974557623 68 38 25
0.10299348465964366 0.09414680720615928 -0.38836282344932166 91 65 54
0.10325170993864011 0.09023016384909527 -0.39067496295992654 61 39 29
0.10338511251674704 0.08901712808822097 -0.39348820766208126 59 36 26
0.1041036157355212 0.07509023792020553 -0.3938710053486496 62 39 29
0.1043640147892276 0.07110174275839128 -0.39612494009368937 61 37 27
0.10471614587165029 0.06511049979023355 -0.3979789107022097 76 48 39
0.10506343680668591 0.059214975341977526 -0.3998341000282489 73 43 36
0.10536197288817768 0.05437287710279043 -0.4018798565212548 70 39 30
0.10537851067450034 0.055676764151287805 -0.40513365387107136 84 55 44
0.10563195451521362 0.05180940406962061 -0.40735655752337346 107 83 71
0.10584920197949818 0.04872724732842207 -0.4097271798036398 107 83 68
0.10621458272420524 0.0423993597590605 -0.41142875344456675 103 74 55
0.10654609538104363 0.03680273804044351 -0.4132616916701024 91 57 35
0.10665880712793424 0.0359926160669687 -0.41606762705307 85 47 23
0.10639733060705231 0.04339037684952234 -0.42058174930551373 79 41 16
0.10610711345285014 0.05143295082568247 -0.4252558044854705 77 40 14
0.10620905283569246 0.05087250668632982 -0.4281376525197516 76 39 14
0.1064315080726881 0.04766102891879268 -0.43045436197165765 77 41 17
0.10670691987682833 0.04327877258129833 -0.4325110095476551 81 46 26
0.10668351527484748 0.04547366381737558 -0.4359768324284652 80 51 32
0.10662346121244644 0.04848144294247438 -0.43962789185326995 81 56 40
0.10670107816381157 0.048456437149606645 -0.4426246117294059 82 63 49
0.10263569217598399 0.1524668888466632 -0.49081873806433146 99 75 61
0.10272886077222726 0.15219586990212675 -0.4939344653246704 97 73 58
0.10280084724112892 0.15239691472825467 -0.4971617326240396 95 72 57
0.10287287688333435 0.15259814765535595 -0.5003910703408144 95 70 56
0.10292800782769887 0.15317757852759167 -0.5037125776667138 95 71 56
0.10299406037191056 0.15351494388137626 -0.5069792366077143 94 70 54
0.10310685900352132 0.15280882025973008 -0.5099963295982601 95 72 55
0.1031831853764778 0.15291819462135667 -0.5132108286980646 95 73 55
0.10338468863511283 0.15022546417675378 -0.515741367231432 95 74 58
0.10352627363976546 0.14887160685451367 -0.5185944886940118 97 76 60
0.10359822408140024 0.14907825206052935 -0.5218315291487127 98 76 61
0.1035857905436298 0.15118085581566515 -0.5255436419232933 100 79 64
0.10361996722654401 0.15774673730699285 -0.5400011751294529 101 79 65
0.1036672803471783 0.15852322700986415 -0.543409456916535 102 81 67
0.10370357922521092 0.15955063190159852 -0.5468866287197377 100 79 64
0.10375433725408102 0.16025397755439455 -0.5502840197179238 103 81 66
0.10400168381660702 0.1565126649283174 -0.5525193814601889 106 82 68
0.10406531134166667 0.1569247557516491 -0.5558401235892191 109 84 70
0.1041752031309389 0.15629000442580088 -0.5588856886269074 110 85 71
0.10427744049755999 0.15582851261495945 -0.5619769005290949 109 87 70
0.1042435632108285 0.1584572540404005 -0.5658983020441697 108 87 70
0.10420927073227867 0.16110112569766313 -0.5698336303352863 109 88 71
0.10436443118060051 0.15944149883842357 -0.5726088186560707 111 90 72
0.10446368264396336 0.159052473309405 -0.5757275846012964 113 90 74
0.10466572328399316 0.15632117987971414 -0.5782021833461486 113 89 74
0.10481543224748144 0.15477926016043725 -0.580998518242958 112 89 74
0.10494163918869649 0.15377184678848743 -0.5839400664596209 114 90 75
0.10504721371988862 0.15323486259723046 -0.5870114673222692 117 93 78
0.10517942717550642 0.15208837326368088 -0.5899109689802834 119 95 81
0.10536879113658108 0.14963210444292468 -0.5924373636873902 118 94 80
0.10548889126764457 0.14875932140140818 -0.5954081409935226 113 90 75
0.10561649753144303 0.1477135468962527 -0.5983279861216777 110 87 73
0.10564699405749488 0.14889622481107076 -0.6018875736576282 111 88 74
0.10551957305561627 0.1537110991932375 -0.606504156059684 106 84 70
0.10553387467803435 0.1552758667903567 -0.6101913131321763 107 87 73
0.10555932027077533 0.15658784216803123 -0.6138109227890245 111 90 77
0.1055866493641302 0.15785973077849014 -0.6174243875036012 110 89 76
0.1057743646818363 0.15543502054395805 -0.6199491100255835 108 88 75
0.10573002040903301 0.15836486548936365 -0.624061139060284 109 90 77
0.10610765287247355 0.151548288528354 -0.6252674190614567 111 91 78
0.10613886868266434 0.15273366460885834 -0.628860630266888 108 88 75
0.10630449247832924 0.15080974422107726 -0.6315185798927119 104 83 70
0.1063337678505272 0.15204333861959013 -0.635131944686391 102 81 65
0.10646544050963447 0.15090445238078917 -0.6380254065905289 102 81 64
0.10658578877926835 0.15002721348548176 -0.6409970229790816 103 81 66
0.10635648194072568 0.1572769266500727 -0.646478150708037 103 81 67
0.10651830334407072 0.155440842396617 -0.6491623078368429 101 79 65
0.10667333618792545 0.15376018084112936 -0.6518904684253112 97 76 61
0.10682244508396799 0.15221523334220136 -0.6546572007874435 94 73 58
0.10708719822488884 0.14796961998833685 -0.6565684256090953 93 72 58
0.10723279688780352 0.14649978954575563 -0.6593474258627952 93 70 56
0.10746695554176373 0.14295743846336867 -0.6614625728361998 89 67 53
0.10763533219994036 0.14094854683425134 -0.6640588410384157 87 65 51
0.10780345095005117 0.13894265164940828 -0.6666509713625053 88 64 49
0.10795707696259466 0.1372735390623292 -0.6693469803102418 85 61 46
0.10812730803276548 0.1352122970116515 -0.6719114638835142 85 62 46
0.10812907624304247 0.13710572018721945 -0.675763173768545 87 63 46
0.10829623185570833 0.1351143294297359 -0.6783464724404635 88 63 46
0.10839279393723164 0.13478165311543416 -0.6814722362217813 87 63 44
0.10851421038497511 0.13386354784874677 -0.6844041467570131 83 60 41
0.10845247882133262 0.13726419468190476 -0.688774152503087 82 57 40
0.10841547413148102 0.1400886011883714 -0.6929636557892345 81 55 40
0.10949965793349195 0.11642333306574731 -0.6882469995397491 80 53 39
0.11052808038729636 0.09786907739503053 -0.6915513229296927 78 51 36
0.10957203946515265 0.12443035547134408 -0.7070829982146176 79 53 35
0.10966279892744285 0.1242304262779047 -0.7102461694865164 79 53 34
0.10979915199004875 0.12294601656209111 -0.7130326518979195 79 52 35
0.10995912483137982 0.12109730431562217 -0.7156190223745025 80 53 36
0.11007679620422664 0.12025439657087762 -0.7185541433763495 81 54 37
0.11025060594768338 0.11807080908948459 -0.721014702095397 81 54 37
0.11021442451263229 0.12090065391591483 -0.7252473839089356 81 53 37
0.11031269992692268 0.12052149570620786 -0.7283475482973256 80 52 36
0.11041426653575866 0.12006366554319262 -0.7314197456844467 80 52 36
0.1106322922179102 0.11681509212349789 -0.7334884810552821 80 53 38
0.11072378462664348 0.11659602564843713 -0.7366421937796066 77 51 36
0.1107093247260139 0.11892142987071623 -0.7407198327381762 78 52 37
0.11090634046067616 0.11616951599388502 -0.7429559991894242 79 52 38
0.11107902549938102 0.11399831817659271 -0.745397159858471 79 52 38
0.11121605943330143 0.11268223182347385 -0.7481470910129984 75 48 35
0.11139566925616126 0.1103379371408485 -0.7505142894780209 76 50 36
0.11148920273001918 0.11006702434371017 -0.7536445511937834 76 49 35
0.11169464410273991 0.10709307469645246 -0.75576790756484 76 49 35
0.11173064495663823 0.10821131793181057 -0.759414839842976 79 53 38
0.11260183934102831 0.09109213099617208 -0.7594142378897679 85 59 45
0.11242467994836185 0.09737046833961809 -0.7650018705996865 85 59 45
0.11268175484087771 0.0931191277497659 -0.7666002630522659 87 60 48
0.11250880675630154 0.09931179670940589 -0.7721820695884519 82 57 43
0.11277713772416985 0.0947816467513903 -0.7736653431782186 81 57 43
0.11338738892540447 0.08191556876742345 -0.7719180405726179 83 59 45
0.11348570164400675 0.08150508624036915 -0.7749570957847367 83 59 44
0.11364014001340329 0.07972488171912932 -0.777463074601581 79 53 40
0.11372275432957421 0.07969658701926521 -0.7806493843952026 84 57 45
0.11410674339070694 0.07428702407086223 -0.7849158295226656 91 65 52
0.11407139644788797 0.07714647504415661 -0.7892404086238631 87 63 49
0.11425350750602381 0.07467812779321994 -0.791457979752775 83 59 46
0.11443849179128615 0.07213498733450444 -0.7936389257329842 80 56 43
0.11437025031840707 0.0758124324281967 -0.7983063325762566 81 58 46
0.11538247035816274 0.054895845845110425 -0.7962556749587631 82 60 47
0.11555335162885577 0.05267277874434584 -0.798522418840714 83 61 49
0.1156683380647626 0.0538193044301668 -0.8053262419996439 79 57 47
0.11564576342594483 0.05637637721913567 -0.8095481371618177 78 56 45
0.11575667099594847 0.05563425047867626 -0.8124190811170683 83 62 50
0.1156948885396013 0.059172345512585295 -0.8170616557732683 89 68 57
0.11567368860499433 0.061711719943534374 -0.8213021574788795 83 63 52
0.1156946477180999 0.0632100523324542 -0.8251179277403186 80 60 49
0.11633249936275192 0.0493715532437803 -0.8225115070239358 81 60 48
0.11672880147636774 0.041517873494013285 -0.822378903403798 82 60 48
0.11703150260456653 0.03598104445850675 -0.8232003545081796 86 64 52
0.1170092157987206 0.03854090429817714 -0.8274391152925198 83 60 49
0.11699830840162403 0.04082292136994517 -0.8315695292584865 80 58 45
0.11708021951144225 0.042808312368715934 -0.8387507757383218 86 59 43
0.1171492322380765 0.043102608236498724 -0.8420475940769414 86 53 35
0.1173069950833449 0.04117253323008288 -0.8443846860555908 77 41 19
0.11728960876223765 0.04363678816763501 -0.8486248234866244 77 37 11
0.11724657572832875 0.046751859856919376 -0.8531583311519041 79 40 14
0.11780510880309483 0.03473824780798909 -0.851083841053416 84 43 19
0.11805337749638033 0.03051479671589441 -0.8523922788732148 85 44 17
0.11809118436441537 0.03159009810194338 -0.856024321345882 85 45 16
0.11810073585347743 0.0333818830538104 -0.8599785130336528 87 50 23
0.11815344565629694 0.034087834811269785 -0.8634577222982085 88 57 34
0.11813289961701633 0.036649433027335976 -0.867768285374392 87 59 39
0.11812154053600608 0.038984846967772616 -0.8719876351546968 86 60 41
0.1182794034544543 0.03703603445709164 -0.8742912252249618 87 61 41
0.11804121701416655 0.04513572409656395 -0.8811217183705843 84 59 39
0.11807633570849757 0.046309889284088704 -0.8848457332583572 83 58 38
0.11849398271135378 0.03775769952686263 -0.8841556293375818 86 61 42
0.11846217997201537 0.04063227586596649 -0.8886495422744184 82 58 40
0.11849950114595466 0.04175201701993936 -0.8923512928632258 81 55 39
0.11858790710219513 0.04157149938946941 -0.895460859319162 77 51 34
0.11835583579206488 0.049578854697870364 -0.9023469404638526 75 47 32
0.11843041356516987 0.04976208419588131 -0.9056403354276188 74 46 32
0.11856361255453363 0.04844574424447176 -0.9082392282362712 72 44 29
0.11854776361866991 0.050947818663659106 -0.9126152603332556 74 47 31
0.11849183059517399 0.0544849344675261 -0.9174854846521138 88 60 41
0.11858077106571832 0.05430923088794938 -0.9206256487640188 94 66 44
0.11871955472438596 0.05285226650764317 -0.9231628432547225 96 68 45
0.11887528875295296 0.050956620061150926 -0.9254890732960308 100 71 47
0.11907522968188403 0.047918308534328394 -0.9272679533236846 100 70 46
0.11917900564072256 0.047355526359869865 -0.930217221383063 97 63 41
0.11926248594645296 0.047316715589597866 -0.9334165166599004 86 51 29
0.11951858782813615 0.042814666117979905 -0.9344758996851831 74 37 17
0.11996443881843474 0.033390966805889266 -0.9331519493139923 67 34 16
0.12027071706749375 0.02756462950410629 -0.9335354900763259 56 25 11
0.12025493759217282 0.030082828482739327 -0.9379464591108383 55 25 13
0.1204705742836804 0.026596167339839064 -0.9394458161182225 61 36 20
0.1206368182544446 0.02438712266996254 -0.9415585448771497 67 43 29
0.12073165320267382 0.02403321922689973 -0.9445741107687572 80 57 43
0.12087300022721653 0.022467138430078887 -0.9469939531775 83 63 51
0.12076228012920312 0.027476015800773107 -0.9526536308586367 80 62 53
0.12086435856140652 0.02693805849681241 -0.9555858566614821 88 71 61
0.12080840352504896 0.030532995421513776 -0.960570720412491 91 74 65
0.12110319083495694 0.024953446985795796 -0.9609961968413147 91 74 65
0.12165212356672792 0.012700188829609105 -0.9580661506206827 91 74 67
0.12165681734428696 0.014702468811138292 -0.9622501491922023 92 75 68
0.1216366777325487 0.017362736490756397 -0.9667737677908304 93 76 68
0.12190612696519314 0.012412954307156776 -0.9674626787314486 93 76 69
0.12229001604120508 0.004439213101661649 -0.9666029956069098 97 80 73
0.12245519767768472 0.0022140347497459217 -0.9686417962739995 97 80 73
0.12264087931000053 -0.0005563699678170497 -0.9703961317983525 90 73 66
0.12266285638358397 0.0009935810598407369 -0.9743549731263839 90 73 66
0.12277466050702894 0.00017172262734624355 -0.9771018371233499 90 73 66
0.1228013156031902 0.001604131611903814 -0.9810095012253953 97 80 73
0.12287806979357752 0.0017124003667322862 -0.9842385847348535 97 80 73
0.12291435366101103 0.0028962457518957596 -0.9880276729279962 98 81 74
0.122755946464681 0.009258218882000319 -0.9945184500247308 93 76 69
0.12292306537324511 0.006974229458826475 -0.9965158127448928 90 71 67
0.123475282886962 -0.005572900127740962 -0.9931276652450383 88 67 62
0.12377565251646439 -0.01143141650135586 -0.993214996071509 84 63 58
0.12407844211848348 -0.01736726460193029 -0.9932428393552044 82 59 49
0.12405457036982794 -0.0145834223613691 -0.9978668142640541 80 54 41
0.12413577966973718 -0.014604493656086973 -1.0010124029154557 77 48 31
0.12424879692999202 -0.015476952194130866 -1.0037058069615443 76 43 25
0.12431285189090567 -0.015036961729475357 -1.0070990594182352 76 40 21
0.1241777154361582 -0.009244910056946054 -1.013364799574618 73 37 15
0.12419211215197747 -0.0074592267328004586 -1.017496990665345 69 33 12
0.12418338483567369 -0.005045782096768481 -1.0219755183497319 66 30 9
0.12472998481120033 -0.015420391357008942 -1.0227066950805344 65 30 7
0.12502874877576534 -0.021312676402979458 -1.0226635429800786 67 32 9
0.1255988211899234 -0.03455696905585359 -1.018583594501515 65 30 8
0.12568209981142803 -0.03464821866636575 -1.0216702212874673 65 31 8
0.12577173824869067 -0.034911145958633955 -1.0246635443212166 65 29 8
0.1258528365503447 -0.03494187275557102 -1.0277854881610229 67 31 9
0.1259447131193544 -0.03526463510789839 -1.0307471372680932 74 38 14
0.1260852357645896 -0.03691095796315594 -1.0329743290299556 83 48 24
0.12623288214162617 -0.03875433125329894 -1.0350875181505712 92 59 35
0.1260765064298742 -0.03230806187125765 -1.041826426640259 93 62 36
0.12614686849379328 -0.03203764308680583 -1.0451285131788144 91 63 37
0.12623996401878795 -0.03238718965635211 -1.04808450538168 94 67 41
0.12639293107911212 -0.03437567357657427 -1.0501166723947974 98 72 47
0.1264524255034155 -0.033805885562724444 -1.0535901953178475 100 74 51
0.12649749115685177 -0.03283773697624516 -1.0572931159160222 100 74 50
0.12653690490274194 -0.0317109321199901 -1.0610911159655452 99 73 48
0.12656954948960086 -0.03039415339607464 -1.0650029004254549 95 69 46
0.1265925101675553 -0.0288064201927115 -1.0690758245272431 90 64 44
0.1266204921802546 -0.02735226755919913 -1.0730790087494757 87 63 45
0.12664765848429715 -0.02587101561497153 -1.0771043078353013 83 60 43
0.1266221794734369 -0.02292973667705729 -1.08197968904761 78 56 41
0.12686068898355857 -0.027287112164918775 -1.0826375255824003 68 46 33
0.1269776193424144 -0.0282848691726503 -1.08523423286407 59 37 27
0.1272312151842199 -0.03307612295065006 -1.085617532524479 48 27 19
0.1269748237828036 -0.023710069199118528 -1.094263122086873 53 33 25
0.12684050061043697 -0.01771523641375823 -1.100965861373161 56 32 24
0.12765185461599654 -0.029008121971910064 -1.1102549877353853 77 41 17
0.12779497874916335 -0.030743921631938745 -1.112405555903964 81 44 18
0.1279143589802129 -0.03181679354698323 -1.114948377604446 83 47 21
0.12811587785041217 -0.035198919833766065 -1.1161023915073547 86 53 27
0.12825102824238818 -0.03672159056877737 -1.118365715590069 87 57 32
0.12838601450260653 -0.03824242270279973 -1.120626269855545 84 58 34
0.12851899976735665 -0.03970961127864023 -1.1229154381296071 86 60 38
0.12852872576350427 -0.03769913246968809 -1.1273133426252793 88 61 41
0.1285979624989116 -0.03736497838561943 -1.1306985746928169 87 60 40
0.12867024692968543 -0.03711519771153585 -1.1340348925374102 85 59 40
0.12904262302260902 -0.04536928150417266 -1.1321632817824876 88 64 44
0.12894300029788494 -0.04024833733015022 -1.138482425528823 89 64 44
0.12865840200595857 -0.027535694355831877 -1.1527059677796114 81 57 41
0.12861117265476274 -0.02386176330848644 -1.1581911365377027 72 52 38
0.1285522945780925 -0.01984508798358542 -1.1639037280006395 85 72 60
0.08299448912093986 0.17494487015109875 0.11693532270885726 183 183 186
0.08303349183953936 0.17560257030942902 0.11402738969754718 184 183 186
0.08336213833093109 0.17090834218505502 0.11075390213717244 177 165 159
0.08374271669348227 0.16524779389505173 0.10742885627288312 133 103 83
0.08408531172110048 0.16028308760305285 0.10416419176363237 119 83 60
0.0841459933869565 0.16053337129627 0.10124308624666764 106 75 54
0.08437218810330048 0.157717077742407 0.09813028180561376 98 71 51
0.08472338827439212 0.1525791585025265 0.09488422868242687 96 68 47
0.0849208858113558 0.15028728493430446 0.09181974543187768 96 68 46
0.08488083729994045 0.1524044029125974 0.08901419684797361 96 68 46
0.08464135473682313 0.158231320242834 0.08640905681724989 95 67 45
0.08470483792202144 0.15843259408559274 0.08347870059910156 95 67 45
0.08468660906962426 0.16015536514662262 0.08062730377205563 96 68 46
0.08472927307107936 0.16074710966732803 0.07771123212919745 97 69 47
0.08472524314159315 0.16221041411561546 0.07483590944626053 98 70 48
0.08469043693659095 0.1642502486299496 0.07198313245252473 99 71 49
0.08478797257136059 0.1638238297351413 0.06900665596904323 100 72 50
0.08489277899082494 0.163261629524968 0.06602397825582448 101 73 51
0.08492419920733632 0.16407060916940602 0.06310244283067226 101 73 51
0.08503798782028076 0.16334100479486616 0.06011140412073463 100 72 50
0.08509011546892897 0.16376483794819713 0.057168965518508044 100 72 50
0.08527297966743715 0.16174166805939366 0.054126446685720433 101 73 51
0.08535046114077913 0.16169104643064316 0.05116440425787107 102 74 52
0.08539803109985523 0.1622018486400809 0.048222006574880946 100 72 51
0.08542141578466513 0.16316779618132854 0.04529300390947401 99 71 50
0.0854366526893434 0.1642886860368132 0.04236517823974577 100 71 50
0.08554550056228599 0.16365264526571704 0.0393756662671115 104 73 52
0.08564281821045074 0.1632331283114714 0.03639350418510007 102 71 50
0.0855640882275714 0.16612645265322698 0.033509299065913524 100 69 48
0.08570305847633015 0.1649249088928682 0.030500255616164217 97 66 45
0.08574752950089168 0.16550304199192317 0.027540884318099465 98 67 46
0.08583876965361122 0.16520063404770702 0.024556413978299493 98 67 46
0.08598972847051836 0.16377145738471022 0.021544917419843133 98 67 46
0.0860797538542303 0.1634915374508548 0.018561893180976067 96 65 44
0.08628513379895156 0.16103191379681245 0.01553330032819952 94 63 42
0.08624981935564394 0.16312113641515383 0.012598212215814423 94 63 42
0.08627685321169737 0.16403402348079626 0.009634806218622567 94 65 42
0.08634890928215383 0.1640961921163033 0.00665360000478336 93 65 41
0.08640246569971426 0.1645096373376374 0.0036761491698388063 94 66 42
0.08642495531364215 0.16551343678524497 0.0007040734640635753 95 67 43
0.0864744372147794 0.16600700815864353 -0.0022782704483710857 94 66 44
0.08653441210100782 0.16630260921930737 -0.005265385446803564 95 67 45
0.08661587997220475 0.1661907632349681 -0.008258248390062102 96 68 46
0.08652645041649758 0.16932957861018286 -0.011228061201617828 98 68 46
0.08664648287772013 0.16848698258140976 -0.01423191582711572 99 68 47
0.08675144559259965 0.16793080461801232 -0.017233270279437964 99 68 47
0.08674699550929742 0.16945977308869328 -0.02022814652158887 99 68 47
0.08690211686750318 0.16794804091906568 -0.02323319598437223 99 69 45
0.08699117500750947 0.1676956769772146 -0.02623508299577513 98 69 47
0.08702284600513246 0.16853967655032007 -0.029239175490449267 93 66 44
0.08711501467828837 0.16822914455901078 -0.0322435514260401 89 63 43
0.08724634308031187 0.16716973851318292 -0.035244888465700806 85 59 42
0.08732007034928606 0.16721199852265253 -0.03825095766099536 86 60 43
0.0874211917291707 0.16673018864349856 -0.04125449341792358 87 61 44
0.0874428802070934 0.16777096705640662 -0.04427155003623237 81 55 40
0.09155384438958503 0.10310567621857579 -0.07288652178724325 95 75 67
0.09204545552294922 0.09503477147904622 -0.07560769643264374 111 92 85
0.0924993058218501 0.08768284634701354 -0.07832528380513423 95 76 68
0.09292301977684284 0.08090392980633936 -0.08103835315005867 86 63 50
0.09325098165407066 0.07596996595765122 -0.08378753718738548 78 51 39
0.09334548611080412 0.07555372283028271 -0.08666513158464188 69 40 24
0.09332990693964976 0.07727244061748988 -0.08961300715571924 66 36 15
0.093402287488154 0.07728713532269053 -0.09250859820805231 58 31 14
0.09378334195268957 0.07130717839198811 -0.09519004747219778 89 68 57
0.09417804761951713 0.06505365964059377 -0.09784450861458482 88 72 65
0.0946491409062418 0.05730565753937701 -0.1004231930127421 83 65 58
0.09508791144509081 0.050175980908010176 -0.10300479833743438 90 67 59
0.09536048646952902 0.046273862932492915 -0.10570156001550085 96 73 65
0.09547321588324843 0.04548268761255183 -0.10852297529430979 105 82 71
0.0957462092749089 0.04156432947353615 -0.11120261609248981 97 73 63
0.09598473262782121 0.038313724819970786 -0.11390269138407237 113 90 82
0.09621659681577376 0.03518898850187705 -0.11660021664506517 142 119 109
0.09651753290074536 0.030709653776613003 -0.11922249588033813 146 120 106
0.09679905092984137 0.02660419350573459 -0.12185153284350056 126 96 78
0.09693752653516448 0.025294238177282716 -0.1246161544066508 105 69 43
0.0970988170211047 0.02353582882340868 -0.1273538028079788 96 53 22
0.09747178189581505 0.017624199833219688 -0.12985674322308027 91 49 19
0.09751130646951285 0.01824836645887669 -0.13271578596438305 86 48 19
0.09751610531065352 0.019556100001099894 -0.13561793832191027 82 47 20
0.09744987649184339 0.02226246877780005 -0.13860925058134807 76 42 19
0.09747421222918937 0.0231920896655217 -0.14150055950900756 69 39 19
0.09738464767132572 0.026365830886913834 -0.1445374634047856 66 40 24
0.09785784095210237 0.02269824764006291 -0.1556619237791721 65 45 34
0.09839436484128751 0.013515501208654662 -0.1578550050772218 66 46 35
0.09795206637963527 0.023675055810988235 -0.16141761401682755 65 45 34
0.0977599486948213 0.02889970900872866 -0.16464857212318879 64 44 33
0.09762307200126928 0.03303889394972444 -0.16781496780273922 64 44 33
0.09774269488390334 0.032101290442205985 -0.17060556737694665 64 44 33
0.09781576731901961 0.03208618075755018 -0.17346673280918382 66 46 35
0.0975897871496013 0.03800777828896404 -0.17680271568316758 64 44 33
0.09765153895400916 0.038223265927870544 -0.17969401577897626 64 44 33
0.09770868670924679 0.03853122835358187 -0.1825948585531671 67 47 36
0.09780608876448288 0.03803940792196766 -0.18543040685895992 65 44 33
0.09661882269972502 0.07049658631061463 -0.20574869852568115 65 43 35
0.09735088346470912 0.057336274559715336 -0.20743258490255956 63 45 33
0.0974416975564275 0.05699281376061932 -0.21031504780270024 64 46 34
0.09743714382325544 0.05856001533140768 -0.21338511531133525 66 48 36
0.09729483508884357 0.06289214602241194 -0.2167366517663012 66 48 36
0.09744251044166208 0.06141319101999906 -0.21951493696108215 65 47 35
0.09758278464684507 0.060081192148947395 -0.222305036821644 64 45 33
0.09781759891839248 0.05684789282218036 -0.22489418233585134 63 43 32
0.09766014285956151 0.06149935004901205 -0.2283083988105819 63 43 34
0.09781919630691845 0.059788245486550665 -0.23105560470689962 63 43 34
0.09719673034600804 0.07833645803832165 -0.24488424649662008 63 43 34
0.09713560759022874 0.08108395150833676 -0.2481629685871138 65 45 36
0.09767748964727425 0.07164250563194385 -0.2500316139940116 66 44 36
0.09776141818702004 0.07145483796194196 -0.2529646285530557 66 43 35
0.0978558539565523 0.07105471350080511 -0.25587293359794444 65 42 34
0.0979084396759019 0.07150289550560973 -0.258884003179063 64 41 32
0.09772006509998704 0.0768404760619022 -0.26249733616375953 61 39 28
0.09736890406467895 0.08549198048930984 -0.26653988819655305 63 41 30
0.09695913337265147 0.09534863884800554 -0.27076188127072254 64 42 31
0.09738711987629772 0.08818674948226775 -0.27284980276984544 63 41 30
0.09732576784028164 0.09097218366281676 -0.27619813676297716 61 39 28
0.09725803779014519 0.09389259604843689 -0.2795739433716565 59 37 26
0.09731523549079636 0.09427199974340097 -0.28262492994632094 58 36 25
0.09755582031953894 0.09091184894240718 -0.28517941180698725 55 35 26
0.09774652937498653 0.08856521248874255 -0.2878616031551027 53 33 24
0.0976695751038978 0.09168413845210496 -0.29128398820496026 53 33 24
0.09754388047895453 0.09580532338351791 -0.2948556839608082 55 34 24
0.09748738141953163 0.09851776933812509 -0.29824474329283773 57 34 22
0.09749345134162811 0.09995381069330023 -0.30146331620719685 60 38 26
0.09771387473213594 0.09699933038633965 -0.30406107361981577 77 60 52
0.0978683702621583 0.09539315690123223 -0.30684548220140395 75 57 51
0.09799670883566355 0.09432206366034795 -0.309704230896382 85 62 56
0.09813401531419616 0.09306566722680035 -0.3125336530183206 91 66 54
0.09830864596358847 0.09104044341783105 -0.3152459949295451 87 55 36
0.09837596661213302 0.09122096988890568 -0.3182852241190659 81 47 22
0.09857190118883641 0.08875356963211894 -0.320923802710176 80 46 20
0.09842536371278887 0.09334201131923833 -0.32463952875077867 70 35 14
0.09856090090755318 0.09211962931649033 -0.3274694602391204 71 39 20
0.09852867646010154 0.09435951184992558 -0.33083932641221553 76 46 30
0.09852018861980566 0.09611325196670001 -0.33414054064656856 71 44 28
0.09848498321860803 0.09842302447098676 -0.3375373580378556 52 28 17
0.09844349498023691 0.10086726909872229 -0.34096436593698787 34 16 7
0.09835717443540068 0.10424479191572594 -0.3445523170718199 60 38 28
0.09827776148451721 0.10748531760905336 -0.34812957133346656 64 41 28
0.0983618625961293 0.10733943055775601 -0.3511560685647743 67 44 30
0.0983373486322368 0.10944925482003036 -0.35456141042504924 66 43 29
0.09822252796843597 0.11343986845858126 -0.358292741110788 66 43 29
0.09804992332395496 0.11863949800438205 -0.3622442060402309 68 45 32
0.09804938653250722 0.12026678903699176 -0.3655979038393729 61 41 28
0.09835449433648534 0.11553027401650359 -0.36785193340607036 48 30 21
0.0986408189260228 0.11117827954112844 -0.370159929920781 46 30 26
0.09886256431950985 0.10816734343846962 -0.3726929301586427 50 35 31
0.09904005196381714 0.10607639700809601 -0.37538205700080746 78 58 51
0.09928268060845932 0.10262120135844936 -0.3778203215788376 73 48 39
0.09946700332283868 0.1003806368547894 -0.38046970533980307 69 41 29
0.09961855349779634 0.0988231667701528 -0.38323853405397107 65 37 24
0.09982217028255704 0.09617287846826426 -0.38580190192185493 68 39 25
0.10010137160337532 0.09193387632589302 -0.38806227291232154 78 53 40
0.10032521982647528 0.08885025343544478 -0.39052776172560266 70 48 38
0.10055006414368702 0.08574127591564648 -0.3929800953332234 64 40 31
0.10118413540749777 0.07402484893265145 -0.3937797289245528 62 39 30
0.10145895001105662 0.06984834301562778 -0.3959960709537061 61 37 28
0.10177313974039776 0.0648364109728498 -0.39803839431992105 73 45 36
0.10232194872780451 0.054872140636412534 -0.3990969155128118 72 43 35
0.1023652290322015 0.05555492450045424 -0.4022261954149446 66 36 28
0.10252548053908321 0.053770220147666976 -0.40486818189257223 84 55 46
0.10274774997839325 0.050672881592898025 -0.40724273024001034 101 78 65
0.10297440221361004 0.04747835157420194 -0.4095891955827039 111 89 73
0.10333787208725716 0.041383552715457 -0.4113363974002824 110 84 66
0.10364183216817016 0.03653969197389809 -0.41332236407875833 89 55 33
0.10377394544553462 0.03533142352289681 -0.4160460340995976 81 42 18
0.10366656804371789 0.039203189228687 -0.4198255126222455 80 41 16
0.10338679009603813 0.04674319544610753 -0.4243884864262281 77 42 15
0.10337658708581739 0.04856728866944966 -0.4277677172475007 76 40 13
0.10349049937504501 0.04775506661347569 -0.4305923053074618 78 40 16
0.10388025343330876 0.041069635558838476 -0.4321549903585778 80 46 23
0.10371452375722452 0.04620955824444 -0.4362547643373131 80 50 28
0.1038456544776425 0.045028167738304856 -0.43899528472403876 80 54 35
0.09993134706142186 0.14382062277068142 -0.48894335897925373 100 75 57
0.10000377718664756 0.14398297840685356 -0.4921471562200414 97 75 55
0.10007625649310442 0.1441453067463269 -0.4953528436403669 98 74 55
0.10012286800671599 0.1448660289670426 -0.49869266913035776 100 74 56
0.10021106556265448 0.14469194245948844 -0.5018228354776774 99 72 53
0.10027254346555749 0.14509502257089255 -0.5050923538429908 95 69 49
0.10054362518636065 0.14097156814524092 -0.5072709602672779 92 66 46
0.10063670763290632 0.14069029410242584 -0.5103721870365219 90 64 44
0.10071220510367257 0.14078982985925897 -0.5135671159246005 93 67 50
0.10079864254089818 0.14065334744236455 -0.516705599260552 93 68 51
0.1008851100181365 0.14051673466717735 -0.5198450013429963 94 68 51
0.10094575425406346 0.14094092818806095 -0.5231253082911199 94 70 53
0.10101697142398076 0.14113702450799354 -0.5263510688858759 93 71 55
0.10103672281363779 0.14245283251606827 -0.5298618497319019 97 75 59
0.10115182644142037 0.14169742018278733 -0.5328514172181654 99 77 61
0.10122976606490203 0.1417506223047002 -0.5360469220033376 99 77 61
0.10132148014275547 0.14150450785902477 -0.5391669030145224 101 78 61
0.101134420043479 0.14733920011707313 -0.5438632610362392 99 75 58
0.10148220447428176 0.1415089226721754 -0.5455381780144917 100 75 57
0.1015494259761556 0.14179941377092808 -0.5488015454702718 102 79 60
0.10165671730523881 0.1412148905928295 -0.5518362888772083 104 79 60
0.10136120307625765 0.14944698113213153 -0.5572117163583354 105 77 60
0.10145854830756659 0.14908764888167836 -0.560319791318436 104 77 59
0.101515032020536 0.14962444828854438 -0.5636689487195673 105 78 59
0.10158234347738739 0.14992534426089163 -0.566957456310471 105 78 58
0.10174188878713625 0.14820149615968736 -0.5696977024434954 107 80 60
0.10186815403393115 0.1472070564223294 -0.5726333572405409 107 79 59
0.10195383262901324 0.14710476369130285 -0.5758127107805219 106 79 59
0.1022738488175653 0.1418416854802532 -0.5775648003591092 105 77 58
0.10234268315786614 0.1421073097145127 -0.5808404374503364 105 77 57
0.1024109270162243 0.14238722219408906 -0.5841223342131554 105 77 57
0.10248352279963303 0.14257231066978282 -0.5873798360094291 104 76 57
0.10259549130804764 0.14188820180608433 -0.5903931837635191 106 78 59
0.1026025725591829 0.1435242194233412 -0.5940665331261029 107 78 59
0.10273525437965608 0.1423826291094516 -0.596950996566986 106 77 60
0.10269587696750378 0.14505334769221606 -0.600931258770484 106 78 60
0.10277648982950334 0.14506777512088145 -0.6041521637506259 105 78 60
0.10283151919735085 0.14565108857551018 -0.6075402208428738 104 78 60
0.10286885657509738 0.14662944944449782 -0.6110472723224278 105 78 61
0.10293223147448989 0.14703118417490535 -0.6143890912037264 101 75 58
0.10296731404955331 0.14806437191013422 -0.6179205975303688 98 71 53
0.10304274607322102 0.14820104436311934 -0.6211899560006083 100 75 57
0.10284766818169655 0.15437261011595313 -0.6262676015443398 102 78 60
0.10293556826038823 0.15423852844366404 -0.629468961205314 100 76 57
0.10301099240882113 0.1543837968070189 -0.6327558355672442 99 73 55
0.10334440787479865 0.14875974770884173 -0.6342896813927907 99 74 55
0.10342532015259007 0.14877901794096102 -0.6375324822698861 97 75 55
0.1037065152355343 0.1443112714411029 -0.6393973664195852 99 75 57
0.10375918196240835 0.14496160558066357 -0.6428308992480456 98 73 56
0.10392686561421896 0.1430319510180833 -0.6454664582710923 94 70 52
0.10404250267250487 0.1422690123778112 -0.6484615317889139 90 65 48
0.1041805845228222 0.14100068949136607 -0.6512969112037273 89 64 48
0.10452928459709208 0.13498962016373173 -0.6526331168453472 87 62 46
0.10467526451316468 0.1335358904602753 -0.6553966062101519 88 62 46
0.10494240292735987 0.12934783922846183 -0.6572851490408965 87 63 44
0.10486875878669324 0.13284549627021558 -0.6616240377919603 88 63 43
0.10497516527299089 0.13228230857843842 -0.6646680046160759 84 58 39
0.10502912098661411 0.13290508646092344 -0.668095410012675 83 57 38
0.10517133858087326 0.13153189632916534 -0.6708770077980235 84 58 38
0.10531018925424586 0.1302332490633526 -0.6736799286076723 85 59 40
0.10554057715298383 0.12685704332332104 -0.6757974773572695 84 58 40
0.10572684254028734 0.12447692376643718 -0.6782343275394972 83 56 38
0.10589325638264153 0.12254421779163717 -0.6808132938455862 80 54 36
0.10597454152854228 0.1225447464950914 -0.6840319850578008 79 53 35
0.10615054804225946 0.1203898722800723 -0.6865298987152795 80 53 35
0.10651024642412638 0.11404630514172706 -0.6876118727019371 80 53 35
0.10620606547506697 0.12283250083707183 -0.6937934315843993 79 52 34
0.10632512309885254 0.12197431282443726 -0.6967263609595568 78 51 33
0.10637804465165787 0.12262651914486251 -0.7001738636679488 79 52 34
0.1064080574759475 0.12380473542784479 -0.7038054730309232 80 53 35
0.10651917163001642 0.1231293593917995 -0.7068031135730808 81 54 36
0.10668015148369128 0.12131087687440908 -0.7094038761985093 80 53 35
0.10680101690543536 0.12040985250086096 -0.712319524372046 81 54 37
0.106963401022341 0.11855475174953932 -0.7148999284434607 83 56 39
0.10709562557373975 0.11739001891602943 -0.7177182945282639 83 56 39
0.10724160859047134 0.11590742642988336 -0.7204220462014796 81 53 37
0.10720467110685825 0.11863437573535815 -0.7246155112444879 79 50 35
0.10725452044821837 0.11936729102118832 -0.7281087910485943 77 48 34
0.10731246956879231 0.1199155992789904 -0.7315398241719924 78 49 34
0.10774533796616896 0.11557958135755572 -0.7396817518858533 75 47 32
0.10789833974273169 0.1139286126456335 -0.7423141278918203 76 49 34
0.10809043885743863 0.11136906644939137 -0.7446097758510052 74 47 32
0.10828247857032204 0.10880680003159715 -0.7468974307990158 72 45 29
0.10862834874680134 0.10645289087619253 -0.7557064432766447 74 47 31
0.10882943672411469 0.10556780153692104 -0.761830673246545 78 50 35
0.10957940082435587 0.0899699234842433 -0.7591678165291289 84 56 42
0.10989530939251829 0.08448177752067539 -0.7602905270334205 85 57 43
0.1102668906388584 0.07768200974484821 -0.7608967282531057 82 56 41
0.10997091466518372 0.08649402119175036 -0.7674566142222928 81 55 40
0.11028159484069242 0.08111138926687698 -0.7685911963300481 79 53 38
0.11050926885331475 0.0776656239138605 -0.7704570542272493 85 59 44
0.11062256272286236 0.07689889416242722 -0.7733515122262042 83 57 42
0.11036301991054653 0.08489206166085388 -0.7796553155574985 81 55 40
0.1104449433980707 0.08487046332003928 -0.7828533841757449 81 55 42
0.11098242205496242 0.0760244610602849 -0.7857826549818518 80 53 42
0.11121368963148222 0.07247357550037416 -0.7875727449377711 81 54 43
0.11129203833154186 0.07252742206014998 -0.7907857791699167 79 52 41
0.11140383785315396 0.07179155934932804 -0.7936851020270165 80 53 42
0.11122915492676773 0.07783330170163204 -0.799300813434108 75 51 39
0.1121131343543222 0.05881490572171852 -0.7948487875014819 76 52 40
0.1128263959026237 0.05329851229623822 -0.8116417511284812 86 63 51
0.11282156903120964 0.05532597570259984 -0.8156555740913353 81 58 45
0.11280965343549017 0.05752760962321951 -0.8197500204016432 68 46 33
0.1127637688655844 0.06054632816543887 -0.8241944430564828 74 52 39
0.11347976060147288 0.04534630357496501 -0.8210119573418653 77 55 41
0.11384090543843073 0.03861369413008875 -0.8213443273761794 77 54 41
0.11410195693901054 0.03426760741974541 -0.8226641653578262 79 57 43
0.11416380735800181 0.03469336027426834 -0.8259954519129207 78 56 42
0.11397012198468388 0.041258585988440594 -0.8319446563084714 78 54 40
0.1143571870485891 0.037715161943395706 -0.8399173156103046 81 48 28
0.11421428887614449 0.04502458839990628 -0.8494203297335348 77 37 11
0.11423342636358369 0.04650266235390382 -0.8532433438927967 78 36 11
0.11476872886033515 0.035497936967501434 -0.8516093552457855 81 40 14
0.11506722804137832 0.030205947641908357 -0.8524497540100826 82 42 16
0.1150830285901211 0.03175685229458859 -0.8562917270333587 84 45 16
0.11517116079956849 0.03155661965098147 -0.8593650805067575 87 52 25
0.11525930662024751 0.031356514066282704 -0.8624392362835824 88 59 36
0.11534997705232997 0.031095478479112704 -0.8654869596366035 90 62 42
0.1154275854049944 0.031152723892661965 -0.868677737032684 88 63 42
0.11538861681954138 0.034051532372481944 -0.8731472329273403 85 60 38
0.11529441605763772 0.038304441851619825 -0.8782387753329308 83 58 38
0.1153659091919059 0.03852130334117232 -0.8815185259668932 81 56 36
0.11559189657105372 0.034963271999635406 -0.8830847842560255 82 56 39
0.11568385496480253 0.0346781279105452 -0.8861334901270245 82 56 39
0.11568544827664894 0.03660663137212167 -0.8901962103444024 80 54 39
0.11583533458540365 0.034904038554681105 -0.8925981969026379 79 52 39
0.11550596133448598 0.04496209078919129 -0.9004203297703794 77 50 35
0.11556958364966903 0.04538601744822192 -0.9038179676730236 75 47 34
0.11553652346962645 0.04818976195963892 -0.9083241827081703 73 45 32
0.11553752195855657 0.05016170101859238 -0.9124534413792448 75 47 33
0.1154279941258683 0.05486295695433907 -0.917868131637942 84 57 39
0.11551021571883222 0.054843787482227346 -0.921083037865655 89 61 40
0.11565508915184622 0.05327797304218346 -0.9235702682316579 92 64 41
0.11599415131130901 0.04690818699663017 -0.9237809999856766 96 67 43
0.11603266178076677 0.047965213359362074 -0.9274976367324258 95 66 42
0.1161853091077844 0.04619722134775807 -0.9298732798547737 93 62 39
0.11630832372275363 0.045161422531631384 -0.9325944841816634 92 59 36
0.11647235665882578 0.04310578319230782 -0.9348242449806227 84 46 26
0.11685970931695591 0.035495403341495715 -0.9343735606071444 67 34 16
0.11731845978459968 0.026092989517632573 -0.933032472763584 56 26 12
0.1173963118539917 0.026159972557415243 -0.9362530929581921 52 22 9
0.11753423159265032 0.024730052420368256 -0.93874690814454 56 28 11
0.11771894554450625 0.02212977929915251 -0.940665755245696 70 44 29
0.11777965979038058 0.02262374495958258 -0.9440935385115014 76 54 40
0.11774322485385261 0.025550179572577394 -0.9487206221330374 81 61 48
0.117800355136173 0.02614047591874953 -0.9522063241930422 84 66 56
0.11791749236813709 0.025228455777066672 -0.9549515906939471 86 67 59
0.117932612527224 0.026875933693480347 -0.9589669208035457 86 69 61
0.11769034390162017 0.03499515472406335 -0.9662159370142368 90 73 65
0.11795330573440575 0.03042450125562708 -0.9671456498604301 93 76 68
0.11855303786272607 0.017364647708747877 -0.963799780705387 92 75 68
0.11854350051339253 0.019635994874281748 -0.9681329505180323 92 75 68
0.1189332580062806 0.011836685689868759 -0.967385626223878 93 76 69
0.11936949416701594 0.0028470815493873425 -0.96600948431339 93 76 69
0.11942528382927821 0.0034605981598120616 -0.9694902772487142 95 78 71
0.1195739991691454 0.001723628313591713 -0.9717746153375386 95 78 71
0.1196844294990436 0.0009541556973387266 -0.9745500342520667 95 78 71
0.1197801436557874 0.0005573246123905529 -0.9775157733811697 94 77 70
0.11967681200399088 0.005216709254016794 -0.9830888938920218 97 80 73
0.11999915724283322 -0.0009376832032245985 -0.9830846213093888 98 81 74
0.11973068807243112 0.007936248235478616 -0.9908617577122244 96 79 72
0.11989578449694972 0.005780791119697121 -0.9929265970149292 93 76 69
0.11975232365626388 0.011494127342788762 -0.9990971016743645 93 74 68
0.1205550064159874 -0.006945899546061993 -0.9926265427530568 91 70 66
0.12061205458437668 -0.006359341610668187 -0.9961012410750731 89 67 63
0.12086125640000944 -0.010689556564651481 -0.9969849381019784 85 62 52
0.12116996523859794 -0.016553514087413748 -0.9970432338289001 79 54 41
0.12127233345335417 -0.017135658185707517 -0.9998880345977923 77 45 30
0.12143586541082804 -0.019289165556603677 -1.0018949896744263 76 40 22
0.12139837685158322 -0.01627756676777263 -1.0066569942491046 72 37 17
0.12124419647478112 -0.010254346799327657 -1.0130458646644467 68 33 13
0.12136894448465908 -0.011405061610759076 -1.0155973519095673 65 30 10
0.12153345834682294 -0.01358339672443866 -1.0175916828506533 62 27 8
0.12168290820515762 -0.015376599542679129 -1.0197884708813454 61 26 7
0.12198770256922303 -0.02118988167844639 -1.0197969149075536 64 29 8
0.12224489989676718 -0.02578316806351988 -1.0204515054329901 66 32 9
0.12272520766861245 -0.036168247221643454 -1.0179257284099998 64 30 7
0.12280857654234571 -0.03627680285384863 -1.0210006647973873 61 29 7
0.12294401347867466 -0.037737175517993576 -1.0233330431259406 61 26 9
0.12301063191221492 -0.03741028577930354 -1.0266480282384196 62 26 7
0.12310815657318497 -0.03788635234646483 -1.029521102753127 71 34 13
0.12324424026093121 -0.03936758567623211 -1.0318358178075318 82 47 23
0.12335492579860864 -0.040188512493189985 -1.0345146246180397 90 59 34
0.12340636375310236 -0.03946258403828705 -1.0380562977031502 89 59 33
0.1234454045395074 -0.03840981328917786 -1.0417851005409653 88 61 34
0.12332190155578912 -0.033097634690018043 -1.0479136306177197 92 65 38
0.12350119540915591 -0.03570984410965418 -1.0495931728316088 93 67 42
0.12355909114128112 -0.035141109644097016 -1.0530644558835158 93 67 44
0.12359646238035608 -0.03403084024627419 -1.0568464215272424 94 68 43
0.1236373323987396 -0.03300908689041164 -1.060583303744979 96 70 45
0.12372543511779614 -0.03322789709245061 -1.0636169606460621 94 69 46
0.12374716148666784 -0.03169619310440129 -1.0676536800628498 90 64 46
0.12377273373652037 -0.03026149107804929 -1.0716414562326233 86 60 43
0.12379965925027409 -0.028858253670254755 -1.0756175435114848 83 59 41
0.12370464943205374 -0.0242246516100892 -1.0814666036435205 80 59 42
0.12384437020794901 -0.025796955480729467 -1.0837364121512665 72 49 35
