ply
format ascii 1.0
element vertex 892
property float x
property float y
property float z
property float nx
property float ny
property float nz
property uchar diffuse_red
property uchar diffuse_green
property uchar diffuse_blue
property uchar class
property uchar detection
end_header
0.0432 0.3256 -0.1523 0.158 0.987 -0.020 68 46 35 0 0
0.0419 0.2987 -0.1927 0.165 0.916 0.365 62 42 35 0 0
0.0418 0.2999 -0.1955 0.165 0.916 0.365 62 42 35 0 0
0.0418 0.3012 -0.1983 0.192 0.902 0.386 61 41 34 0 0
0.0381 0.2571 -0.3456 0.045 0.980 -0.194 63 41 29 0 0
0.0380 0.2565 -0.3488 0.045 0.980 -0.194 59 37 25 0 0
0.0378 0.2552 -0.3552 0.045 0.980 -0.194 41 19 10 0 0
0.0377 0.2617 -0.3723 -0.233 0.945 0.230 47 26 13 0 0
0.0352 0.2328 -0.4690 0.253 0.966 0.054 85 58 39 0 0
0.0349 0.2329 -0.4848 -0.147 0.987 0.067 49 22 11 0 0
0.0349 0.2338 -0.4877 0.078 0.997 0.006 48 21 9 0 0
0.0348 0.2338 -0.4909 0.078 0.997 0.006 50 24 11 0 0
0.0348 0.2338 -0.4940 0.078 0.997 0.006 54 28 15 0 0
0.0341 0.2329 -0.5260 -0.024 0.999 0.044 63 34 18 0 0
0.0331 0.2321 -0.5806 -0.043 0.985 0.170 72 37 17 0 0
0.0322 0.2375 -0.6368 0.005 0.999 0.047 91 54 25 0 0
0.0321 0.2377 -0.6399 0.005 0.999 0.047 89 52 23 0 0
0.0302 0.2955 -0.8146 -0.326 0.647 0.689 55 23 8 0 0
0.0303 0.3020 -0.8150 -0.214 0.976 0.036 57 24 8 0 0
0.0302 0.3016 -0.8184 -0.234 0.970 0.068 58 25 9 0 0
0.0299 0.3129 -0.8487 -0.048 0.918 0.395 81 40 11 0 0
0.0287 0.3065 -0.9036 -0.104 0.976 0.190 68 40 23 0 0
0.0283 0.3023 -0.9220 0.120 0.911 0.396 88 58 34 0 0
0.0282 0.3281 -0.9578 0.310 0.902 0.299 83 65 55 0 0
0.0283 0.3595 -0.9895 -0.175 0.845 0.506 88 67 58 0 0
0.0282 0.3676 -1.0076 -0.317 0.943 0.105 76 35 7 0 0
0.0265 0.3845 -1.1172 0.020 1.000 -0.019 92 58 32 0 0
0.0257 0.3782 -1.1539 0.047 0.982 -0.183 69 58 44 0 0
0.0256 0.3783 -1.1571 -0.036 0.996 -0.087 107 101 89 0 0
0.0485 0.2416 0.0751 0.278 0.924 0.262 79 38 17 0 0
0.0482 0.2410 0.0606 0.254 0.935 0.246 62 25 7 0 0
0.0482 0.2418 0.0577 0.254 0.935 0.246 70 34 11 0 0
0.0482 0.2436 0.0548 0.363 0.853 0.376 90 57 35 0 0
0.0483 0.2540 0.0489 -0.030 0.601 0.799 100 63 45 0 0
0.0481 0.2510 0.0431 0.000 0.993 0.116 133 106 95 0 0
0.0481 0.2839 0.0058 0.110 0.923 0.370 70 32 13 0 0
0.0481 0.2851 0.0029 0.110 0.923 0.370 70 32 13 0 0
0.0481 0.2863 0.0001 -0.149 0.950 0.276 69 33 14 0 0
0.0478 0.2868 -0.0171 0.291 0.909 -0.297 58 33 22 0 0
0.0477 0.2857 -0.0199 0.560 0.800 -0.214 57 33 22 0 0
0.0476 0.2854 -0.0257 -0.279 0.953 0.117 51 30 20 0 0
0.0463 0.2997 -0.1113 -0.102 0.633 0.768 89 49 28 0 0
0.0463 0.3029 -0.1140 -0.102 0.633 0.768 118 86 70 0 0
0.0464 0.3241 -0.1324 -0.165 0.920 0.356 76 37 14 0 0
0.0459 0.3194 -0.1558 -0.029 0.986 -0.167 66 46 35 0 0
0.0452 0.3059 -0.1803 -0.216 0.967 0.132 63 45 35 0 0
0.0447 0.2979 -0.1929 0.179 0.962 0.206 63 43 36 0 0
0.0447 0.2970 -0.1959 0.220 0.974 -0.047 62 42 35 0 0
0.0446 0.2958 -0.1990 0.305 0.876 -0.374 60 40 33 0 0
0.0410 0.2559 -0.3459 0.306 0.919 -0.249 58 36 25 0 0
0.0408 0.2538 -0.3555 0.238 0.950 -0.201 39 16 9 0 0
0.0408 0.2897 -0.3969 -0.019 0.528 0.849 57 24 13 0 0
0.0405 0.3098 -0.4347 -0.236 0.930 -0.280 86 55 34 0 0
0.0383 0.2330 -0.4658 0.181 0.982 0.048 69 38 20 0 0
0.0377 0.2314 -0.5010 0.169 0.981 -0.093 50 24 11 0 0
0.0370 0.2328 -0.5388 0.072 0.996 -0.045 49 21 8 0 0
0.0364 0.2370 -0.5759 -0.067 0.976 0.205 70 35 15 0 0
0.0362 0.2374 -0.5854 -0.021 0.991 0.129 72 37 17 0 0
0.0362 0.2383 -0.5883 -0.048 0.999 0.016 68 33 12 0 0
0.0345 0.2444 -0.6862 0.053 0.972 0.231 65 30 10 0 0
0.0344 0.2481 -0.6946 -0.203 0.918 0.340 60 28 9 0 0
0.0342 0.2454 -0.7020 -0.063 0.990 -0.124 60 28 9 0 0
0.0333 0.2873 -0.7988 -0.235 0.945 0.229 56 24 9 0 0
0.0333 0.3023 -0.8181 -0.234 0.970 0.068 57 24 10 0 0
0.0330 0.3107 -0.8433 0.062 0.945 0.322 75 36 9 0 0
0.0329 0.3154 -0.8540 0.017 0.940 0.341 83 42 17 0 0
0.0326 0.3155 -0.8733 0.010 0.998 -0.063 80 52 33 0 0
0.0324 0.3128 -0.8778 0.302 0.952 0.055 79 52 33 0 0
0.0315 0.3035 -0.9181 0.154 0.987 0.047 85 55 34 0 0
0.0314 0.3040 -0.9211 0.116 0.978 0.171 90 60 36 0 0
0.0312 0.3272 -0.9582 0.310 0.902 0.299 89 71 61 0 0
0.0312 0.3292 -0.9637 0.308 0.906 0.292 98 81 73 0 0
0.0312 0.3764 -1.0187 0.058 0.923 0.380 85 41 12 0 0
0.0311 0.3775 -1.0213 0.131 0.967 0.219 86 43 11 0 0
0.0307 0.3798 -1.0457 0.056 0.996 0.070 107 76 48 0 0
0.0297 0.3845 -1.1075 0.098 0.994 0.055 82 45 19 0 0
0.0294 0.3840 -1.1208 0.029 0.998 0.063 100 66 39 0 0
0.0292 0.3845 -1.1335 0.106 0.989 0.104 93 61 35 0 0
0.0509 0.2830 0.0028 0.029 0.908 0.417 67 30 11 0 0
0.0510 0.2868 0.0000 -0.149 0.950 0.276 66 31 13 0 0
0.0505 0.2832 -0.0201 0.506 0.843 -0.180 56 32 20 0 0
0.0492 0.3015 -0.1112 -0.148 0.745 0.651 90 52 32 0 0
0.0493 0.3239 -0.1325 0.103 0.966 0.237 74 35 12 0 0
0.0488 0.3197 -0.1558 -0.045 0.999 -0.013 66 47 35 0 0
0.0447 0.2605 -0.3176 -0.101 0.965 0.242 59 26 8 0 0
0.0449 0.2749 -0.3181 -0.011 0.922 0.388 66 32 12 0 0
0.0413 0.2323 -0.4692 0.270 0.944 0.188 75 45 29 0 0
0.0413 0.2332 -0.4721 -0.029 0.991 0.133 67 39 24 0 0
0.0413 0.2337 -0.4752 -0.084 0.994 0.065 56 29 17 0 0
0.0387 0.2352 -0.6182 0.084 0.993 0.081 83 46 18 0 0
0.0386 0.2352 -0.6215 0.068 0.985 0.157 88 51 22 0 0
0.0386 0.2357 -0.6245 0.068 0.985 0.157 85 48 20 0 0
0.0378 0.2423 -0.6740 -0.134 0.972 0.193 65 30 8 0 0
0.0377 0.2435 -0.6800 -0.134 0.972 0.193 65 31 11 0 0
0.0377 0.2441 -0.6831 -0.134 0.972 0.193 64 29 10 0 0
0.0375 0.2437 -0.6929 0.099 0.986 0.136 60 28 10 0 0
0.0374 0.2446 -0.6991 -0.084 0.970 0.230 58 26 11 0 0
0.0373 0.2449 -0.7022 -0.232 0.949 0.215 58 26 11 0 0
0.0366 0.2671 -0.7651 -0.232 0.875 0.424 58 27 9 0 0
0.0364 0.3015 -0.8120 -0.006 0.992 0.124 57 25 11 0 0
0.0364 0.3017 -0.8151 -0.177 0.978 0.108 55 21 8 0 0
0.0363 0.3020 -0.8182 -0.177 0.978 0.108 54 20 8 0 0
0.0361 0.3092 -0.8408 -0.104 0.876 0.472 68 30 9 0 0
0.0361 0.3106 -0.8434 0.062 0.945 0.322 73 33 8 0 0
0.0359 0.3168 -0.8566 0.080 0.989 0.125 89 52 27 0 0
0.0359 0.3172 -0.8596 0.080 0.989 0.125 90 56 32 0 0
0.0357 0.3200 -0.8744 0.316 0.856 0.409 79 52 33 0 0
0.0350 0.3102 -0.8986 0.277 0.929 -0.244 71 44 27 0 0
0.0346 0.3043 -0.9145 -0.057 0.979 -0.198 77 49 29 0 0
0.0345 0.3031 -0.9183 0.154 0.987 0.047 84 54 33 0 0
0.0345 0.3037 -0.9213 0.116 0.978 0.171 88 58 35 0 0
0.0345 0.3042 -0.9243 -0.014 0.992 0.124 92 62 37 0 0
0.0341 0.3053 -0.9434 -0.075 0.869 0.489 50 20 10 0 0
0.0341 0.3099 -0.9476 -0.504 0.857 0.108 53 23 12 0 0
0.0343 0.3464 -0.9773 -0.359 0.905 0.228 105 86 79 0 0
0.0343 0.3491 -0.9791 -0.190 0.821 0.538 98 79 72 0 0
0.0343 0.3591 -0.9898 0.229 0.931 0.285 91 71 62 0 0
0.0341 0.3750 -1.0195 0.053 0.960 0.276 82 38 9 0 0
0.0341 0.3755 -1.0224 -0.046 0.993 0.107 85 41 12 0 0
0.0337 0.3796 -1.0458 0.056 0.996 0.070 109 78 50 0 0
0.0334 0.3772 -1.0634 -0.116 0.993 -0.011 96 65 37 0 0
0.0326 0.3711 -1.0995 0.097 0.843 0.529 50 23 13 0 0
0.0326 0.3810 -1.1064 -0.216 0.974 0.071 79 37 12 0 0
0.0327 0.3833 -1.1082 0.161 0.950 0.269 80 43 17 0 0
0.0322 0.3844 -1.1336 0.072 0.996 0.060 93 60 35 0 0
0.0545 0.2229 0.0987 -0.553 0.833 0.010 152 119 101 0 0
0.0543 0.2277 0.0869 -0.052 0.983 0.177 125 93 75 0 0
0.0542 0.2641 0.0400 -0.553 0.833 0.022 149 122 110 0 0
0.0541 0.2677 0.0342 -0.162 0.791 0.591 132 103 92 0 0
0.0541 0.2693 0.0314 -0.030 0.775 0.631 136 109 97 0 0
0.0539 0.2850 0.0028 0.192 0.962 0.192 65 28 10 0 0
0.0533 0.2788 -0.0202 0.759 0.635 0.142 55 31 19 0 0
0.0521 0.3236 -0.1326 0.103 0.966 0.237 74 33 11 0 0
0.0479 0.2591 -0.2997 0.341 0.940 -0.021 61 34 17 0 0
0.0479 0.2590 -0.3027 0.341 0.940 -0.021 53 29 13 0 0
0.0479 0.2733 -0.3185 0.260 0.944 0.201 68 33 11 0 0
0.0467 0.2577 -0.3671 0.326 0.937 -0.124 31 15 10 0 0
0.0466 0.2598 -0.3728 -0.106 0.879 0.464 44 20 11 0 0
0.0466 0.2602 -0.3758 -0.065 0.899 0.432 39 16 10 0 0
0.0466 0.2615 -0.3786 -0.065 0.899 0.432 39 16 8 0 0
0.0468 0.3099 -0.4136 0.184 0.949 0.256 64 28 3 0 0
0.0468 0.3110 -0.4164 0.067 0.979 0.192 64 26 5 0 0
0.0466 0.3104 -0.4256 -0.180 0.975 0.132 72 32 8 0 0
0.0434 0.2323 -0.5231 0.013 1.000 -0.005 53 25 12 0 0
0.0421 0.2356 -0.6020 -0.057 0.998 -0.009 73 37 15 0 0
0.0420 0.2351 -0.6087 0.137 0.989 0.050 74 36 13 0 0
0.0411 0.2425 -0.6610 0.023 0.993 0.120 76 39 13 0 0
0.0411 0.2429 -0.6641 0.023 0.993 0.120 71 35 10 0 0
0.0405 0.2479 -0.7012 0.070 0.959 0.276 57 26 8 0 0
0.0400 0.2657 -0.7462 -0.349 0.924 -0.158 58 26 11 0 0
0.0400 0.2681 -0.7485 -0.391 0.875 0.286 57 25 10 0 0
0.0400 0.2692 -0.7513 -0.471 0.838 0.277 56 24 9 0 0
0.0398 0.2654 -0.7561 -0.151 0.962 0.229 55 23 8 0 0
0.0395 0.2727 -0.7856 0.232 0.911 0.340 55 23 9 0 0
0.0394 0.2874 -0.8052 -0.054 0.921 0.385 57 25 10 0 0
0.0393 0.2890 -0.8078 -0.261 0.902 0.343 58 26 11 0 0
0.0389 0.3158 -0.8571 0.203 0.978 0.045 88 51 25 0 0
0.0381 0.3086 -0.8994 0.116 0.966 -0.231 71 43 28 0 0
0.0372 0.3209 -0.9583 0.039 0.927 0.374 82 62 53 0 0
0.0373 0.3487 -0.9793 -0.253 0.949 0.185 101 82 76 0 0
0.0373 0.3490 -0.9824 -0.262 0.957 -0.125 112 93 87 0 0
0.0373 0.3533 -0.9865 0.171 0.640 0.749 106 89 82 0 0
0.0373 0.3578 -0.9905 0.291 0.946 0.142 88 69 61 0 0
0.0365 0.3797 -1.0554 0.056 0.931 0.360 104 70 42 0 0
0.0365 0.3807 -1.0580 0.056 0.931 0.360 100 68 42 0 0
0.0365 0.3810 -1.0611 0.019 0.961 0.275 93 62 37 0 0
0.0360 0.3763 -1.0801 -0.119 0.985 -0.126 60 37 24 0 0
0.0357 0.3821 -1.1058 -0.072 0.997 -0.018 79 37 12 0 0
0.0356 0.3844 -1.1141 0.020 1.000 -0.019 88 52 30 0 0
0.0352 0.3842 -1.1337 0.072 0.996 0.060 94 60 37 0 0
0.0348 0.3925 -1.1642 0.812 0.487 0.321 196 194 192 0 0
0.0572 0.2109 0.0991 0.027 0.850 -0.526 147 113 94 0 0
0.0567 0.2844 0.0027 0.192 0.962 0.192 62 27 8 0 0
0.0566 0.2865 -0.0058 0.127 0.902 0.413 58 27 12 0 0
0.0565 0.2894 -0.0143 0.081 0.946 0.313 53 27 14 0 0
0.0561 0.2767 -0.0232 0.180 0.810 0.558 53 32 21 0 0
0.0549 0.3212 -0.1357 -0.124 0.992 0.013 68 31 11 0 0
0.0510 0.2572 -0.2970 0.529 0.768 0.361 63 36 20 0 0
0.0508 0.2715 -0.3188 0.314 0.920 0.233 69 34 11 0 0
0.0495 0.2549 -0.3769 0.373 0.906 -0.200 38 16 10 0 0
0.0497 0.2651 -0.3779 -0.366 0.803 0.470 37 17 9 0 0
0.0472 0.2326 -0.4850 0.040 0.985 0.170 54 27 12 0 0
0.0472 0.2326 -0.4882 0.034 0.999 -0.006 57 31 16 0 0
0.0471 0.2326 -0.4913 0.047 0.999 0.011 57 30 16 0 0
0.0468 0.2329 -0.5071 0.159 0.987 0.018 57 31 18 0 0
0.0466 0.2319 -0.5201 0.007 0.999 -0.046 45 17 5 0 0
0.0465 0.2325 -0.5263 -0.088 0.967 0.239 54 26 12 0 0
0.0464 0.2335 -0.5324 -0.066 0.966 0.249 55 27 13 0 0
0.0463 0.2338 -0.5354 -0.031 0.994 0.102 56 27 13 0 0
0.0456 0.2326 -0.5741 0.062 0.980 0.189 60 28 9 0 0
0.0448 0.2343 -0.6251 -0.046 0.994 0.098 82 45 19 0 0
0.0438 0.2376 -0.6790 -0.118 0.985 0.126 61 29 9 0 0
0.0431 0.2660 -0.7494 -0.215 0.951 -0.222 56 24 9 0 0
0.0430 0.2651 -0.7529 -0.215 0.951 -0.222 56 24 9 0 0
0.0428 0.2678 -0.7681 -0.149 0.920 0.362 56 25 8 0 0
0.0427 0.2684 -0.7711 0.149 0.988 0.051 61 30 12 0 0
0.0427 0.2685 -0.7743 0.149 0.988 0.051 60 29 13 0 0
0.0425 0.2685 -0.7841 -0.115 0.991 -0.071 53 21 8 0 0
0.0425 0.2722 -0.7858 0.280 0.947 0.159 54 22 7 0 0
0.0423 0.2962 -0.8208 -0.214 0.870 0.445 51 19 5 0 0
0.0420 0.3170 -0.8597 0.125 0.966 0.228 85 53 30 0 0
0.0419 0.3177 -0.8626 0.125 0.966 0.228 86 55 35 0 0
0.0403 0.3224 -0.9608 -0.101 0.786 0.610 86 66 57 0 0
0.0404 0.3497 -0.9787 -0.302 0.949 -0.088 93 74 67 0 0
0.0403 0.3706 -1.0027 -0.209 0.953 0.221 74 32 8 0 0
0.0403 0.3719 -1.0052 -0.264 0.961 0.080 72 30 6 0 0
0.0402 0.3737 -1.0138 0.217 0.953 0.210 77 34 9 0 0
0.0401 0.3743 -1.0167 -0.039 0.997 0.069 80 38 11 0 0
0.0399 0.3789 -1.0365 0.001 0.990 0.144 104 69 41 0 0
0.0396 0.3788 -1.0527 -0.125 0.960 0.249 100 66 38 0 0
0.0395 0.3813 -1.0609 0.055 0.978 0.201 91 60 35 0 0
0.0598 0.2354 0.0576 0.446 0.739 0.504 63 28 8 0 0
0.0598 0.2374 0.0547 0.505 0.755 0.420 88 54 31 0 0
0.0592 0.2798 -0.0146 -0.737 0.641 0.216 53 27 14 0 0
0.0591 0.2732 -0.0176 -0.464 0.856 0.228 55 28 17 0 0
0.0590 0.2757 -0.0261 0.170 0.981 0.098 49 29 21 0 0
0.0579 0.3189 -0.1273 0.055 0.872 0.486 88 43 12 0 0
0.0577 0.3206 -0.1358 -0.074 0.988 0.137 68 31 11 0 0
0.0577 0.3203 -0.1387 0.091 0.991 0.095 65 30 8 0 0
0.0568 0.3052 -0.1777 0.176 0.957 -0.232 61 41 34 0 0
0.0567 0.3049 -0.1806 -0.152 0.988 0.014 61 41 34 0 0
0.0540 0.2582 -0.2969 0.254 0.912 0.323 62 34 18 0 0
0.0527 0.2593 -0.3730 0.330 0.932 0.151 40 16 7 0 0
0.0526 0.2626 -0.3784 -0.387 0.920 -0.057 36 17 10 0 0
0.0527 0.2754 -0.3849 -0.225 0.974 0.023 52 28 18 0 0
0.0527 0.2763 -0.3878 -0.172 0.930 0.326 61 36 25 0 0
0.0526 0.2803 -0.3930 -0.089 0.751 0.655 43 16 9 0 0
0.0527 0.3085 -0.4140 0.065 0.998 -0.002 68 32 7 0 0
0.0523 0.3085 -0.4352 -0.185 0.965 -0.186 84 55 34 0 0
0.0507 0.2351 -0.4655 0.164 0.930 -0.330 71 39 22 0 0
0.0502 0.2325 -0.4882 0.034 0.999 -0.006 59 31 17 0 0
0.0496 0.2338 -0.5259 0.329 0.944 0.016 56 28 14 0 0
0.0488 0.2321 -0.5679 0.072 0.990 0.123 55 23 9 0 0
0.0487 0.2325 -0.5742 0.062 0.980 0.189 59 28 10 0 0
0.0476 0.2332 -0.6416 0.155 0.972 0.176 80 43 14 0 0
0.0472 0.2389 -0.6688 -0.277 0.961 0.024 62 29 9 0 0
0.0471 0.2387 -0.6721 0.096 0.995 -0.025 60 28 8 0 0
0.0470 0.2376 -0.6790 0.169 0.986 0.008 58 27 8 0 0
0.0467 0.2441 -0.6994 0.073 0.996 0.055 57 25 11 0 0
0.0459 0.2749 -0.7717 0.316 0.833 0.454 57 25 10 0 0
0.0455 0.2885 -0.8080 0.133 0.858 0.497 51 19 6 0 0
0.0439 0.3045 -0.9144 0.045 0.985 0.164 84 57 37 0 0
0.0438 0.3055 -0.9172 -0.089 0.996 -0.007 94 67 44 0 0
0.0433 0.3228 -0.9606 0.108 0.895 0.434 83 66 58 0 0
0.0433 0.3587 -0.9932 0.683 0.698 0.215 87 62 51 0 0
0.0433 0.3735 -1.0075 -0.054 0.998 0.040 72 32 7 0 0
0.0432 0.3718 -1.0117 0.033 0.976 0.217 73 33 7 0 0
0.0432 0.3769 -1.0120 0.140 0.989 0.036 75 35 9 0 0
0.0428 0.3796 -1.0394 -0.033 0.998 0.046 100 65 38 0 0
0.0427 0.3797 -1.0425 0.032 0.998 0.055 104 70 42 0 0
0.0425 0.3806 -1.0549 0.122 0.993 0.008 105 71 43 0 0
0.0425 0.3806 -1.0581 0.122 0.993 0.008 99 67 41 0 0
0.0424 0.3809 -1.0612 -0.087 0.996 0.033 94 63 38 0 0
0.0419 0.3834 -1.0952 -0.241 0.969 -0.060 57 25 13 0 0
0.0417 0.3824 -1.1055 0.142 0.978 0.156 76 36 10 0 0
0.0416 0.3845 -1.1108 -0.077 0.970 0.232 89 54 29 0 0
0.0412 0.3831 -1.1344 0.217 0.973 -0.084 98 66 42 0 0
0.0411 0.3835 -1.1374 0.073 0.996 -0.057 99 66 40 0 0
0.0628 0.2354 0.0575 0.487 0.773 0.406 66 31 11 0 0
0.0628 0.2369 0.0546 0.487 0.773 0.406 93 58 37 0 0
0.0624 0.2829 -0.0002 -0.290 0.917 0.274 51 19 5 0 0
0.0620 0.2743 -0.0176 -0.611 0.747 0.262 54 27 16 0 0
0.0610 0.2628 -0.0702 0.031 0.987 -0.155 18 7 7 0 0
0.0607 0.2592 -0.0821 -0.279 0.960 -0.014 41 18 8 0 0
0.0607 0.3201 -0.1302 0.010 0.922 0.386 85 40 12 0 0
0.0607 0.3212 -0.1329 0.105 0.974 0.202 77 36 13 0 0
0.0606 0.3209 -0.1358 -0.074 0.988 0.137 71 34 13 0 0
0.0606 0.3206 -0.1387 0.210 0.947 0.242 69 33 13 0 0
0.0603 0.3172 -0.1505 -0.224 0.788 -0.573 66 43 34 0 0
0.0597 0.3049 -0.1748 0.160 0.838 -0.522 60 40 33 0 0
0.0595 0.3005 -0.1840 0.409 0.900 -0.154 59 40 33 0 0
0.0570 0.2605 -0.2966 0.170 0.959 0.226 63 35 19 0 0
0.0570 0.2604 -0.2996 0.077 0.848 0.525 58 32 17 0 0
0.0569 0.2636 -0.3051 0.001 0.697 0.717 74 57 49 0 0
0.0560 0.2529 -0.3467 0.409 0.910 -0.073 45 24 12 0 0
0.0556 0.2592 -0.3792 -0.015 0.996 0.085 36 16 9 0 0
0.0557 0.2755 -0.3850 -0.037 0.893 0.449 50 28 18 0 0
0.0557 0.2778 -0.3875 -0.105 0.848 0.520 58 34 25 0 0
0.0556 0.2807 -0.3930 -0.246 0.744 0.622 40 14 9 0 0
0.0555 0.3096 -0.4229 -0.031 0.947 0.319 71 34 9 0 0
0.0553 0.3090 -0.4351 0.039 0.999 -0.033 80 52 31 0 0
0.0552 0.3060 -0.4389 -0.313 0.670 -0.673 87 59 38 0 0
0.0537 0.2315 -0.4664 0.300 0.953 0.031 72 40 23 0 0
0.0533 0.2320 -0.4884 0.038 0.991 0.129 57 30 15 0 0
0.0532 0.2325 -0.4946 -0.010 0.999 0.040 57 30 14 0 0
0.0530 0.2333 -0.5070 -0.146 0.988 -0.045 53 25 12 0 0
0.0528 0.2325 -0.5200 -0.102 0.992 -0.076 51 23 10 0 0
0.0522 0.2305 -0.5524 0.343 0.906 0.247 56 26 12 0 0
0.0521 0.2315 -0.5553 -0.145 0.941 0.307 58 28 11 0 0
0.0511 0.2347 -0.6185 -0.020 0.994 0.109 72 34 10 0 0
0.0507 0.2337 -0.6382 -0.002 1.000 -0.022 76 39 12 0 0
0.0506 0.2342 -0.6445 -0.090 0.991 0.097 71 34 8 0 0
0.0495 0.2511 -0.7228 -0.263 0.934 0.244 57 25 11 0 0
0.0489 0.2745 -0.7751 -0.104 0.888 0.448 56 24 9 0 0
0.0464 0.3191 -0.9560 -0.460 0.723 0.515 83 62 54 0 0
0.0457 0.3797 -1.0457 0.097 0.995 0.037 108 74 46 0 0
0.0456 0.3793 -1.0524 -0.220 0.974 0.062 106 72 44 0 0
0.0455 0.3796 -1.0555 0.193 0.969 0.154 104 70 43 0 0
0.0447 0.3824 -1.1056 -0.109 0.931 0.348 75 37 12 0 0
0.0446 0.3833 -1.1083 0.013 0.936 0.351 79 43 17 0 0
0.0442 0.3824 -1.1349 0.217 0.973 -0.084 105 71 46 0 0
0.0658 0.2336 0.0604 0.210 0.954 0.214 61 25 8 0 0
0.0657 0.2354 0.0546 0.214 0.889 0.405 95 59 40 0 0
0.0656 0.2605 0.0341 0.324 0.913 0.246 119 90 77 0 0
0.0651 0.2782 -0.0090 0.049 0.861 -0.507 51 22 8 0 0
0.0651 0.2814 -0.0118 0.683 0.728 0.063 52 25 11 0 0
0.0650 0.2755 -0.0147 0.494 0.848 0.192 53 27 13 0 0
0.0649 0.2753 -0.0176 0.271 0.941 -0.201 54 27 16 0 0
0.0636 0.2617 -0.0849 -0.200 0.964 0.176 47 20 9 0 0
0.0635 0.2622 -0.0937 -0.449 0.881 -0.149 56 27 14 0 0
0.0635 0.3215 -0.1358 0.149 0.934 0.325 74 37 15 0 0
0.0634 0.3229 -0.1414 0.246 0.908 0.339 66 32 13 0 0
0.0600 0.2590 -0.2938 -0.435 0.888 -0.147 64 37 20 0 0
0.0600 0.2605 -0.2966 -0.243 0.969 -0.035 65 36 20 0 0
0.0599 0.2593 -0.2998 -0.344 0.885 0.314 60 35 22 0 0
0.0598 0.2686 -0.3134 0.171 0.855 0.489 58 23 7 0 0
0.0590 0.2507 -0.3471 0.253 0.966 -0.058 53 31 19 0 0
0.0586 0.2600 -0.3791 0.258 0.966 -0.036 36 16 8 0 0
0.0586 0.2814 -0.3929 -0.105 0.848 0.520 39 14 8 0 0
0.0585 0.3006 -0.4129 -0.112 0.879 0.463 73 38 17 0 0
0.0585 0.3066 -0.4145 -0.109 0.994 0.028 64 27 5 0 0
0.0584 0.3073 -0.4234 -0.132 0.982 0.132 70 33 7 0 0
0.0582 0.3074 -0.4325 0.065 0.952 0.300 85 53 32 0 0
0.0582 0.3086 -0.4352 0.009 0.999 0.041 81 53 31 0 0
0.0567 0.2295 -0.4669 0.179 0.983 0.050 70 39 21 0 0
0.0562 0.2322 -0.5010 -0.012 1.000 -0.002 58 30 16 0 0
0.0555 0.2309 -0.5396 0.105 0.994 0.041 56 25 11 0 0
0.0540 0.2365 -0.6309 0.196 0.966 0.170 78 41 15 0 0
0.0539 0.2312 -0.6359 -0.086 0.994 0.062 75 38 12 0 0
0.0520 0.2732 -0.7757 -0.236 0.953 0.190 56 24 9 0 0
0.0493 0.3506 -0.9847 -0.362 0.932 0.010 103 86 78 0 0
0.0493 0.3535 -0.9896 -0.127 0.836 0.534 99 81 74 0 0
0.0488 0.3774 -1.0342 -0.005 0.994 0.112 93 56 27 0 0
0.0487 0.3781 -1.0403 -0.111 0.986 0.128 103 68 40 0 0
0.0487 0.3785 -1.0432 -0.057 0.946 0.319 109 75 47 0 0
0.0487 0.3794 -1.0459 -0.026 0.983 0.182 109 75 47 0 0
0.0486 0.3796 -1.0522 -0.111 0.986 0.128 107 73 45 0 0
0.0478 0.3827 -1.0989 0.255 0.941 0.224 66 29 11 0 0
0.0476 0.3843 -1.1109 0.013 0.936 0.351 82 48 23 0 0
0.0686 0.2616 0.0340 -0.246 0.906 0.343 120 91 77 0 0
0.0685 0.2627 0.0311 -0.244 0.929 0.280 124 99 85 0 0
0.0683 0.2798 0.0053 -0.230 0.859 0.458 60 24 7 0 0
0.0680 0.2810 -0.0090 -0.234 0.915 -0.328 52 23 9 0 0
0.0679 0.2773 -0.0148 0.089 0.940 -0.330 52 26 12 0 0
0.0678 0.2763 -0.0177 0.089 0.940 -0.330 53 26 15 0 0
0.0678 0.2747 -0.0206 0.138 0.957 -0.254 51 27 16 0 0
0.0667 0.2492 -0.0680 -0.131 0.734 0.667 12 6 6 0 0
0.0667 0.2567 -0.0735 -0.248 0.772 0.585 40 25 19 0 0
0.0667 0.2588 -0.0763 -0.248 0.772 0.585 69 52 44 0 0
0.0665 0.2661 -0.0906 -0.071 0.997 0.017 50 21 9 0 0
0.0665 0.2659 -0.0935 -0.152 0.982 0.116 62 31 17 0 0
0.0664 0.2657 -0.0965 0.023 0.981 -0.191 72 45 31 0 0
0.0666 0.3086 -0.1110 0.260 0.796 0.547 80 42 26 0 0
0.0666 0.3112 -0.1137 0.261 0.849 0.460 132 102 90 0 0
0.0665 0.3164 -0.1220 -0.114 0.944 0.310 117 82 59 0 0
0.0635 0.2636 -0.2660 0.156 0.967 0.200 63 35 24 0 0
0.0632 0.2622 -0.2873 0.065 0.890 -0.452 64 36 22 0 0
0.0630 0.2608 -0.2966 -0.332 0.937 0.107 64 36 19 0 0
0.0626 0.2732 -0.3278 0.065 0.990 0.127 73 42 22 0 0
0.0626 0.2741 -0.3306 0.075 0.964 0.255 64 39 23 0 0
0.0615 0.2978 -0.4075 -0.157 0.881 0.447 87 68 57 0 0
0.0615 0.2992 -0.4102 -0.157 0.881 0.447 99 74 58 0 0
0.0616 0.3093 -0.4109 -0.063 0.855 0.515 70 35 14 0 0
0.0612 0.3082 -0.4354 -0.056 0.978 0.203 84 55 33 0 0
0.0593 0.2299 -0.4953 0.251 0.967 0.048 55 29 14 0 0
0.0592 0.2307 -0.5015 0.249 0.967 0.055 57 29 15 0 0
0.0592 0.2309 -0.5046 0.249 0.967 0.055 59 31 17 0 0
0.0591 0.2322 -0.5106 0.130 0.987 0.095 64 35 21 0 0
0.0590 0.2325 -0.5137 0.130 0.987 0.095 61 32 18 0 0
0.0585 0.2244 -0.5414 0.127 0.991 0.049 64 31 17 0 0
0.0579 0.2341 -0.5834 -0.157 0.985 0.072 71 39 18 0 0
0.0572 0.2339 -0.6221 0.101 0.960 0.260 82 45 20 0 0
0.0572 0.2333 -0.6255 0.060 0.965 0.254 81 44 19 0 0
0.0558 0.2532 -0.7188 -0.163 0.986 0.037 51 22 8 0 0
0.0556 0.2546 -0.7312 -0.147 0.925 0.350 56 24 11 0 0
0.0547 0.3068 -0.8194 -0.749 0.654 0.104 54 23 9 0 0
0.0543 0.3130 -0.8488 0.166 0.943 0.287 78 37 10 0 0
0.0542 0.3137 -0.8517 0.271 0.951 0.148 83 40 12 0 0
0.0542 0.3142 -0.8547 0.271 0.951 0.148 88 47 17 0 0
0.0530 0.3040 -0.9179 0.085 0.986 -0.145 87 59 37 0 0
0.0529 0.3035 -0.9215 0.085 0.986 -0.145 91 63 39 0 0
0.0528 0.3042 -0.9309 -0.073 0.993 -0.091 83 53 30 0 0
0.0527 0.3074 -0.9392 0.340 0.920 0.194 53 25 12 0 0
0.0525 0.3201 -0.9555 0.333 0.929 0.160 82 61 52 0 0
0.0508 0.3809 -1.0967 0.283 0.959 0.036 57 24 10 0 0
0.0508 0.3812 -1.0998 0.291 0.956 0.042 66 28 10 0 0
0.0506 0.3835 -1.1081 -0.178 0.895 0.409 78 42 16 0 0
0.0697 0.2498 -0.0680 -0.131 0.734 0.667 13 7 6 0 0
0.0697 0.2575 -0.0706 0.406 0.867 0.288 22 12 9 0 0
0.0696 0.2571 -0.0736 0.427 0.869 0.249 39 24 17 0 0
0.0695 0.2683 -0.0905 0.135 0.955 -0.264 54 23 11 0 0
0.0694 0.2673 -0.0935 0.126 0.991 -0.037 66 34 20 0 0
0.0694 0.2672 -0.0964 0.126 0.991 -0.037 74 45 31 0 0
0.0695 0.3079 -0.1111 0.047 0.917 0.396 85 47 31 0 0
0.0695 0.3093 -0.1139 -0.037 0.892 0.451 126 97 84 0 0
0.0694 0.3110 -0.1167 -0.074 0.855 0.514 133 109 98 0 0
0.0694 0.3121 -0.1195 -0.044 0.971 -0.235 126 99 81 0 0
0.0694 0.3165 -0.1220 0.009 0.963 0.268 110 75 52 0 0
0.0690 0.3207 -0.1503 0.133 0.934 0.333 62 44 34 0 0
0.0667 0.2644 -0.2538 0.378 0.831 0.407 60 36 27 0 0
0.0665 0.2631 -0.2661 0.337 0.856 0.392 63 35 24 0 0
0.0661 0.2620 -0.2874 0.232 0.907 -0.353 60 32 18 0 0
0.0661 0.2605 -0.2906 -0.069 0.997 0.014 57 31 16 0 0
0.0660 0.2595 -0.2968 -0.126 0.977 0.170 62 33 17 0 0
0.0658 0.2648 -0.3081 0.042 0.726 0.686 73 51 41 0 0
0.0658 0.2672 -0.3107 0.042 0.726 0.686 59 25 10 0 0
0.0645 0.3088 -0.4111 0.134 0.876 0.463 74 39 18 0 0
0.0642 0.3082 -0.4324 -0.052 0.993 0.108 83 51 30 0 0
0.0641 0.3085 -0.4353 0.179 0.983 -0.039 85 56 34 0 0
0.0610 0.2347 -0.5801 0.074 0.970 0.231 70 38 17 0 0
0.0605 0.2322 -0.6098 0.085 0.976 0.203 73 37 13 0 0
0.0605 0.2328 -0.6128 0.085 0.976 0.203 79 43 19 0 0
0.0603 0.2362 -0.6278 0.122 0.950 0.289 79 41 18 0 0
0.0598 0.2382 -0.6562 0.045 0.941 0.335 72 35 14 0 0
0.0596 0.2353 -0.6669 -0.012 0.996 0.089 60 27 8 0 0
0.0596 0.2356 -0.6701 -0.106 0.991 0.078 59 26 7 0 0
0.0590 0.2503 -0.7102 -0.015 0.954 0.299 54 25 11 0 0
0.0590 0.2516 -0.7129 -0.050 0.992 0.116 55 27 13 0 0
0.0589 0.2521 -0.7192 0.046 0.996 0.079 54 25 11 0 0
0.0588 0.2524 -0.7223 0.046 0.996 0.079 52 23 9 0 0
0.0578 0.3022 -0.8150 -0.317 0.920 0.228 53 21 8 0 0
0.0560 0.3010 -0.9227 0.170 0.985 0.038 91 64 38 0 0
0.0556 0.3183 -0.9532 0.252 0.967 0.027 76 54 40 0 0
0.0556 0.3197 -0.9557 0.273 0.962 0.032 82 61 52 0 0
0.0555 0.3476 -0.9767 0.244 0.934 0.262 101 83 77 0 0
0.0550 0.3789 -1.0237 -0.105 0.994 -0.041 81 40 13 0 0
0.0538 0.3792 -1.0945 0.245 0.969 0.016 53 25 13 0 0
0.0538 0.3802 -1.0972 0.114 0.983 0.142 60 27 11 0 0
0.0537 0.3806 -1.1002 0.114 0.983 0.142 64 27 9 0 0
0.0744 0.2560 0.0397 0.322 0.947 0.008 152 123 109 0 0
0.0735 0.2741 -0.0265 -0.304 0.949 0.077 44 24 15 0 0
0.0734 0.2740 -0.0294 -0.281 0.948 -0.149 36 16 11 0 0
0.0725 0.2244 -0.0633 0.681 0.731 -0.037 9 7 5 0 0
0.0726 0.2473 -0.0682 0.196 0.689 0.698 13 7 7 0 0
0.0723 0.2669 -0.0965 0.531 0.847 0.033 74 42 29 0 0
0.0724 0.3156 -0.1135 0.157 0.962 -0.224 129 102 87 0 0
0.0723 0.3150 -0.1164 0.157 0.962 -0.224 133 110 95 0 0
0.0723 0.3143 -0.1193 0.157 0.962 -0.224 120 92 75 0 0
0.0722 0.3150 -0.1222 0.196 0.979 -0.056 113 78 56 0 0
0.0719 0.3201 -0.1476 0.118 0.905 0.410 62 39 29 0 0
0.0718 0.3213 -0.1503 0.118 0.905 0.410 63 43 32 0 0
0.0718 0.3205 -0.1533 0.338 0.935 0.105 64 46 34 0 0
0.0717 0.3190 -0.1563 0.059 0.990 -0.132 64 46 34 0 0
0.0675 0.3003 -0.4040 0.076 0.770 0.633 92 69 57 0 0
0.0675 0.3031 -0.4064 0.037 0.681 0.731 94 75 63 0 0
0.0674 0.3134 -0.4191 0.297 0.916 0.270 71 30 7 0 0
0.0654 0.2294 -0.5019 0.157 0.974 0.166 56 29 12 0 0
0.0646 0.2301 -0.5463 0.174 0.944 0.282 63 30 14 0 0
0.0641 0.2337 -0.5804 0.465 0.877 0.120 69 37 16 0 0
0.0640 0.2340 -0.5867 0.063 0.970 -0.233 71 37 13 0 0
0.0626 0.2363 -0.6763 0.143 0.977 0.156 56 24 8 0 0
0.0621 0.2508 -0.7132 0.060 0.961 0.270 54 26 12 0 0
0.0620 0.2520 -0.7193 0.046 0.996 0.079 55 27 13 0 0
0.0619 0.2522 -0.7224 0.046 0.996 0.079 52 24 10 0 0
0.0619 0.2537 -0.7251 -0.069 0.994 0.081 53 24 10 0 0
0.0607 0.3069 -0.8259 0.077 0.976 0.204 56 25 9 0 0
0.0606 0.3058 -0.8295 0.258 0.966 0.024 57 26 8 0 0
0.0602 0.3114 -0.8560 0.503 0.864 0.023 88 47 19 0 0
0.0590 0.3005 -0.9230 0.170 0.985 0.038 91 63 38 0 0
0.0587 0.3096 -0.9446 0.457 0.889 0.010 57 25 12 0 0
0.0587 0.3146 -0.9518 0.067 0.824 0.563 70 44 27 0 0
0.0585 0.3473 -0.9769 0.148 0.918 0.369 98 80 74 0 0
0.0583 0.3606 -0.9954 0.196 0.902 0.386 78 43 29 0 0
0.0583 0.3623 -0.9977 0.175 0.925 0.338 77 37 16 0 0
0.0582 0.3632 -1.0004 0.175 0.925 0.338 73 32 9 0 0
0.0582 0.3663 -1.0052 0.041 0.986 0.160 69 28 8 0 0
0.0580 0.3783 -1.0241 0.165 0.982 -0.087 83 41 16 0 0
0.0578 0.3788 -1.0367 -0.216 0.956 0.198 95 61 31 0 0
0.0576 0.3786 -1.0464 -0.088 0.996 0.017 101 67 39 0 0
0.0575 0.3780 -1.0532 0.089 0.995 0.053 102 68 41 0 0
0.0561 0.3801 -1.1363 0.179 0.975 0.131 96 67 37 0 0
0.0768 0.2766 -0.0006 0.196 0.977 0.085 58 24 7 0 0
0.0768 0.2749 -0.0035 0.240 0.937 -0.254 56 23 8 0 0
0.0767 0.2657 -0.0065 -0.051 0.530 0.847 54 22 9 0 0
0.0764 0.2734 -0.0265 -0.213 0.969 0.128 47 27 18 0 0
0.0762 0.2683 -0.0354 -0.237 0.744 -0.625 31 15 9 0 0
0.0761 0.2622 -0.0384 0.549 0.781 -0.298 25 13 8 0 0
0.0755 0.2245 -0.0604 0.252 0.897 0.364 9 7 6 0 0
0.0755 0.2221 -0.0635 -0.125 0.893 0.433 10 8 6 0 0
0.0756 0.2617 -0.0734 0.022 0.993 0.115 59 42 35 0 0
0.0755 0.2622 -0.0763 -0.145 0.974 0.172 78 59 51 0 0
0.0755 0.2628 -0.0792 -0.157 0.968 0.194 69 47 39 0 0
0.0754 0.2633 -0.0821 -0.157 0.968 0.194 57 30 18 0 0
0.0753 0.3128 -0.1109 0.233 0.931 0.281 94 60 42 0 0
0.0752 0.3144 -0.1137 0.177 0.983 -0.050 110 84 69 0 0
0.0752 0.3143 -0.1165 0.239 0.969 -0.058 121 97 83 0 0
0.0751 0.3141 -0.1194 0.239 0.969 -0.058 117 89 72 0 0
0.0751 0.3144 -0.1223 0.196 0.979 -0.056 111 76 53 0 0
0.0747 0.3178 -0.1478 -0.086 0.967 0.240 63 40 29 0 0
0.0705 0.2964 -0.4019 0.071 0.551 0.832 69 38 24 0 0
0.0700 0.3081 -0.4355 -0.012 1.000 0.003 83 54 34 0 0
0.0677 0.2305 -0.5494 0.174 0.944 0.282 72 39 21 0 0
0.0672 0.2322 -0.5809 0.520 0.847 0.108 71 39 18 0 0
0.0666 0.2286 -0.6174 0.331 0.943 0.027 76 40 18 0 0
0.0665 0.2287 -0.6206 0.331 0.943 0.027 72 35 13 0 0
0.0664 0.2332 -0.6289 0.117 0.964 0.240 81 43 20 0 0
0.0635 0.3128 -0.8393 0.300 0.831 0.468 74 36 13 0 0
0.0635 0.3140 -0.8419 -0.069 0.995 0.079 83 42 17 0 0
0.0630 0.3125 -0.8749 0.261 0.950 -0.170 81 54 34 0 0
0.0629 0.3123 -0.8782 0.203 0.972 -0.122 78 51 32 0 0
0.0628 0.3119 -0.8849 0.172 0.983 -0.064 80 53 34 0 0
0.0627 0.3111 -0.8917 0.120 0.993 0.003 79 51 32 0 0
0.0622 0.2984 -0.9175 0.079 0.970 0.230 86 58 35 0 0
0.0618 0.3028 -0.9415 -0.099 0.966 -0.240 53 24 12 0 0
0.0617 0.3147 -0.9551 0.107 0.954 0.281 74 53 40 0 0
0.0616 0.3165 -0.9574 0.000 0.942 0.335 83 65 55 0 0
0.0616 0.3345 -0.9675 0.292 0.754 0.588 98 82 74 0 0
0.0613 0.3605 -0.9955 0.349 0.767 0.538 79 46 31 0 0
0.0613 0.3613 -0.9983 0.265 0.943 0.199 76 38 17 0 0
0.0612 0.3622 -1.0010 0.313 0.944 0.100 73 34 11 0 0
0.0613 0.3705 -0.9996 -0.193 0.834 0.517 72 31 10 0 0
0.0612 0.3693 -1.0035 0.251 0.700 0.669 70 29 8 0 0
0.0605 0.3779 -1.0533 -0.095 0.993 0.073 104 70 42 0 0
0.0594 0.3797 -1.1235 0.081 0.994 0.070 95 62 34 0 0
0.0802 0.2506 0.0396 0.329 0.700 0.633 150 121 107 0 0
0.0786 0.2264 -0.0544 0.412 0.799 0.438 11 7 6 0 0
0.0786 0.2278 -0.0573 0.402 0.839 0.366 11 7 6 0 0
0.0786 0.2301 -0.0602 0.421 0.882 0.211 9 7 6 0 0
0.0785 0.2221 -0.0635 -0.131 0.914 0.385 11 9 7 0 0
0.0781 0.3137 -0.1166 0.177 0.983 -0.050 129 104 90 0 0
0.0780 0.3136 -0.1195 0.177 0.983 -0.050 121 93 76 0 0
0.0776 0.3158 -0.1481 -0.051 0.997 -0.060 63 41 30 0 0
0.0775 0.3186 -0.1507 0.036 0.830 0.556 64 45 33 0 0
0.0773 0.3016 -0.1609 0.127 0.972 -0.199 64 46 36 0 0
0.0772 0.3010 -0.1639 0.127 0.972 -0.199 63 45 35 0 0
0.0767 0.2920 -0.1941 0.013 0.690 -0.724 59 39 32 0 0
0.0734 0.2964 -0.4019 0.289 0.588 0.755 67 37 23 0 0
0.0732 0.3081 -0.4174 0.034 0.988 -0.154 72 31 9 0 0
0.0701 0.2287 -0.5916 0.253 0.966 0.051 72 37 17 0 0
0.0701 0.2292 -0.5947 0.231 0.966 0.121 73 38 18 0 0
0.0700 0.2298 -0.5977 0.266 0.954 0.141 75 40 19 0 0
0.0691 0.2359 -0.6603 -0.065 0.977 0.202 57 25 7 0 0
0.0686 0.2385 -0.6918 0.002 0.990 0.143 56 24 11 0 0
0.0685 0.2399 -0.6979 -0.159 0.985 0.069 55 23 10 0 0
0.0678 0.2459 -0.7445 0.243 0.963 -0.116 52 20 7 0 0
0.0662 0.3114 -0.8593 -0.053 0.985 -0.162 93 56 29 0 0
0.0659 0.3117 -0.8785 0.203 0.972 -0.122 78 51 32 0 0
0.0657 0.3098 -0.8924 0.290 0.956 0.039 79 50 32 0 0
0.0649 0.3036 -0.9411 0.192 0.981 -0.024 53 25 10 0 0
0.0648 0.3033 -0.9478 0.126 0.991 0.044 58 27 11 0 0
0.0648 0.3047 -0.9504 0.255 0.911 0.324 63 32 15 0 0
0.0646 0.3330 -0.9683 0.044 0.774 0.632 104 86 79 0 0
0.0646 0.3341 -0.9710 0.260 0.817 0.514 98 81 73 0 0
0.0643 0.3626 -0.9976 0.251 0.897 0.363 75 39 19 0 0
0.0642 0.3636 -1.0002 0.251 0.897 0.363 71 33 10 0 0
0.0642 0.3647 -1.0029 0.333 0.939 0.091 72 32 9 0 0
0.0638 0.3774 -1.0311 0.136 0.983 0.120 92 53 24 0 0
0.0628 0.3789 -1.0947 0.074 0.996 -0.047 50 21 10 0 0
0.0628 0.3788 -1.0980 0.138 0.989 -0.046 57 23 11 0 0
0.0627 0.3755 -1.1033 0.279 0.890 0.362 70 32 13 0 0
0.0621 0.3826 -1.1379 -0.183 0.969 0.166 99 67 42 0 0
0.0827 0.2671 0.0078 0.766 0.508 0.394 66 29 10 0 0
0.0826 0.2709 0.0021 0.084 0.978 0.192 62 26 8 0 0
0.0816 0.2285 -0.0574 0.462 0.877 0.131 14 9 8 0 0
0.0815 0.2229 -0.0635 0.035 0.972 0.233 11 8 7 0 0
0.0809 0.3128 -0.1167 0.135 0.864 0.485 128 102 88 0 0
0.0809 0.3143 -0.1195 0.135 0.864 0.485 118 89 73 0 0
0.0804 0.3172 -0.1509 0.273 0.932 0.239 63 43 32 0 0
0.0761 0.3053 -0.4211 -0.104 0.991 0.082 74 35 11 0 0
0.0759 0.3061 -0.4361 0.233 0.924 0.302 89 61 41 0 0
0.0740 0.2233 -0.5419 0.378 0.924 0.057 73 43 26 0 0
0.0726 0.2310 -0.6296 0.295 0.875 0.384 74 37 13 0 0
0.0725 0.2318 -0.6358 0.231 0.943 0.240 70 35 13 0 0
0.0717 0.2384 -0.6887 -0.214 0.954 0.209 55 24 11 0 0
0.0717 0.2390 -0.6917 -0.216 0.963 0.163 52 21 8 0 0
0.0716 0.2391 -0.6949 -0.288 0.954 0.077 52 21 8 0 0
0.0716 0.2394 -0.6981 -0.288 0.954 0.077 52 20 7 0 0
0.0713 0.2448 -0.7188 0.502 0.860 -0.088 54 21 8 0 0
0.0709 0.2465 -0.7442 0.278 0.905 0.321 52 20 7 0 0
0.0708 0.2432 -0.7488 0.022 0.918 0.397 54 22 9 0 0
0.0708 0.2497 -0.7495 -0.374 0.670 0.641 54 22 9 0 0
0.0701 0.2730 -0.7986 -0.040 0.940 0.340 59 27 13 0 0
0.0696 0.3134 -0.8423 0.166 0.962 0.215 76 35 10 0 0
0.0695 0.3147 -0.8449 0.033 0.999 0.003 81 39 12 0 0
0.0690 0.3116 -0.8754 0.140 0.967 -0.213 80 53 33 0 0
0.0688 0.3101 -0.8922 0.211 0.978 -0.002 79 49 30 0 0
0.0678 0.3057 -0.9499 0.328 0.844 0.425 63 33 15 0 0
0.0678 0.3099 -0.9543 0.451 0.801 0.394 71 45 33 0 0
0.0676 0.3328 -0.9684 0.297 0.867 0.401 100 82 75 0 0
0.0676 0.3343 -0.9709 0.357 0.906 0.230 100 83 75 0 0
0.0668 0.3767 -1.0283 0.110 0.992 -0.058 88 48 21 0 0
0.0666 0.3812 -1.0417 -0.127 0.990 0.056 103 69 41 0 0
0.0665 0.3799 -1.0521 0.122 0.993 0.008 104 72 43 0 0
0.0664 0.3799 -1.0553 0.122 0.993 0.008 102 69 42 0 0
0.0652 0.3815 -1.1321 -0.021 0.996 0.090 104 73 45 0 0
0.0652 0.3823 -1.1349 -0.075 0.997 0.008 101 70 44 0 0
0.0652 0.3832 -1.1376 -0.183 0.969 0.166 101 70 43 0 0
0.0856 0.2710 0.0049 -0.009 0.889 0.458 65 28 9 0 0
0.0855 0.2705 0.0020 -0.095 0.979 0.180 64 27 8 0 0
0.0855 0.2689 -0.0009 0.107 0.967 -0.231 63 26 8 0 0
0.0854 0.2683 -0.0095 0.583 0.796 0.163 53 21 7 0 0
0.0853 0.2687 -0.0124 0.568 0.811 0.137 53 23 10 0 0
0.0845 0.2211 -0.0637 -0.136 0.953 0.271 12 8 7 0 0
0.0833 0.3168 -0.1509 0.120 0.948 0.295 64 44 33 0 0
0.0830 0.3000 -0.1670 0.364 0.853 0.375 63 45 35 0 0
0.0829 0.3013 -0.1698 0.130 0.790 0.600 63 45 35 0 0
0.0818 0.2784 -0.2431 -0.484 0.782 0.393 60 40 31 0 0
0.0793 0.3012 -0.4070 -0.031 0.707 0.706 95 69 60 0 0
0.0791 0.3073 -0.4207 -0.085 0.996 -0.016 73 36 10 0 0
0.0763 0.2177 -0.5919 0.119 0.993 0.014 76 41 21 0 0
0.0757 0.2292 -0.6302 0.194 0.869 0.454 72 36 12 0 0
0.0757 0.2307 -0.6330 0.240 0.888 0.393 71 36 14 0 0
0.0756 0.2319 -0.6358 0.240 0.888 0.393 69 34 12 0 0
0.0756 0.2316 -0.6392 0.397 0.911 0.113 68 33 11 0 0
0.0754 0.2335 -0.6547 0.477 0.835 -0.275 58 27 8 0 0
0.0753 0.2323 -0.6584 0.477 0.835 -0.275 58 27 9 0 0
0.0732 0.2738 -0.8015 0.387 0.911 0.142 57 25 10 0 0
0.0731 0.2753 -0.8041 0.354 0.931 0.085 58 26 11 0 0
0.0720 0.3112 -0.8788 0.134 0.976 -0.173 82 57 36 0 0
0.0709 0.3053 -0.9501 0.287 0.812 0.508 63 34 18 0 0
0.0708 0.3088 -0.9549 0.520 0.834 0.185 71 46 33 0 0
0.0709 0.3174 -0.9537 0.458 0.887 -0.065 79 59 47 0 0
0.0706 0.3347 -0.9707 -0.206 0.903 0.376 101 84 76 0 0
0.0702 0.3565 -1.0042 -0.012 0.957 0.290 74 36 15 0 0
0.0701 0.3572 -1.0071 -0.210 0.891 0.403 72 34 13 0 0
0.0698 0.3764 -1.0316 -0.168 0.983 0.080 96 59 32 0 0
0.0697 0.3767 -1.0347 -0.168 0.983 0.080 97 62 34 0 0
0.0683 0.3821 -1.1285 -0.016 0.961 0.278 102 71 43 0 0
0.0682 0.3823 -1.1349 0.094 0.993 0.076 100 68 43 0 0
0.0681 0.3823 -1.1382 0.221 0.970 0.101 99 68 40 0 0
0.0896 0.1942 0.0755 -0.444 0.796 0.412 92 64 48 0 0
0.0885 0.2705 0.0048 0.216 0.941 0.262 64 27 8 0 0
0.0885 0.2717 0.0020 0.382 0.903 0.199 66 29 10 0 0
0.0884 0.2692 -0.0009 0.276 0.959 -0.060 63 26 8 0 0
0.0825 0.2678 -0.3900 0.175 0.545 0.820 51 24 14 0 0
0.0825 0.2763 -0.3912 0.078 0.997 -0.010 50 23 13 0 0
0.0824 0.2828 -0.3990 -0.063 0.616 0.785 53 23 12 0 0
0.0821 0.3026 -0.4158 0.224 0.970 0.098 73 32 7 0 0
0.0813 0.2198 -0.4696 0.629 0.752 -0.198 77 47 28 0 0
0.0806 0.2213 -0.5170 0.449 0.843 0.295 64 36 21 0 0
0.0788 0.2281 -0.6307 0.310 0.947 0.079 69 34 11 0 0
0.0788 0.2283 -0.6338 0.282 0.959 0.024 69 34 12 0 0
0.0787 0.2291 -0.6368 0.579 0.806 0.124 67 32 10 0 0
0.0786 0.2270 -0.6440 0.450 0.822 -0.349 68 33 11 0 0
0.0785 0.2315 -0.6554 0.477 0.835 -0.275 60 29 10 0 0
0.0762 0.2726 -0.8021 0.387 0.911 0.142 58 27 10 0 0
0.0762 0.2742 -0.8046 0.354 0.931 0.085 60 29 11 0 0
0.0759 0.3034 -0.8275 -0.009 0.892 0.452 64 30 12 0 0
0.0756 0.3151 -0.8415 -0.054 0.951 0.305 77 36 11 0 0
0.0756 0.3151 -0.8447 0.185 0.973 0.140 83 41 15 0 0
0.0755 0.3117 -0.8527 0.286 0.957 -0.043 89 47 21 0 0
0.0749 0.3088 -0.8929 0.107 0.985 -0.135 77 46 26 0 0
0.0748 0.3075 -0.8968 0.010 0.988 -0.151 76 45 25 0 0
0.0743 0.3015 -0.9324 -0.007 0.981 0.194 80 50 28 0 0
0.0740 0.3114 -0.9503 -0.056 0.731 0.680 68 40 23 0 0
0.0737 0.3351 -0.9705 -0.164 0.817 0.553 95 78 70 0 0
0.0727 0.3782 -1.0338 0.107 0.971 0.214 97 61 33 0 0
0.0717 0.3658 -1.0995 0.284 0.896 0.342 47 20 11 0 0
0.0929 0.1756 0.0997 0.061 0.560 0.826 177 175 172 0 0
0.0914 0.2699 0.0048 0.386 0.913 0.130 64 27 8 0 0
0.0914 0.2713 0.0019 0.269 0.950 0.159 68 31 12 0 0
0.0913 0.2723 -0.0009 0.117 0.991 -0.070 63 27 8 0 0
0.0905 0.2096 -0.0583 0.593 0.715 0.371 29 23 23 0 0
0.0891 0.3145 -0.1426 -0.187 0.969 -0.161 64 35 19 0 0
0.0872 0.2504 -0.2743 0.640 0.714 0.285 66 38 24 0 0
0.0872 0.2478 -0.2778 -0.009 0.856 0.517 66 38 24 0 0
0.0855 0.2761 -0.3913 0.078 0.997 -0.010 51 24 15 0 0
0.0851 0.3019 -0.4160 0.224 0.970 0.098 72 30 6 0 0
0.0849 0.3080 -0.4236 -0.125 0.973 0.192 74 37 11 0 0
0.0805 0.2490 -0.7238 -0.520 0.814 -0.260 53 21 8 0 0
0.0804 0.2465 -0.7345 -0.021 0.990 0.141 53 21 10 0 0
0.0803 0.2466 -0.7410 0.592 0.583 0.557 54 22 9 0 0
0.0794 0.2700 -0.8000 0.609 0.752 0.252 62 31 13 0 0
0.0793 0.2712 -0.8027 0.578 0.772 0.264 62 31 13 0 0
0.0790 0.3050 -0.8236 0.095 0.992 0.083 67 32 13 0 0
0.0782 0.3105 -0.8759 0.320 0.947 0.014 87 61 41 0 0
0.0781 0.3110 -0.8789 0.286 0.938 -0.196 87 62 41 0 0
0.0780 0.3090 -0.8896 0.180 0.957 -0.225 76 48 27 0 0
0.0779 0.3081 -0.8932 0.180 0.957 -0.225 77 46 26 0 0
0.0771 0.3063 -0.9496 -0.025 0.983 0.180 64 35 17 0 0
0.0767 0.3351 -0.9738 0.137 0.853 0.503 98 81 71 0 0
0.0757 0.3774 -1.0343 -0.023 0.999 0.032 98 62 34 0 0
0.0756 0.3758 -1.0384 0.166 0.977 0.136 100 65 37 0 0
0.0756 0.3763 -1.0413 0.312 0.920 0.238 104 69 41 0 0
0.0744 0.3778 -1.1215 0.039 0.973 0.227 99 67 39 0 0
0.0940 0.2725 -0.0125 0.271 0.927 0.260 58 28 14 0 0
0.0913 0.2931 -0.1942 0.789 0.608 -0.093 60 40 33 0 0
0.0913 0.2894 -0.1975 0.835 0.495 0.240 60 40 33 0 0
0.0902 0.2467 -0.2749 0.152 0.984 0.096 65 37 23 0 0
0.0902 0.2513 -0.2773 0.433 0.869 0.238 66 38 24 0 0
0.0880 0.3032 -0.4187 0.359 0.933 -0.001 73 34 9 0 0
0.0869 0.2104 -0.5104 0.568 0.766 0.302 59 33 20 0 0
0.0852 0.2179 -0.6211 0.491 0.829 0.267 80 48 27 0 0
0.0852 0.2178 -0.6244 0.498 0.855 0.143 78 45 24 0 0
0.0851 0.2183 -0.6307 0.576 0.813 0.088 78 43 23 0 0
0.0849 0.2159 -0.6412 -0.168 0.897 -0.409 72 36 14 0 0
0.0824 0.2734 -0.8018 -0.374 0.813 0.446 62 31 11 0 0
0.0819 0.3069 -0.8292 0.164 0.937 0.310 69 32 13 0 0
0.0819 0.3074 -0.8322 0.279 0.926 0.253 71 33 14 0 0
0.0818 0.3082 -0.8351 0.279 0.926 0.253 74 36 15 0 0
0.0805 0.2988 -0.9239 0.163 0.983 0.079 88 61 38 0 0
0.0802 0.3041 -0.9475 0.015 0.916 0.400 61 32 14 0 0
0.0801 0.3061 -0.9497 0.250 0.945 0.211 64 35 17 0 0
0.0787 0.3763 -1.0317 0.140 0.950 0.280 91 54 26 0 0
0.0787 0.3775 -1.0342 0.050 0.998 0.026 94 59 31 0 0
0.0774 0.3777 -1.1215 0.039 0.973 0.227 98 63 37 0 0
0.0771 0.3821 -1.1415 0.164 0.986 0.012 85 60 37 0 0
0.0968 0.1983 -0.0468 0.036 0.850 0.525 22 9 9 0 0
0.0947 0.2959 -0.1618 0.563 0.826 -0.006 64 44 37 0 0
0.0946 0.2956 -0.1706 0.545 0.836 -0.062 60 40 33 0 0
0.0945 0.2900 -0.1740 0.176 0.980 -0.091 60 40 33 0 0
0.0933 0.2457 -0.2721 -0.100 0.986 0.132 67 39 26 0 0
0.0933 0.2462 -0.2751 0.149 0.986 0.078 67 39 25 0 0
0.0932 0.2498 -0.2776 0.433 0.869 0.238 68 40 26 0 0
0.0919 0.2383 -0.3685 0.372 0.701 0.609 44 25 19 0 0
0.0919 0.2406 -0.3711 0.372 0.701 0.609 59 41 31 0 0
0.0906 0.2118 -0.4717 0.682 0.562 -0.468 68 41 23 0 0
0.0901 0.2066 -0.5050 0.551 0.831 0.071 63 37 24 0 0
0.0900 0.2069 -0.5081 0.551 0.831 0.071 62 36 23 0 0
0.0877 0.2216 -0.6622 0.469 0.881 -0.066 65 32 13 0 0
0.0875 0.2254 -0.6804 0.268 0.918 0.291 62 32 16 0 0
0.0874 0.2256 -0.6836 0.388 0.914 -0.118 57 28 12 0 0
0.0873 0.2209 -0.6918 -0.263 0.955 -0.140 56 27 11 0 0
0.0850 0.3039 -0.8241 0.158 0.932 0.326 65 30 11 0 0
0.0850 0.3061 -0.8296 0.160 0.950 0.269 68 31 12 0 0
0.0849 0.3069 -0.8324 0.145 0.970 0.194 69 31 12 0 0
0.0849 0.3078 -0.8352 0.251 0.854 0.455 73 35 15 0 0
0.0817 0.3762 -1.0350 0.198 0.974 0.106 92 57 29 0 0
0.0816 0.3738 -1.0428 0.287 0.949 0.129 97 63 35 0 0
0.0808 0.3619 -1.1019 0.127 0.966 0.224 52 24 14 0 0
0.0807 0.3618 -1.1052 -0.061 0.993 -0.096 55 25 11 0 0
0.0800 0.3764 -1.1485 0.065 0.968 0.244 62 45 29 0 0
0.0976 0.2922 -0.1622 0.110 0.990 0.084 63 43 34 0 0
0.0976 0.2927 -0.1651 0.321 0.946 0.054 61 41 32 0 0
0.0964 0.2533 -0.2619 0.037 0.857 0.513 68 42 29 0 0
0.0963 0.2467 -0.2690 -0.460 0.844 0.276 68 40 28 0 0
0.0963 0.2462 -0.2721 -0.165 0.982 0.089 67 39 26 0 0
0.0963 0.2465 -0.2751 -0.054 0.992 -0.115 68 40 26 0 0
0.0938 0.3029 -0.4219 -0.136 0.976 0.170 72 32 7 0 0
0.0905 0.2242 -0.6841 0.485 0.869 -0.092 57 28 12 0 0
0.0905 0.2216 -0.6883 0.042 0.964 -0.262 60 31 15 0 0
0.0904 0.2184 -0.6960 -0.423 0.863 0.278 57 28 13 0 0
0.0904 0.2194 -0.6990 -0.423 0.863 0.278 55 26 12 0 0
0.0903 0.2186 -0.7025 -0.387 0.806 0.448 54 25 11 0 0
0.0880 0.3053 -0.8299 -0.440 0.894 0.083 68 31 12 0 0
0.0879 0.3069 -0.8357 -0.189 0.951 0.246 72 34 13 0 0
0.0879 0.3059 -0.8393 0.097 0.911 0.400 76 37 15 0 0
0.0878 0.3071 -0.8420 0.065 0.989 0.131 79 37 13 0 0
0.0873 0.3079 -0.8772 0.232 0.968 -0.098 86 59 38 0 0
0.0873 0.3073 -0.8807 0.042 0.995 0.088 83 56 35 0 0
0.0872 0.3076 -0.8838 0.248 0.959 0.134 86 58 37 0 0
0.0864 0.3043 -0.9441 -0.269 0.850 0.453 59 30 13 0 0
0.0863 0.3049 -0.9504 0.044 0.991 0.127 63 35 16 0 0
0.0862 0.3061 -0.9530 -0.067 0.848 0.525 66 41 24 0 0
0.0860 0.3210 -0.9650 0.464 0.700 0.544 93 76 68 0 0
0.0855 0.3508 -0.9847 -0.043 0.861 0.506 87 68 61 0 0
0.0850 0.3651 -1.0123 0.508 0.846 0.161 71 33 10 0 0
0.0847 0.3768 -1.0346 0.060 0.990 0.126 93 58 30 0 0
0.1044 0.2105 0.0718 -0.708 0.680 0.194 183 182 184 0 0
0.1007 0.3076 -0.1434 0.154 0.986 -0.064 69 44 29 0 0
0.1005 0.2911 -0.1653 -0.058 0.956 -0.288 62 42 33 0 0
0.1003 0.2736 -0.1847 -0.583 0.808 -0.088 63 43 35 0 0
0.1003 0.2740 -0.1876 -0.557 0.828 -0.063 62 43 35 0 0
0.1002 0.2747 -0.1905 -0.280 0.950 0.141 62 42 34 0 0
0.1002 0.2738 -0.1935 -0.172 0.863 0.475 62 42 34 0 0
0.0990 0.2326 -0.3018 -0.695 0.536 0.480 69 42 28 0 0
0.0981 0.2221 -0.3718 -0.504 0.864 0.024 62 45 38 0 0
0.0980 0.2222 -0.3749 -0.504 0.864 0.024 63 46 36 0 0
0.0979 0.2323 -0.3760 0.390 0.919 0.060 53 32 21 0 0
0.0968 0.2000 -0.4779 0.493 0.802 -0.337 79 55 40 0 0
0.0955 0.1974 -0.5658 0.311 0.881 0.355 79 45 27 0 0
0.0953 0.2034 -0.5770 0.619 0.783 -0.062 82 50 29 0 0
0.0949 0.1946 -0.6156 0.242 0.871 -0.427 79 47 27 0 0
0.0937 0.2261 -0.6802 0.452 0.892 0.016 61 33 17 0 0
0.0937 0.2259 -0.6836 -0.060 0.998 0.031 62 34 18 0 0
0.0936 0.2259 -0.6868 -0.058 0.998 0.004 64 36 19 0 0
0.0936 0.2260 -0.6901 -0.058 0.998 0.004 62 34 17 0 0
0.0935 0.2253 -0.6936 0.074 0.975 -0.211 61 32 16 0 0
0.0935 0.2258 -0.6967 0.190 0.980 -0.065 61 31 16 0 0
0.0903 0.3068 -0.8842 -0.051 0.998 -0.043 83 55 34 0 0
0.0885 0.3504 -0.9850 0.670 0.722 0.173 88 68 61 0 0
0.0885 0.3537 -0.9864 0.463 0.798 0.384 85 66 56 0 0
0.0883 0.3584 -0.9999 0.517 0.822 0.241 73 37 17 0 0
0.0881 0.3649 -1.0092 0.333 0.938 0.101 72 34 11 0 0
0.0880 0.3637 -1.0131 0.487 0.857 -0.170 71 33 10 0 0
0.0879 0.3620 -1.0238 0.087 0.978 0.189 75 36 12 0 0
0.0872 0.3742 -1.0652 0.080 0.992 -0.093 98 67 40 0 0
0.0870 0.3691 -1.0877 0.274 0.958 -0.082 42 18 11 0 0
0.0869 0.3690 -1.0911 -0.112 0.994 0.021 40 16 8 0 0
0.0867 0.3711 -1.1060 0.047 0.926 0.374 77 36 16 0 0
0.1047 0.2489 -0.0952 0.507 0.839 0.195 74 45 31 0 0
0.1024 0.2435 -0.2695 0.775 0.631 0.015 67 39 27 0 0
0.1023 0.2436 -0.2726 0.775 0.631 0.015 66 38 25 0 0
0.1023 0.2437 -0.2756 0.775 0.631 0.015 66 38 24 0 0
0.1019 0.2422 -0.3033 -0.290 0.909 0.300 70 49 36 0 0
0.1018 0.2456 -0.3088 -0.252 0.898 0.362 72 46 33 0 0
0.1011 0.2254 -0.3712 -0.639 0.744 -0.193 61 46 40 0 0
0.1011 0.2238 -0.3746 -0.622 0.723 -0.301 57 41 30 0 0
0.1010 0.2307 -0.3763 0.445 0.895 -0.043 58 37 26 0 0
0.1010 0.2210 -0.3845 0.612 0.597 -0.518 56 33 20 0 0
0.0997 0.3010 -0.4254 0.581 0.798 0.162 82 42 20 0 0
0.0988 0.1875 -0.5622 0.677 0.645 0.355 83 56 38 0 0
0.0988 0.1897 -0.5648 0.630 0.610 0.481 83 55 38 0 0
0.0986 0.1952 -0.5697 0.770 0.637 0.025 79 50 33 0 0
0.0986 0.1994 -0.5717 0.634 0.773 0.026 83 54 36 0 0
0.0981 0.1952 -0.6121 0.232 0.886 -0.401 85 55 38 0 0
0.0980 0.1950 -0.6155 -0.216 0.904 -0.369 84 54 37 0 0
0.0967 0.2290 -0.6923 0.594 0.785 -0.174 65 36 18 0 0
0.0965 0.2239 -0.7072 0.046 0.982 0.181 67 37 19 0 0
0.0964 0.2245 -0.7103 0.090 0.995 0.035 67 37 19 0 0
0.0964 0.2252 -0.7133 0.059 0.977 0.205 67 37 19 0 0
0.0938 0.3079 -0.8481 0.142 0.924 0.354 81 39 14 0 0
0.0938 0.3068 -0.8518 0.022 0.999 -0.049 88 46 19 0 0
0.0936 0.3062 -0.8618 0.138 0.970 -0.202 96 63 39 0 0
0.0924 0.3057 -0.9532 -0.106 0.831 0.546 68 44 30 0 0
0.0915 0.3534 -0.9898 0.533 0.803 0.268 83 62 49 0 0
0.0914 0.3537 -0.9929 0.446 0.799 0.404 82 56 42 0 0
0.0911 0.3665 -1.0083 -0.307 0.940 -0.148 72 34 11 0 0
0.0909 0.3629 -1.0265 -0.070 0.981 0.179 77 37 12 0 0
0.0905 0.3722 -1.0437 0.232 0.972 0.040 99 65 37 0 0
0.0901 0.3689 -1.0749 0.057 0.997 0.044 87 59 37 0 0
0.0901 0.3690 -1.0780 0.057 0.997 0.044 74 46 28 0 0
0.0900 0.3695 -1.0875 -0.143 0.989 0.025 40 17 10 0 0
0.0892 0.3744 -1.1399 0.183 0.951 -0.251 95 63 39 0 0
0.0890 0.3753 -1.1524 0.073 0.990 0.117 89 76 61 0 0
0.1097 0.2281 0.0392 -0.477 0.685 0.551 113 82 62 0 0
0.1088 0.2594 -0.0014 -0.125 0.990 -0.059 73 40 21 0 0
0.1088 0.2581 -0.0043 0.563 0.826 0.008 69 37 19 0 0
0.1088 0.2189 -0.0345 -0.938 0.346 0.014 45 23 14 0 0
0.1073 0.2705 -0.1057 0.087 0.352 0.932 93 66 55 0 0
0.1072 0.2771 -0.1082 0.037 0.408 0.912 97 70 61 0 0
0.1065 0.3118 -0.1345 -0.029 0.982 0.188 85 47 25 0 0
0.1064 0.3126 -0.1402 -0.024 0.993 -0.119 73 43 24 0 0
0.1054 0.2432 -0.2696 0.546 0.822 0.160 66 38 26 0 0
0.1043 0.2241 -0.3652 -0.006 0.970 0.242 36 19 16 0 0
0.1042 0.2248 -0.3682 -0.006 0.970 0.242 56 38 36 0 0
0.1041 0.2288 -0.3736 0.429 0.886 -0.176 69 52 41 0 0
0.1041 0.2290 -0.3767 0.299 0.912 -0.282 60 38 27 0 0
0.1041 0.2171 -0.3854 0.612 0.597 -0.518 59 36 23 0 0
0.1018 0.1839 -0.5796 0.609 0.793 0.009 90 67 48 0 0
0.1017 0.1839 -0.5829 0.609 0.793 0.009 91 67 49 0 0
0.1017 0.1840 -0.5861 0.609 0.793 0.009 90 66 49 0 0
0.1014 0.1875 -0.6048 0.838 0.543 -0.056 90 65 50 0 0
0.1012 0.1935 -0.6160 0.755 0.655 0.038 85 61 47 0 0
0.1011 0.1927 -0.6195 0.677 0.736 0.002 85 61 47 0 0
0.1003 0.2095 -0.6697 0.490 0.859 0.146 70 42 27 0 0
0.0998 0.2246 -0.6939 0.739 0.652 -0.167 66 39 22 0 0
0.0998 0.2262 -0.6966 0.686 0.727 -0.029 66 39 22 0 0
0.0995 0.2245 -0.7136 0.480 0.857 0.187 67 39 23 0 0
0.0993 0.2282 -0.7253 -0.068 0.995 0.074 64 36 20 0 0
0.0967 0.3061 -0.8619 0.147 0.948 -0.283 99 68 46 0 0
0.0958 0.2934 -0.9365 -0.110 0.989 -0.103 58 31 14 0 0
0.0950 0.3266 -0.9718 0.149 0.743 0.652 92 75 67 0 0
0.0949 0.3306 -0.9762 0.004 0.758 0.653 91 74 66 0 0
0.0939 0.3683 -1.0234 -0.254 0.966 -0.050 78 38 13 0 0
0.0938 0.3688 -1.0263 -0.253 0.942 0.223 80 40 15 0 0
0.0938 0.3695 -1.0292 -0.142 0.951 0.273 84 45 18 0 0
0.0935 0.3715 -1.0442 0.232 0.972 0.040 99 65 36 0 0
0.0932 0.3696 -1.0712 0.119 0.992 -0.045 91 61 36 0 0
0.0931 0.3664 -1.0796 0.183 0.970 -0.161 71 43 25 0 0
0.0931 0.3668 -1.0826 0.109 0.993 -0.043 62 37 24 0 0
0.0930 0.3667 -1.0892 0.038 0.996 0.077 38 15 8 0 0
0.0927 0.3734 -1.1079 -0.356 0.876 0.324 78 40 16 0 0
0.0924 0.3749 -1.1265 0.273 0.954 0.121 97 63 35 0 0
0.0922 0.3733 -1.1406 0.326 0.945 0.038 95 63 39 0 0
0.0920 0.3750 -1.1526 0.145 0.989 -0.031 95 83 69 0 0
0.1115 0.2477 -0.0279 0.534 0.577 -0.618 70 48 35 0 0
0.1088 0.2562 -0.2286 0.391 0.810 0.437 65 42 34 0 0
0.1087 0.2564 -0.2316 0.260 0.906 -0.334 63 40 32 0 0
0.1087 0.2432 -0.2484 0.509 0.856 -0.088 65 41 31 0 0
0.1086 0.2420 -0.2547 0.349 0.911 -0.222 65 42 32 0 0
0.1084 0.2430 -0.2697 0.212 0.965 -0.156 71 43 31 0 0
0.1083 0.2422 -0.2729 0.232 0.941 -0.246 72 44 31 0 0
0.1081 0.2388 -0.2978 0.283 0.843 -0.458 76 52 35 0 0
0.1072 0.2273 -0.3740 0.499 0.854 -0.147 68 50 38 0 0
0.1072 0.2149 -0.3859 0.465 0.632 -0.619 62 39 27 0 0
0.1063 0.1705 -0.4919 -0.422 0.905 -0.050 90 75 66 0 0
0.1062 0.1703 -0.4952 -0.422 0.905 -0.050 86 72 62 0 0
0.1044 0.1909 -0.6136 0.828 0.561 0.010 89 69 57 0 0
0.1036 0.2024 -0.6623 0.102 0.985 0.140 77 52 39 0 0
0.1029 0.2195 -0.6990 0.883 0.466 0.063 69 41 26 0 0
0.1029 0.2219 -0.7014 0.861 0.467 0.200 69 42 27 0 0
0.1028 0.2123 -0.7148 0.719 0.686 0.114 68 40 25 0 0
0.1027 0.2158 -0.7235 0.514 0.858 -0.019 68 40 25 0 0
0.0999 0.3069 -0.8454 -0.315 0.945 0.087 80 40 12 0 0
0.0999 0.3076 -0.8515 0.017 0.999 -0.027 91 50 20 0 0
0.0994 0.2938 -0.9003 0.290 0.925 -0.246 79 46 26 0 0
0.0989 0.2930 -0.9367 0.230 0.973 0.037 61 34 17 0 0
0.0984 0.3121 -0.9565 0.227 0.748 0.623 80 61 51 0 0
0.0982 0.3177 -0.9634 0.248 0.766 0.593 94 75 68 0 0
0.0982 0.3196 -0.9657 0.248 0.766 0.593 92 73 66 0 0
0.0965 0.3708 -1.0446 0.232 0.972 0.040 102 69 38 0 0
0.0960 0.3668 -1.0859 0.242 0.967 0.079 38 15 8 0 0
0.0960 0.3672 -1.0889 0.109 0.963 0.245 38 15 8 0 0
0.0959 0.3693 -1.0941 0.113 0.940 0.322 48 21 9 0 0
0.0953 0.3707 -1.1390 0.114 0.962 -0.247 98 64 37 0 0
0.1145 0.2448 -0.0280 0.534 0.577 -0.618 72 52 42 0 0
0.1119 0.2850 -0.1895 -0.666 0.738 -0.109 69 50 43 0 0
0.1119 0.2825 -0.1928 -0.356 0.934 0.020 70 51 43 0 0
0.1119 0.2365 -0.2372 -0.221 0.948 0.230 65 41 33 0 0
0.1117 0.2413 -0.2457 0.499 0.860 0.106 67 43 33 0 0
0.1117 0.2418 -0.2487 0.497 0.866 -0.050 67 43 33 0 0
