ply
format ascii 1.0
element vertex 688
property float x
property float y
property float z
property uchar diffuse_red
property uchar diffuse_green
property uchar diffuse_blue
end_header
0.09087482975920601 0.01751128923092311 -0.11200517845806547 107 79 68
0.08566546819272752 0.025313290512458352 -0.11529649107683902 132 108 96
0.08799152712085305 0.021961160605234224 -0.1178798887480846 133 106 95
0.08975191981867134 0.019446105833259324 -0.1205090610931141 131 103 87
0.09136221723361326 0.017153009724207073 -0.12314566872332665 102 67 45
0.09294099923924885 0.014906340170157094 -0.12577835591875836 92 52 24
0.09447592522333881 0.012724378112667807 -0.12840871438537513 87 47 20
0.09817096590881302 0.007343509210523864 -0.13079156320363824 79 40 16
0.09747700298489041 0.008461631798008133 -0.13365668336270561 76 39 17
0.09479398694914323 0.01252565082754346 -0.13675938915337826 73 38 18
0.09522014208934795 0.011985327630812795 -0.13950643429841844 70 35 16
0.09494982301734826 0.012476556430687676 -0.14233776740002826 67 34 17
0.09487083635909853 0.012684472062775773 -0.1451481131462394 66 37 23
0.09523547986993558 0.012235289682806655 -0.14790369860241062 65 42 30
0.09586959540032862 0.011386891576438497 -0.15062361811569694 66 48 38
0.0953803699128468 0.01220265722518414 -0.15349109340941058 66 49 38
0.09462368972047701 0.013414814156279497 -0.15639902397621108 66 49 39
0.09386960901732644 0.014623300698399242 -0.15931217602350473 66 49 39
0.09285208253422714 0.016222332620167347 -0.16226812395512827 65 48 38
0.09141158533432409 0.018448372442377355 -0.16529200175703096 63 45 37
0.09040549794202841 0.02003094526212786 -0.16826145517341684 63 44 37
0.08592729953309032 0.02675951571193766 -0.17175687720360258 64 46 36
0.08440529173118684 0.02910750358820443 -0.17482826686459027 64 46 36
0.08252017429281368 0.03199401314819548 -0.1779657131436826 64 45 38
0.08229474316799477 0.032420759471160784 -0.1808532590583651 63 44 37
0.08222552827896806 0.03261602160217842 -0.18371846759221575 62 43 36
0.08180729285929031 0.033328758021611685 -0.18664248514603152 59 41 32
0.08024843702232799 0.035732657907277005 -0.18975949124039657 59 41 31
0.07877167758260134 0.0380151631487317 -0.19287268562332446 58 39 32
0.07814123825955743 0.03904310694458098 -0.1958504434004798 57 38 32
0.07662855849860192 0.041379423437677164 -0.1989867574846041 57 38 32
0.07849906192327681 0.03869907433606894 -0.20153457143856754 57 38 32
0.08047315407284394 0.03586481792573601 -0.20405501933665382 56 37 31
0.07267551739663893 0.048653370411084404 -0.24317583600246992 55 38 31
0.07220377017007014 0.049448111765469024 -0.24619098299674938 55 38 31
0.0707447160765648 0.05170849581234763 -0.24942839456237859 54 37 30
0.07307503224421644 0.04834410181663282 -0.25182773677620746 51 34 27
0.07064819558008587 0.052041470626083365 -0.2552930468986338 52 35 27
0.0686688983759371 0.055074900094358975 -0.2586707425998283 51 34 24
0.06629168227616845 0.058699529474942155 -0.26215326868925426 50 33 24
0.06584336604563054 0.05946060812073006 -0.2651976474972917 52 35 27
0.06691759428755917 0.057961007841152865 -0.2678843661916658 53 36 28
0.06598023031386957 0.05944843701044274 -0.2710501219950267 52 35 26
0.06467332664080677 0.061484877596452256 -0.2743124715375536 51 33 21
0.06407951531581875 0.06246254825671762 -0.27740829103909564 49 30 19
0.0649048975389891 0.06133251925860575 -0.28015605073234656 49 29 18
0.06603829741153178 0.05974488056723403 -0.2828233193646319 50 30 20
0.06356293257664454 0.06351765746932175 -0.28640331861916835 49 29 20
0.06374546361095634 0.06334257193330647 -0.2893155184121924 43 23 14
0.06594678466875127 0.0601683660608239 -0.29170375749756766 41 22 13
0.05756000555471565 0.073015019614394 -0.30580803070655876 71 53 47
0.06788363658919463 0.05805859852520281 -0.3148456387855452 57 27 13
0.06878702743858271 0.05681195634522996 -0.317550871489879 61 32 18
0.06915831451566845 0.05635618296729588 -0.32040572405538675 60 31 17
0.07174812072071804 0.05260232027843891 -0.3226154470713988 59 29 15
0.07244387257880477 0.05166392925348721 -0.32536785792062584 66 35 21
0.0709217454756171 0.05402298701005198 -0.3287747963893153 63 37 21
0.06639327538522674 0.0608524537930073 -0.3330906719889489 53 30 19
0.06361844778907055 0.0650751758501808 -0.33690432778612533 30 13 7
0.061043490430501175 0.0690012351827206 -0.340674273996644 27 10 6
0.059565337768101675 0.07129669523782325 -0.3441231134807165 41 24 17
0.057538909254541054 0.07440789903098882 -0.3477519412346321 39 22 15
0.05770955570895985 0.07425172812618004 -0.3507060014219481 38 21 14
0.05671099638687248 0.07583469067122604 -0.3540299890665216 38 21 14
0.05507963100531231 0.07835920089544213 -0.3575628536407837 39 22 14
0.05750502219063043 0.07484917357113599 -0.3598023102359808 42 24 17
0.05825705545384869 0.07382821794767103 -0.3625723704411404 36 22 13
0.05907908414925848 0.07270303737553122 -0.365316885810254 23 10 4
0.05903861952311321 0.07286105220124503 -0.36834294106203685 35 20 16
0.06037210119405676 0.07097472086312004 -0.3709136000596591 53 36 26
0.06231997294915312 0.06817393978137809 -0.37327212581986824 49 27 14
0.06372967091037579 0.06617374387279132 -0.37580336929382707 52 28 17
0.06463431186890903 0.06492499494707724 -0.37850058992187113 44 21 12
0.0662617100423851 0.0626004172922585 -0.38094558604444745 47 25 14
0.06587790302574978 0.06326915026716312 -0.3840807034821572 48 25 14
0.0669257465303486 0.061806948090833765 -0.3867188526093152 63 39 29
0.06667046710446752 0.06228446490612327 -0.3898121350748242 62 38 28
0.0706301050635803 0.05648726508552915 -0.39141032913935503 51 25 15
0.07386885852874309 0.05176264611732727 -0.39324591530442277 49 22 11
0.07485115551902805 0.050397120753119945 -0.3958795371032692 51 24 13
0.08103664330877475 0.04128395237127385 -0.3966154302688001 62 34 23
0.0798965036383378 0.04307817604605687 -0.4000047777525563 59 30 19
0.08204637240621893 0.03997325540464072 -0.40218605970654003 59 30 18
0.08513844172206596 0.03546479804670463 -0.404005726742549 78 48 35
0.08827163412778559 0.030894573133623603 -0.4057939299311146 87 61 52
0.09141047250990385 0.026315410393578844 -0.4075637219641533 96 70 58
0.09383116708674448 0.022805426967344316 -0.40959083339563485 93 60 40
0.09421486954697222 0.022329431030467976 -0.4123876902017832 78 41 15
0.09382323038101192 0.023008466618444367 -0.41548378562784755 75 38 12
0.0939837878413929 0.022864949297924198 -0.4183685517512075 73 35 12
0.09555366982006706 0.020621675226785145 -0.42070087308191195 75 37 14
0.09373558548485329 0.0234262673222622 -0.42436510789778176 74 36 13
0.0951321368580106 0.021441107593108293 -0.4267613249702543 73 37 15
0.09540959081827234 0.021123414671972113 -0.42959992474132724 73 39 20
0.09452594514631629 0.02253609591069788 -0.4329074786482492 74 46 28
0.09367696719506807 0.02389732449492601 -0.43620756915795716 78 54 37
0.04803755145519242 0.09252013749224751 -0.4733342811739538 56 31 11
0.04900297211395856 0.09118128735294467 -0.47602168056171545 56 31 11
0.04840965649069297 0.09216658648510012 -0.47937502865052944 57 32 12
0.04855923089872771 0.09204423659658491 -0.4824120662860154 58 31 13
0.047682033421605846 0.09345315320046352 -0.4858970561366343 57 30 13
0.050558519086378026 0.08926401193276884 -0.48774324126746904 56 29 12
0.05058622121482459 0.08932335362917257 -0.49083155466157447 54 27 10
0.0508686093645144 0.08900285542775843 -0.4938082528679289 53 26 9
0.05085049471558176 0.08913061522502647 -0.49691931736636236 51 24 7
0.050873317134994045 0.08919736319200919 -0.5000137319879652 57 30 11
0.05240479934008738 0.08701342572791633 -0.5024265503710913 61 33 14
0.05517069557486429 0.08298754486393001 -0.5042696632684316 63 33 15
0.05465852665265906 0.0838522849087184 -0.5076017251573759 63 33 15
0.05465932822497141 0.08395174165027314 -0.5107016869327091 63 33 15
0.05574423003277819 0.08243350052074462 -0.5132998767477323 64 33 13
0.055350639401538476 0.08312153314462731 -0.5165843086405286 65 34 14
0.05446414807011221 0.08454531917109337 -0.52010443633483 67 36 16
0.054211301861557884 0.08502358858749066 -0.5233316128330711 69 38 18
0.05431080702300646 0.08497602983889362 -0.5263942165905546 70 39 19
0.054022624526156415 0.0855072171658553 -0.5296435695899159 68 36 16
0.05250155565846694 0.08787898811796843 -0.5334902529832847 67 35 14
0.05240759845521005 0.08812054786616097 -0.5366557476953764 68 36 15
0.05278252045320826 0.0876621400444107 -0.5395948436708179 69 37 16
0.053708408231103275 0.08638106827953143 -0.5422631862865184 71 39 18
0.05344701099392042 0.08687272496971683 -0.545513645959493 72 39 18
0.05338348693814743 0.08706900356962743 -0.5486690989036042 72 37 17
0.053547891317343 0.08692496394211924 -0.5517128129508954 71 36 16
0.05367056280458332 0.08684327508553102 -0.5547782089878937 67 32 12
0.055070742653848204 0.08485356413358486 -0.5571993351523863 64 29 9
0.0554467456191971 0.08439342382324645 -0.5601342509978402 68 33 13
0.055535808769454895 0.08436188724602786 -0.5632152583000638 71 36 16
0.055492251802261985 0.08452850423011615 -0.5663655766628871 71 37 16
0.05538693396079451 0.0847874521484654 -0.5695497528859769 70 38 15
0.054573214908076914 0.086104860700018 -0.5731043806087686 72 40 17
0.0521199189851054 0.08987224198482707 -0.5775223259732463 73 41 18
0.051943377073745065 0.09023813091100398 -0.5807598042819225 73 40 17
0.05173354824474867 0.09065385032611921 -0.5840176066835162 74 40 18
0.054513077561447645 0.08660228163099697 -0.5856897869402435 77 41 19
0.05350554978833422 0.08821008706145009 -0.5893709233396183 79 42 21
0.04905428516283619 0.09496521555154615 -0.5949098889085497 77 41 17
0.04874641732687118 0.09552805170027719 -0.598238406573222 78 42 18
0.05005887883937406 0.0936689174122978 -0.6006903709745943 82 46 22
0.05099283765750713 0.09237541399017665 -0.6033430259022401 80 44 19
0.05384294424884163 0.08821714492179597 -0.604939886746392 81 44 18
0.05472619464454748 0.0869990267635811 -0.6076073254193978 81 44 18
0.05380608684013456 0.0884771621927855 -0.6112719749694968 81 42 17
0.05488583541395291 0.08696516830180367 -0.6138281197539027 78 41 15
0.05578226623876267 0.08572715365133894 -0.6164824161084123 77 40 14
0.05257671787847662 0.09062344736952646 -0.6214456398314235 76 39 13
0.054177044677651706 0.08833286413266708 -0.6237059830501555 76 39 13
0.05438507335737293 0.08812444954724047 -0.6267517253726064 77 41 14
0.05170027732650377 0.09224304166349201 -0.6314544138231312 81 45 18
0.05201153636073717 0.09188051783500414 -0.6344502640835771 77 41 14
0.05225550337322629 0.09161865625637039 -0.6374849262101409 73 37 11
0.05637184665438623 0.08556351705475629 -0.6382681575301071 72 36 11
0.05562806869894074 0.08677911694935903 -0.6418691953453555 73 38 13
0.055149859741116414 0.08759755889532744 -0.6453203625144289 73 38 12
0.055612855034391756 0.08700778421543266 -0.6482204312421309 73 37 11
0.05530403060470811 0.08757295783542471 -0.6515774228990343 71 36 11
0.05576194032415101 0.08699080188895443 -0.6544807702647365 66 31 10
0.05611864612369355 0.08656007878493065 -0.6574437740519754 62 29 9
0.056135747434230304 0.08663763869839387 -0.6606109083455628 60 29 9
0.057034066635919284 0.08539622247045177 -0.6632463503162986 61 30 11
0.05753635190718839 0.08474752068722492 -0.6661190402323559 59 29 11
0.058368376614170145 0.08360515214719827 -0.6687889497802805 56 26 10
0.05759609713370101 0.08486450636470635 -0.6724408892240874 56 24 9
0.057881038760779005 0.08454118261284799 -0.6754467382718249 55 25 9
0.057613913909440734 0.08504447360807599 -0.6787949521062124 55 26 10
0.057014412655399346 0.0860455746507516 -0.6823535860051689 54 25 10
0.057393871102600955 0.0855808543095927 -0.6853046522920967 52 23 9
0.057716241603579535 0.08520161169519713 -0.6882911021841804 53 24 11
0.05832817164442897 0.08438869099677986 -0.6910943576594348 52 23 9
0.058700057352182186 0.08393524468792678 -0.694048127058329 52 22 10
0.05720893338663201 0.08627236550674922 -0.6981900123756523 50 20 9
0.058578348263073926 0.08432478329011973 -0.7005089807736348 50 20 10
0.05903056799429103 0.08375102687241678 -0.7034121559536797 51 21 11
0.058967638447484136 0.0839490260513372 -0.7066476569424461 51 21 10
0.0605611122376539 0.0816653409090729 -0.7088086625960867 51 21 10
0.06193580471929845 0.07970921891234883 -0.7111047195540781 49 21 9
0.0622182011756027 0.07938966197573412 -0.7141107887741188 50 22 10
0.06391001443837398 0.07695799631554638 -0.7161881439681925 51 23 11
0.06430996141548131 0.07646213602680835 -0.7191122655132403 52 24 11
0.06402684745184478 0.07699000246059662 -0.7224899476072071 54 27 10
0.06387948074960453 0.07731451424271742 -0.7257803995707564 56 29 11
0.06381042063327833 0.07752173301591203 -0.729020941622179 55 28 10
0.06501400103299328 0.07582125969457987 -0.731405889875708 55 27 12
0.06483774227371263 0.07618920213569175 -0.7347195045529097 54 26 12
0.06828986232166832 0.07111737495934664 -0.7355685556650039 55 27 13
0.0700082468542784 0.06864440835429847 -0.7375827514747609 54 26 12
0.06951712081272059 0.06948421172982525 -0.7411041666121393 53 26 11
0.06987254442422237 0.06905472652879865 -0.7440469605760958 54 26 12
0.07022805846928869 0.06862509277782661 -0.7469892936283787 55 27 13
0.07114070640419633 0.06735988807223217 -0.7495439596678495 56 28 13
0.07018293990836161 0.06889988668732772 -0.7534006500429599 55 27 13
0.06926740883944701 0.07037677953582631 -0.7572352683898965 54 26 12
0.06837814585065616 0.07181450600275732 -0.7610586814356365 54 26 12
0.06833482974358447 0.07198342853200995 -0.7642909749625671 53 24 11
0.0752454163094675 0.06171993035598169 -0.7625863861361434 51 21 8
0.07569786861563406 0.06114448220866723 -0.7654480345038764 51 21 9
0.07674447863720375 0.059677508801226534 -0.7678830951399787 51 21 9
0.07743948727432225 0.05873797449267486 -0.770566473485682 51 21 10
0.07787774180926872 0.058183652563846694 -0.7734328530679886 50 20 9
0.07878617471030726 0.05692369157313651 -0.775957251737241 51 21 10
0.08277325479239073 0.05166182281542439 -0.7952934653238315 54 25 11
0.08261050102296212 0.05200952074941166 -0.7985979856736218 54 25 11
0.08482338224391608 0.048790013882337974 -0.8001168443165053 53 24 10
0.0862163332631645 0.04680142769785771 -0.8022437015482188 53 24 9
0.08720010788488494 0.04542712950398763 -0.8046743333287794 54 25 10
0.08915733408543844 0.042590651739527995 -0.8063589519966317 53 24 9
0.08911299297408215 0.042760224185126275 -0.8095646263476156 53 24 8
0.09009826911000002 0.04138326049513385 -0.8119814743086639 54 25 9
0.09155192064074677 0.0393025582969888 -0.8140328468390464 56 27 11
0.09123148948079934 0.03988684989035398 -0.8174506045384645 56 27 11
0.09036111145010509 0.041297508761683435 -0.8212995473100273 57 28 12
0.09225275772575167 0.03855842507248248 -0.8230002117638523 58 29 13
0.09335486607146351 0.037005389788962104 -0.825309567331454 60 28 13
0.09544308375749541 0.033970354685164766 -0.826838334350487 59 28 11
0.09742715847213002 0.03109146706745603 -0.8284382514865456 59 28 10
0.09801325042287909 0.03031328287171447 -0.8311358267869222 60 28 9
0.09778380599517109 0.030760797833616876 -0.8344804865250067 62 29 10
0.09970117685696439 0.027981515942856923 -0.8361134341501107 65 32 11
0.09752418832313742 0.03135658944116572 -0.8410195052602563 70 35 14
0.09882800126642086 0.029499431622221163 -0.843138836412485 72 35 14
0.10039470041447239 0.02724684405358891 -0.8450394612994027 72 36 14
0.10117731916237811 0.026172872576677365 -0.8475681649239541 72 36 13
0.10215498037970842 0.024805533318297525 -0.8499349854427286 78 42 18
0.10287928928815916 0.023819023543301246 -0.8525045869740319 83 47 22
0.10298406126731541 0.023764091817449755 -0.8555797285923757 81 47 23
0.1030967512206187 0.023697288065252183 -0.8586494558447176 78 49 27
0.10320947351464546 0.023630470016536204 -0.8617202142465228 81 54 35
0.10413474088999436 0.0223415273616231 -0.8641178873233095 83 57 37
0.10396049895430189 0.02270635163941992 -0.8674272217764737 77 54 35
0.10393340336948514 0.02284991380811658 -0.8706163989254952 75 52 36
0.10382003114655071 0.02312333431980375 -0.8738798862103972 72 49 32
0.10177642394596884 0.026300901614603647 -0.8787712219110783 67 44 26
0.10286528150347449 0.024765783213582707 -0.8810295420281676 71 48 31
0.10255230870391527 0.025339859510848946 -0.884472003770288 72 49 33
0.1022549545481791 0.02589055310407317 -0.8879048796973901 71 48 32
0.10085254833653504 0.028104376851779488 -0.8922856283380706 67 44 28
0.10084643119457253 0.02821709979045523 -0.8954794147280848 65 42 26
0.10055214487382606 0.028763610775814123 -0.89892304454468 64 39 24
0.10025774486496405 0.029310410052709145 -0.9023703815361341 63 37 22
0.09996304461076694 0.029857778582245358 -0.9058215915140065 62 36 20
0.09679891213039844 0.034724975019240246 -0.91177299090433 67 41 26
0.09642956059951532 0.03538525842356912 -0.915305572320277 75 53 33
0.09625045283219105 0.03575923880430914 -0.9186755381758126 81 59 37
0.0962931091058578 0.03579939747438877 -0.9218533902981575 87 62 40
0.09698504748048684 0.03486189803762599 -0.9244597492302871 90 64 42
0.09741500944834636 0.03431883462548087 -0.9272956016002868 86 60 36
0.09783736716328656 0.033787194419006183 -0.9301373180814191 86 56 31
0.09814886522909838 0.03342249611184785 -0.9330770655583147 79 48 24
0.09680607536001755 0.035549539262518595 -0.9374973421917424 66 36 17
0.09739381920571293 0.034768880025123065 -0.9401938424724329 50 24 11
0.09889028151643331 0.03261923114424759 -0.9420694084659582 42 20 9
0.09988741343419333 0.03122159739329297 -0.9443890145509725 43 20 7
0.10100334521353 0.029644830040216896 -0.9465963403751619 46 23 9
0.10216548582946725 0.02799826873639094 -0.9487563746743125 51 28 14
0.10219415981982549 0.028059488630920983 -0.9519467608247147 54 31 17
0.10435921469353607 0.024901345762831165 -0.9531796523368211 64 40 27
0.10508087600153182 0.023918085944829713 -0.9557288930648368 73 51 41
0.10522939868458203 0.02379854435935911 -0.9588045788581944 79 62 52
0.10525261758011761 0.02386789553190779 -0.9619972178319576 82 64 57
0.10683812352316069 0.02158237611829541 -0.9637391840069486 80 62 56
0.10779486317781745 0.020244430279466798 -0.9660594491584814 86 71 64
0.10934614482384775 0.018010038221242648 -0.9678190347236262 90 76 69
0.1116709400638961 0.01460918802328362 -0.9688442402877578 86 72 65
0.11434204669024291 0.010685762839894149 -0.9695302569501161 82 69 61
0.11572589960937923 0.008702858300544743 -0.971418154826359 90 77 69
0.11550223829773132 0.009143814156649811 -0.9748239132403935 91 78 70
0.1165174292503608 0.007716592572926909 -0.9770538403183399 93 80 74
0.117613133762869 0.006167791912182287 -0.9792022550906625 91 77 70
0.11940460457310667 0.0035694137752615845 -0.9806789464879324 101 86 78
0.12032032911766175 0.0022916860509770223 -0.9829878623701389 101 86 80
0.12075494743071423 0.0017395699500383777 -0.9857567370187696 93 80 76
0.12230953752751134 -0.0005021543918637614 -0.9874410075196122 92 79 72
0.12352615646494963 -0.002234246552001204 -0.9894452828704824 90 76 68
0.1277612738405578 -0.008520826510513897 -0.9885038842268569 89 73 65
0.1260224798261299 -0.005794198666484236 -0.9933743830521035 85 68 59
0.12793118673577827 -0.008571237514520873 -0.9946822085650716 78 59 51
0.12952238881237388 -0.01086946449154231 -0.9962919294434996 71 45 33
0.12944873087347716 -0.010655342460525664 -0.9995359047374559 71 40 22
0.13064664818807448 -0.01236035002656552 -1.0015235157722 67 35 13
0.13147936059878879 -0.01351430174691573 -1.0038679282337357 65 33 10
0.13471535381490907 -0.01829616380956927 -1.003814706840712 63 31 11
0.1348907098531326 -0.018458233758233335 -1.0068013509954965 61 30 10
0.13626330344936424 -0.020427782019387483 -1.0085883489795522 61 28 9
0.1367964392325109 -0.021130119236926398 -1.011212656668901 61 27 8
0.13778841875012462 -0.02252533234268405 -1.0133723880346384 61 27 8
0.1381977512824176 -0.023040875258730505 -1.0161172866936814 59 26 7
0.13930266585823659 -0.024606871803323653 -1.0181550908957215 62 27 8
0.13953012089910297 -0.02484786184913671 -1.0210813424242602 62 27 8
0.1397058579035695 -0.025010729056149095 -1.0240607633366239 65 30 7
0.1399744267820691 -0.02531379300796554 -1.0269456937463741 68 34 10
0.13977975418311553 -0.02491710257437526 -1.0303069747302143 72 36 13
0.13982630195024506 -0.024884715659598558 -1.0334225037257092 75 39 17
0.14000416617411854 -0.025050668644610884 -1.0364036650023578 84 50 28
0.14110073877400764 -0.026604648502284334 -1.0384320472105493 87 57 34
0.14149460352843413 -0.027097026278664588 -1.0411866946691113 90 60 36
0.1417233490258799 -0.02733992014119027 -1.0441130206113718 92 62 38
0.14185376822854667 -0.02743421470097767 -1.0471426565641793 93 65 43
0.14238162334628915 -0.028129117853187266 -1.0497556779669057 93 67 44
0.1406792918379815 -0.025453389080665745 -1.0547174283501728 93 67 44
0.14141402420521076 -0.02646085732756019 -1.057115733105382 93 67 44
0.1419547072145853 -0.027175095911994365 -1.0597168535147046 92 66 43
0.13888240245936645 -0.022427617533334714 -1.0661588625975824 88 62 39
0.13767253826290854 -0.020495092791606405 -1.0706357018557136 85 59 36
0.1386601758865874 -0.021884690937648665 -1.0727708288446776 86 59 37
0.13785234752627717 -0.020559657805745826 -1.0768283392428815 85 59 37
0.13665522808569117 -0.018645739720298114 -1.0813119427296585 76 50 35
0.13700217792810632 -0.019066498538518176 -1.0841379693436952 63 38 26
0.13531330492714616 -0.016408425853500636 -1.0891682395396078 50 31 24
0.13184333801577422 -0.011056141686976599 -1.0961458521263263 33 18 12
0.1356579891686008 -0.016721380882951754 -1.0952117781885562 31 14 11
0.13645919422723057 -0.017829073708239038 -1.0975474725208114 39 19 13
0.1374711811932938 -0.01925573756479148 -1.0996487963369763 46 21 11
0.13644839181681945 -0.017604221746813337 -1.1039819021066206 57 28 11
0.13872696885890223 -0.020947287512833722 -1.1046840532261342 66 31 10
0.1390197053708172 -0.02128605517819073 -1.1075688651928166 77 39 13
0.14001886534594227 -0.02269376945892288 -1.1096702457445164 80 44 13
0.14075763537300315 -0.02370759179958995 -1.112056545137631 82 44 16
0.1419956003673861 -0.02547698706911327 -1.1138830543655525 81 46 19
0.1433871895270965 -0.027479094190686587 -1.115531471427842 85 56 30
0.1447730894455899 -0.02947282527351413 -1.1171790267484665 87 59 36
0.1459970913514768 -0.031221724525574833 -1.1190015337364694 85 58 37
0.14161571623021316 -0.024485336151989535 -1.127143258625494 83 57 34
0.14345931818076407 -0.027172065413380006 -1.1282705229490433 83 57 33
0.14234789591443497 -0.025385148134904084 -1.1327414689891708 82 54 33
0.14152251026321025 -0.02403103225634321 -1.1368959301380266 81 53 32
0.14511566379440827 -0.029367394565942333 -1.136013780466148 81 54 33
0.14421999724994417 -0.02790684887402102 -1.140248712634752 81 55 33
0.14442147890718127 -0.028107628232075202 -1.143231745222716 81 55 36
0.004703631110154906 0.13217148591276573 0.1140636728956566 169 161 157
0.005586897659296576 0.13096703508957563 0.11106159905292923 130 112 101
0.044515527581074875 0.07513887528415643 0.06448624454965522 58 27 10
0.042049928705278364 0.078853844728557 0.061842447158088704 54 24 9
0.04131945217318953 0.08001832650884645 0.05906381413445661 54 25 11
0.04551546390167202 0.07393973061964454 0.055950579356212206 52 25 13
0.04653878491848517 0.07252544228574302 0.05306163920184342 75 54 44
0.04912988261802196 0.0688057184928918 0.05007999644566642 112 92 81
0.04815239939297215 0.07033326415627905 0.04732104925982514 103 76 58
0.04654143726221808 0.0727926137457228 0.04459127369137663 83 49 25
0.046803431866779044 0.07249775173235008 0.04175090687773489 70 34 12
0.047756164275136015 0.07118697695403059 0.038875136254834936 71 35 13
0.04755030402414055 0.07158020657052795 0.03605914830401385 74 38 16
0.0484256750807973 0.07038309519178279 0.03319099700697704 75 40 17
0.04840675281864403 0.07050140605601277 0.0303647076336454 72 37 15
0.05018249764318567 0.06797962501698503 0.02746389773998164 64 29 9
0.049609852275308515 0.06891251445869341 0.024660296534253907 64 29 9
0.049206628171230164 0.06959628167959335 0.021846243356500938 65 30 10
0.04880273196448532 0.07028115190712364 0.01902864677834543 65 30 10
0.04914233853853881 0.06987211664715433 0.016185061360689475 64 29 9
0.04815391248377305 0.07141730283138456 0.013378360978406743 62 27 7
0.04670935281865534 0.0736339520961948 0.010576357821798584 65 30 9
0.04819334882264199 0.07154095690392438 0.00770012607693044 64 30 10
0.0480396849110788 0.07185802847391451 0.004862386879033327 65 32 11
0.04720200354269597 0.07318195154068327 0.0020339975181335665 67 32 11
0.0474315191442652 0.07293520628751324 -0.00081557200637432 67 32 12
0.047705038235613256 0.07262369442230206 -0.003665902274625702 63 28 9
0.04769123978688834 0.07273514746260128 -0.006513642929621949 63 28 8
0.04761785147762802 0.0729343777003823 -0.00936253314230296 63 28 8
0.046810969716706646 0.07421357791083445 -0.01221050317574848 62 28 8
0.04656062906668737 0.0746735276995569 -0.015064831658407433 59 27 6
0.04671588503856061 0.0745363445495161 -0.01792133346404672 58 25 7
0.04661645903439439 0.07477421093647225 -0.020779538976062675 59 26 8
0.047237023605067985 0.07395186637257112 -0.023634831226872263 59 26 9
0.047663662047728025 0.07341506002820987 -0.026490136608590474 62 29 11
0.04767199367656025 0.07349430748156544 -0.02934971522303018 60 27 9
0.048773353999447516 0.07196370295064841 -0.03219457404992368 58 25 9
0.04858010611896389 0.07233986780436018 -0.03505761247524156 58 25 10
0.04889580403935415 0.07196641111717332 -0.037912926549016714 57 27 11
0.048883981919244104 0.07207542825822463 -0.04077548011028256 53 25 11
0.048983314743353476 0.0720207390505416 -0.04363674461016941 45 24 14
0.04908273872789569 0.07196594573668087 -0.04649895023853764 28 16 11
0.045777502262874165 0.07692756865978997 -0.04946668325271611 10 6 3
0.05153887641091141 0.06853039370310403 -0.05215084449942148 9 6 8
0.043784312511613355 0.08004880946924128 -0.05529296480493262 10 6 6
0.04428293883675682 0.07940633248643406 -0.05815841547307968 10 6 5
0.04454933082451047 0.07910606842893048 -0.06103230058566026 16 8 7
0.04774011877176977 0.07449578901688927 -0.06377744324035642 30 15 13
0.05075421003684351 0.07014544518551599 -0.06651528980264663 90 71 67
0.05318195142909998 0.06665890472318024 -0.06926747529395251 57 35 26
0.055629193621256116 0.06314325079231375 -0.07200714965026334 72 49 37
0.05752212175013363 0.060444371062912075 -0.0747655537283093 89 68 57
0.05897970366980866 0.05838702018601501 -0.07754029754558223 101 81 71
0.05967978917747944 0.057446264836987476 -0.08035422611297816 83 59 45
0.061270637073668074 0.05519208449111314 -0.08310997232432452 56 29 13
0.06299559946392784 0.05273992674915985 -0.0858498904609823 55 27 13
0.0639362779485737 0.05144401350949317 -0.08863545946975616 58 29 15
0.07353417726153284 0.037562253434835734 -0.09645457336523629 79 56 49
0.07531068254436515 0.035032514592701604 -0.09914171239438763 83 61 50
0.07693470063882249 0.0327274377485047 -0.10183319790518423 87 65 51
0.07649431827038178 0.0334673267979168 -0.10469130370881977 92 66 52
0.08006726884966049 0.02828692231393751 -0.10720437708959135 101 73 57
0.08429467427449794 0.022140449407701657 -0.10964102506124243 94 63 51
0.0809022596167738 0.027235266031958024 -0.11275974706476616 107 77 67
0.08165244827997725 0.02621852904989329 -0.11550463525276673 136 110 100
0.08401711305743821 0.02281949855700821 -0.11808920022215942 132 104 93
0.08606937627728938 0.019881091828602197 -0.12069383055276842 131 103 87
0.0881900145461918 0.01684147581399243 -0.12328178984732165 104 69 46
0.08936918954408836 0.015190942664919119 -0.1259593547183898 88 48 21
0.09188912310649648 0.01156145698681258 -0.12848652965943347 87 48 22
0.09158743595793346 0.012096191744827539 -0.1313153020207318 77 39 15
0.09367929746417133 0.009098026829322717 -0.13387451554006372 74 37 16
0.09260665271564399 0.01077079054708421 -0.1367928777205774 70 35 15
0.09050093185687125 0.01396883776727427 -0.13984176153119346 67 32 14
0.09056733985368137 0.013960560431200553 -0.1426384442421712 62 29 12
0.09052008917409708 0.014120123473937603 -0.1454503997926924 66 36 22
0.09074921348658832 0.013871678144022235 -0.1482288442522855 65 42 30
0.09185403656531775 0.012330208668721136 -0.15089352083792265 66 48 38
0.0915452071271897 0.012876074393669697 -0.15374149842510687 66 50 38
0.09141205622813944 0.01316260817100179 -0.15656879075879615 67 50 40
0.09140161348096004 0.01326799257612356 -0.15938129456696296 67 50 40
0.09046072170994904 0.014747622707675592 -0.1623265341295058 64 47 37
0.08919327311056124 0.016709789591087293 -0.16532529520712158 63 45 37
0.08879873522058943 0.01738285432768965 -0.16820456549636692 63 44 37
0.08471749596685747 0.023501954567333713 -0.17163747218187816 64 46 36
0.08328164552233917 0.025713868595501028 -0.17469221017290573 65 47 37
0.0808334024244311 0.02942174260898449 -0.1779128073998592 65 46 39
0.08030779939256154 0.03028950362422785 -0.18084567614067937 63 44 37
0.0806363262791767 0.029895402600723354 -0.18364615459042027 61 42 35
0.07879237595996195 0.03271137853597042 -0.1868000588283575 59 41 32
0.07755470465927249 0.034631823889087324 -0.1898651485483365 59 41 31
0.07658349847888628 0.036158753719583256 -0.19289364950431725 58 39 32
0.07100336593327233 0.044497333231207074 -0.19671718578005265 57 38 32
0.07479187716686277 0.03899040276138195 -0.1989448667642634 57 38 32
0.07720155611348453 0.03552084448950865 -0.2013966724113415 57 38 32
0.07558458726201285 0.038002865084535785 -0.20455849174108306 57 38 32
0.06580158127037411 0.05367580381382512 -0.24419206877209462 55 38 31
0.06503294615926444 0.054906495346736056 -0.24728394999969308 55 38 31
0.06464884495557269 0.05556846874107533 -0.25029682313347035 54 37 30
0.06391227843382798 0.056752048943734465 -0.2533920359549782 53 34 28
0.0641045743302377 0.056561428593459764 -0.2562829273783239 54 35 28
0.06429671653645734 0.05637105085066278 -0.25917432854431377 55 37 27
0.06452458761060167 0.05612781622883245 -0.2620579330732242 54 37 28
0.06183532199099499 0.06020167079266749 -0.26562530400964846 53 36 28
0.06446217333021607 0.05640824105377564 -0.26794881679229543 53 36 28
0.06425564312836032 0.05680802800757872 -0.27093887920355647 51 34 26
0.06207565550791699 0.060128951987557994 -0.27441041167726493 52 34 22
0.06179953894901539 0.06063209192620253 -0.27742839916723444 49 30 19
0.059960524617170635 0.06344896116627431 -0.28083731346706187 50 30 19
0.061281287298604555 0.06158836030198142 -0.28346509222990973 48 28 18
0.061654991710188706 0.06112971737782608 -0.2863273684823215 46 26 17
0.06121573357958662 0.06187474097088268 -0.2893976383065205 45 25 16
0.0649327270386999 0.056465720736177394 -0.29139431276067196 43 24 14
0.06515513813811033 0.05689330904845391 -0.31498798917340587 59 29 15
0.06587498942086842 0.05592168397387394 -0.3177467197370297 62 33 19
0.06652651284840416 0.05505121428964632 -0.3205226085596761 58 29 15
0.06760131867677574 0.05355350711892513 -0.3231736850057738 58 28 14
0.0674371987852074 0.053891465082777625 -0.32618300071951645 64 34 19
0.06476905153816924 0.05794012877545741 -0.32993485227076935 62 36 20
0.062435144722644574 0.06149399219415808 -0.33360349297707836 52 30 18
0.05795509694035269 0.06822899686644053 -0.33793309053058573 29 12 5
0.056115554266666715 0.07105127771385991 -0.34148679374734164 27 11 6
0.05408617029770241 0.07415532641408706 -0.3451106336478715 41 24 16
0.05217288151612256 0.07708770111158555 -0.3487115110153225 37 20 13
0.05313902668131158 0.07575199235245542 -0.3514252663004558 36 19 12
0.051861074093503136 0.07774301727131264 -0.35484248584796285 37 20 13
0.05099856036185863 0.07911840105307033 -0.358136376476935 41 24 16
0.05474071102456671 0.07366678541699227 -0.35995951045694957 44 26 18
0.0536488768105295 0.07538219502901367 -0.3633275569351411 36 22 13
0.05688289813252447 0.07068324929932046 -0.3652912318955603 22 9 2
0.056953086783473134 0.07067555210719015 -0.36827998426587016 36 21 17
0.05886589740187784 0.06793522542858599 -0.3706580525363243 53 37 27
0.06011226291468641 0.06618302426908895 -0.3732501140484583 48 27 14
0.06144942148368286 0.06429598358743263 -0.37580607350124 48 26 14
0.061771728762382676 0.063914084387789 -0.3787016694630053 41 19 9
0.06253207773723782 0.0628823896396199 -0.38144663037896176 46 24 13
0.061957505309334936 0.06383094286331084 -0.3846510185257416 49 25 15
0.06085821186926433 0.06555811375368803 -0.38804338389974474 62 38 28
0.06287589111885328 0.06266099139564332 -0.39034687834774096 53 29 19
0.06767903136999989 0.055630611256663104 -0.39165261851210187 53 27 17
0.07137759424861116 0.05023843452919173 -0.39332764237686646 51 24 13
0.07483711821417847 0.04520035657926271 -0.39506943157039703 57 29 18
0.0783430808285315 0.040092785381933886 -0.3967763255867535 61 33 22
0.08142104744038664 0.03561982503981897 -0.3986215631676996 56 27 16
0.08113894545571992 0.03613340098350579 -0.40169026578410927 56 26 15
0.08229747612773035 0.03450874735296898 -0.4042266784076084 79 49 35
0.08564345765565469 0.02963690101952549 -0.40593881922949343 89 63 53
0.08936361873973118 0.024209033517614595 -0.4074923084414294 102 76 63
0.09038604253858827 0.022785527156543858 -0.41005193234615156 92 59 39
0.09087666734639074 0.022151427618993007 -0.41281101695817524 77 40 14
0.09123909305446559 0.021707633115361797 -0.4156183483321869 74 37 11
0.09157296595837225 0.02130621923379715 -0.4184362828067674 72 34 11
0.09212482039096465 0.020581105673641627 -0.4211685193632558 70 32 10
0.09091958927261688 0.022465264367804362 -0.4245922767460943 71 33 10
0.0919753930462674 0.020991784863448652 -0.4271261436064797 71 36 13
0.0918645002065445 0.021250954043768356 -0.43012242907028925 74 40 21
0.09152332892627288 0.021852227063651385 -0.43321372804425523 74 44 29
0.09041019880517141 0.023600276191998844 -0.4366218744489535 78 53 39
0.044677181923733364 0.09212632906617675 -0.4737600132081997 55 30 11
0.046603303527517945 0.08936330919995787 -0.4760414021061173 57 32 12
0.04422802417295278 0.09299242008010636 -0.4801578241282371 59 34 14
0.045022321661045694 0.09191133292544278 -0.48292133188780745 61 35 16
0.04727853868941054 0.08865728477989054 -0.4850466687370756 61 34 17
0.047206164298853576 0.08886410139102591 -0.48817925995105754 58 31 14
0.047293165782187174 0.0888340728226652 -0.4912437528776802 54 27 10
0.04719783421234841 0.0890751354100438 -0.4943902087716857 52 24 9
0.04664942085492166 0.08998985629107023 -0.4977409709747707 51 24 8
0.047524003523560995 0.08878906066324609 -0.5004577276740755 56 29 11
0.04824814419506826 0.0878118437809341 -0.5032390783216255 58 30 12
0.048878951568539414 0.0869733290508935 -0.506060354591174 61 32 14
0.04819725338930414 0.08808651112217877 -0.5094802339292364 62 33 15
0.0478364372574272 0.08872267545442197 -0.5127579573593416 62 33 15
0.050952956180539744 0.08418734957932553 -0.5144281824713285 64 33 14
0.05146530601599482 0.08352474978949932 -0.517296250337736 65 34 14
0.050680280003386674 0.08479184973856665 -0.5207716701578501 65 34 14
0.05052007440812961 0.08512972085622256 -0.5239583626803092 66 35 15
0.050053894201571636 0.08592284411967666 -0.5272929665171334 66 35 15
0.05078153221147401 0.084940067767973 -0.5300615067605755 67 35 15
0.050954136782490125 0.08478298287882968 -0.5330943180259483 67 35 14
0.04881005416413697 0.08807287725990998 -0.5372481968898052 67 35 14
0.0495484415262826 0.08707417972101003 -0.5400138065521994 67 35 14
0.049853343137759146 0.08672045497879652 -0.5429889659651195 69 37 16
0.04910448896552541 0.087934885450062 -0.5464828253472568 71 38 17
0.049500405487973465 0.08744579945855585 -0.5494157874199213 71 36 16
0.050063185191998025 0.08670834330627984 -0.5522650079016569 67 32 12
0.05035178027929353 0.0863789435778092 -0.5552500165938112 64 29 9
0.04998389481220139 0.08702673702337044 -0.5585658673963387 65 30 10
0.05055578368269546 0.08627568007109505 -0.5614092003667425 68 33 13
0.05076081914301489 0.08607071227917368 -0.5644379026557088 69 34 14
0.051271821363866724 0.08541023294048875 -0.5673102268990898 69 35 14
0.051959992969420374 0.08448592360704257 -0.5700899063430119 68 36 13
0.05236075492366565 0.08398949260649255 -0.5730162886787836 70 38 15
0.051581993742167986 0.0852494604161107 -0.5765570846092098 72 40 17
0.048956984443525156 0.08925903568374291 -0.5810722438105245 73 41 18
0.04907167129725347 0.08918898130886721 -0.584159805574111 74 41 18
0.049465483715233474 0.08870323751009046 -0.5871003950284065 78 43 21
0.04945857111226262 0.08881434110729557 -0.5902540233269223 79 43 21
0.04717380008337535 0.09231850937352812 -0.5946304930544593 79 45 20
0.047543958485886606 0.0918682322591087 -0.5975910304704929 80 46 21
0.04822553943028478 0.09095399901329843 -0.6003823327523319 82 48 23
0.04852236045317375 0.09061292406312813 -0.6033809866486075 82 48 22
0.05148644851710642 0.0862977901719903 -0.6049184748493504 83 48 21
0.05172856428123396 0.08603797486926482 -0.6079393564151178 82 46 20
0.05047801825529086 0.0880024199846797 -0.6117869659741095 80 43 17
0.05060247784314281 0.08791809646407303 -0.6148782860397005 77 40 14
0.05659188352232744 0.07909320286159788 -0.6146888419910626 77 40 14
0.05546879750152851 0.08086773971920815 -0.6184665983366372 79 42 16
0.053299288975790685 0.08420223601952655 -0.6228443529239651 80 43 17
0.04871062064063364 0.0911431830597626 -0.6286115962719058 82 47 19
0.04806310833544376 0.09221001151105593 -0.6321558963335931 83 48 20
0.0485188674882506 0.09163227819523553 -0.6350721494361401 77 42 14
0.04769950402868553 0.09295556606069551 -0.6387234682261371 73 38 11
0.04930758511252499 0.0906598109885044 -0.640972995830413 73 36 10
0.04932782233643421 0.09073138855612035 -0.6441406700504196 73 36 10
0.04942993710614417 0.0906809247832608 -0.6472619600273817 74 38 12
0.050782499190970096 0.0887657597336752 -0.6496478054035746 73 37 11
0.05242390950177393 0.08641961983116081 -0.6518563771079264 70 35 10
0.05380948336511407 0.08445479030290468 -0.6542091701954561 67 32 11
0.0544905888651422 0.08354049619468108 -0.656976696269268 62 29 10
0.05507649391405328 0.08276813237766864 -0.6597991132492814 60 29 9
0.05524325075478821 0.08262096842170183 -0.6628728802835324 59 28 9
0.054901185928328475 0.0832329007154231 -0.6662561401084222 57 27 9
0.05610910888669993 0.08153249581093269 -0.6686980044561334 56 26 10
0.056577000914528205 0.08093605366046554 -0.6715878747232205 56 24 9
0.05547203901667397 0.08268644853977158 -0.6754451259243276 55 24 9
0.0551435589883722 0.08327843880110472 -0.6788302697079429 56 27 10
0.05496704496424297 0.08364376805165015 -0.6821246247897447 56 27 10
0.055097791217222095 0.08355063252938985 -0.6852298346782894 55 26 10
0.05535713657190758 0.08326559460856267 -0.6882552882295309 54 25 10
0.05543418181423217 0.08325266132733827 -0.6913958887416972 54 25 11
0.05777731880957476 0.0798572161006573 -0.6931020241507466 54 24 12
0.05760213934766312 0.08022066344487871 -0.6963989761718603 51 21 10
0.05684157122940536 0.08145811020094457 -0.7000730880008809 51 21 9
0.05772396041429105 0.08024287556935081 -0.7026978328957811 51 22 9
0.05825195408675128 0.0795566628337689 -0.7055478123730446 53 24 11
0.05914997236263671 0.07831789918816998 -0.7081564130631806 53 24 11
0.05900664719482275 0.0786340102880041 -0.7114398093800837 50 22 10
0.059308621339861214 0.07828521657927047 -0.7144343612880009 50 22 10
0.060083339692084 0.0772304026846439 -0.7171180277689571 50 22 10
0.05993545394727409 0.07755344403078654 -0.720408149399795 51 23 10
0.060662576829055695 0.07656962339719954 -0.7231203586351796 53 25 11
0.0606055376683535 0.07675704844739696 -0.7263525690062174 55 27 11
0.0616468612331965 0.075303773171747 -0.7288515483752733 55 28 12
0.061216042809323676 0.07604962482893995 -0.732335990192054 55 27 13
0.061341329973716094 0.07596478112100274 -0.7354491313785763 54 26 12
0.06322891284781432 0.0732468910856364 -0.737367591768424 54 26 12
0.06571382842645992 0.0696361506238351 -0.738869379183439 53 26 11
0.06698495661057885 0.06783876313457624 -0.7411887894043948 53 26 9
0.0673339489741412 0.06741923284265403 -0.7441362605626265 55 28 11
0.06795534134619263 0.06659258833800699 -0.7468952779161464 55 28 11
0.06828846406490063 0.06619672759182112 -0.7498522169919053 55 28 11
0.06862149942944534 0.06580098896889838 -0.7528089530413575 55 28 11
0.069272236022981 0.06493034439091032 -0.7555431759682528 55 28 11
0.06725922783919001 0.06804163387858521 -0.7601466931710985 54 27 10
0.06773314850133465 0.06743544438667501 -0.763009355013711 54 26 10
0.07041274951412012 0.06353154467629367 -0.7643079286396411 53 24 9
0.07061230689926332 0.06333529293152008 -0.7673569447328566 53 24 9
0.07125214422427391 0.06248071838282101 -0.770091851717814 52 22 10
0.07162686250258503 0.062022527811904586 -0.7730149090842042 50 20 9
0.07192339361391024 0.06168124721055199 -0.7759937986092994 50 20 9
0.07163931143620668 0.06220831122613207 -0.7793928589542393 52 22 11
0.07865091212695688 0.051823596291371926 -0.7774930640660868 51 22 9
0.08242956558367032 0.04678059091322467 -0.7937635219073649 54 23 10
0.0797893428166123 0.050832900768713975 -0.7989140660801193 53 23 10
0.08106507212829016 0.04902578596605918 -0.8011412163966154 52 23 10
0.08233836559972965 0.04722212383526334 -0.8033641836167849 51 22 10
0.08517022872528027 0.04308565634746407 -0.804401022648814 50 21 8
0.08528839511947223 0.043010375923019484 -0.8074853735591463 50 21 7
0.08522702281314348 0.0432038676655897 -0.8107077894340327 51 22 8
0.08571006946349616 0.04258247032720683 -0.8135151221520707 52 23 9
0.08633965749157929 0.04174165806137867 -0.8162085069455898 54 25 10
0.08970393560256143 0.03680660436536864 -0.8167873969610929 55 26 10
0.08838380740723178 0.03888455088728861 -0.8209802330925519 56 27 11
0.08946207905614242 0.03737163667848105 -0.8233155904289616 58 29 13
0.08995006040364342 0.036742479294683036 -0.8261074816796212 58 27 12
0.09057192227137356 0.03591279386583381 -0.8287930796905012 58 27 10
0.09222121664181594 0.03354434377202412 -0.830667255392123 59 28 10
0.09319526382142791 0.03218695286972446 -0.8330670654329116 61 28 11
0.09497636632134984 0.029620609789626495 -0.8348219384824369 61 28 10
0.09574684161218971 0.028567801302481842 -0.8373730516919362 64 30 11
0.09767859617092244 0.025775291376237748 -0.8389921247348142 68 32 13
0.09561441878126724 0.028968789448045297 -0.8438102092619725 70 33 13
0.09672572823400388 0.027405219392309894 -0.846082734301751 71 35 13
0.09760961077881819 0.026182241078812202 -0.8485342186304388 74 38 14
0.0985569168501878 0.02486411072006752 -0.850930491568603 80 44 20
0.09940003222672414 0.02370197946640077 -0.8534076384494128 83 47 22
0.10011759411120993 0.022727892306834592 -0.855984104431852 79 46 21
0.10040555429222067 0.022397562720524185 -0.8589108467349822 73 44 23
0.10091540471825833 0.02173466397481147 -0.8616545792722098 76 49 30
0.10112509403002558 0.021521630677439015 -0.8646453740904452 82 57 37
0.10159186420300641 0.020923249297552078 -0.8674230343027789 79 55 37
0.10162501192492088 0.020974872154687907 -0.8705611728582471 76 53 37
0.10095266006963288 0.02208422397421523 -0.8742913772952052 74 51 34
0.10109832562306947 0.021967318923631816 -0.8773402712766384 70 47 29
0.10123098922392806 0.02186993629236513 -0.8804009853956573 72 49 33
0.10103610980738957 0.022263730916767713 -0.8837398388075951 72 49 33
0.10062078290449486 0.02298820105218312 -0.887268909964602 71 48 32
0.09758159265984115 0.02764778549090429 -0.8930391741797479 68 45 29
0.09757475991128617 0.027760139726652262 -0.896235555289418 65 42 26
0.0977710590219218 0.027567877332425578 -0.8992593190602589 64 40 25
0.09764210918305449 0.027863501427524515 -0.9025639415810577 62 36 22
0.09726312856762998 0.028534275400947752 -0.9060873974198148 65 39 25
0.09424617426181492 0.03316262918841229 -0.9119048340229023 69 43 29
0.09431048289980082 0.03316887056824017 -0.9150585964799656 75 51 36
0.09369958021191607 0.034188232386651564 -0.9188040513751432 78 56 36
0.093481026596546 0.034619059853124266 -0.9222108620436039 85 60 39
0.09390203845011555 0.03409026696883614 -0.9250576945282473 91 65 43
0.09445871579980458 0.033357856475548196 -0.9277838177157376 91 65 41
0.09518155156477978 0.032376024469545794 -0.9303609224369631 90 61 36
0.09568310582632358 0.03172622298080895 -0.9331322131405378 88 57 33
0.09660724466758658 0.03044208647308838 -0.935524808472937 70 40 21
0.09503400089672384 0.03290660019794296 -0.9401513096379133 52 25 12
0.09661452403049667 0.030637105810639116 -0.9419535105702292 43 21 10
0.09777010803221194 0.029005306282536947 -0.9441310629831287 44 21 8
0.09869868912356511 0.027714151020229852 -0.9465087233425484 47 24 10
0.09971786769885754 0.02628683647323897 -0.9488000449148912 50 27 13
0.10065845758148761 0.024977382447858625 -0.9511584270952765 54 31 17
0.10230484175197574 0.02260791723936552 -0.952866989762182 62 38 25
0.10276194865540361 0.02202421672876488 -0.9556587931323471 70 49 37
0.10304837557086094 0.02169682343385121 -0.9586067429581642 81 63 53
0.1040034672474813 0.020365105415678215 -0.9609366440589754 84 65 58
0.1044469663387396 0.019801708677992566 -0.9637368079778768 90 71 65
0.1068835169707632 0.01624434529385664 -0.9646812809993572 94 80 72
0.10736644450474217 0.015621451423990212 -0.9674363710832353 92 79 71
0.10891552263478112 0.013396746025801723 -0.9691913641533618 92 78 71
0.11141012070583488 0.00975115288117924 -0.9700495819901883 91 76 69
0.11275489372573319 0.007832828891773606 -0.9719783572366562 102 87 80
0.11333610366516544 0.007061689620587189 -0.9746230232682784 98 83 75
0.1142831210521646 0.0057407579984750795 -0.9769184829225646 94 79 74
0.11564608225710102 0.003794573557841803 -0.9788135088943456 94 79 72
0.11654311150341193 0.002548463481866367 -0.981147051216222 96 82 74
0.1173009375251828 0.001511464790690753 -0.983610202224267 102 87 82
0.11781429245502029 0.0008418578344582817 -0.9863055591882486 90 77 71
0.11930257830296126 -0.0012934064576053048 -0.9880583726594997 90 77 69
0.1209205764771028 -0.0036239243037237967 -0.9896779335516801 86 72 64
0.1257696448966166 -0.010812625530280826 -0.9881496790503951 84 69 60
0.1264495299603307 -0.011733465066687043 -0.9906565291046022 79 61 51
0.12624005651541975 -0.011317055114112164 -0.9940305982544817 77 53 47
0.12607690941954416 -0.010970211436404989 -0.9973623235984568 72 44 32
0.1278494816378452 -0.013534416565812488 -0.9987915368349577 70 39 20
0.12946781816344186 -0.015866953376509507 -1.0003635779314897 68 36 13
0.12987011376298932 -0.016370704423690485 -1.003131790543603 66 34 10
0.13488682108628203 -0.023815527406817333 -1.0013132692369424 64 32 11
0.1344767102086196 -0.02309768494390481 -1.0048752257594449 64 32 12
0.1354196667985187 -0.024415276198172985 -1.0070882314802863 64 32 11
0.13538497867245303 -0.024262120544964086 -1.010277957596879 64 30 10
0.13542250332151595 -0.02421755366235257 -1.0133969927600828 63 29 9
0.13563687492303075 -0.02443904276418285 -1.0163389927930302 62 30 9
0.1361627519968222 -0.025129279120739492 -1.0189658644385289 65 30 10
0.13723977031515777 -0.02664899192264738 -1.0210311216716037 64 28 9
0.13786741782994952 -0.027492552884369414 -1.023549337760926 68 32 9
0.13778370719724414 -0.0272654995382281 -1.026792706079679 70 36 12
0.13769250415602896 -0.02702709429670222 -1.0300460745878213 73 37 13
0.13760138631955984 -0.026788741632125822 -1.0333017203521917 76 40 17
0.13759693545436136 -0.026680784823754758 -1.0364702812109465 87 52 30
0.13745410340010036 -0.026364431764931487 -1.0397839254109071 87 57 33
0.13908029690210483 -0.028711509933206786 -1.0412630780337107 91 61 37
0.13934096292121945 -0.029002730118837278 -1.0441561153440764 93 62 39
0.13979544429416293 -0.02958580281774071 -1.0468467395635024 93 64 43
0.14018733202968472 -0.030074648849672557 -1.0496018416479376 93 67 44
0.1405452450649995 -0.030512350550131087 -1.0523919346570263 96 70 47
