ply
format ascii 1.0
element vertex 685
property float x
property float y
property float z
property uchar diffuse_red
property uchar diffuse_green
property uchar diffuse_blue
end_header
0.10165048118792494 0.19357866510512914 -0.010161903281029058 108 82 66
0.10157661453447432 0.19189851946601383 -0.013202821595083975 108 82 65
0.10245644093115301 0.2006024802249133 -0.01930423587860082 108 82 65
0.10260895606921247 0.19750055673746417 -0.037617798768086665 100 77 63
0.10330139979515408 0.20234029247957463 -0.049944095023078866 146 140 136
0.10280453878777873 0.19490328449170974 -0.055935893095033974 71 58 53
0.10233161516651211 0.1885671743606417 -0.058859788794981834 68 56 49
0.10187625581854937 0.182440756664137 -0.061771010461350764 75 62 57
0.10117488445101512 0.17344835640556835 -0.06459383746617325 78 65 60
0.09560587901862415 0.10691028923171046 -0.06880717944125439 91 74 66
0.09520047268751575 0.10140677205956075 -0.07158305638818807 92 73 61
0.09444934603252435 0.09187980057446167 -0.07421934288563732 94 74 60
0.09450205872475229 0.09172067925992672 -0.07713207101804512 92 71 60
0.09462638689865135 0.09239495710501068 -0.08007391637391319 91 71 61
0.0944425783597025 0.08948298211622302 -0.08289206624299368 91 68 56
0.09426420337601078 0.08663617060110433 -0.08570519298030053 86 61 48
0.09425125929324846 0.08571463589067435 -0.08858507575415558 81 53 38
0.09420464528769819 0.08440218087545387 -0.09144789633678128 66 39 23
0.09376049292507622 0.07847216533579442 -0.09411672226138518 86 64 53
0.09346179589795951 0.07423561989742232 -0.09684174364659401 95 79 72
0.0932152838166449 0.07060785392673102 -0.09958238295788913 86 67 63
0.09254392773627662 0.0620530473943014 -0.10208693944446011 88 69 62
0.09192994363651052 0.054170139193878475 -0.10459890594574761 96 75 68
0.09157545110101345 0.04930171349258458 -0.10723604795281026 97 74 66
0.09103685532386162 0.042303167627215955 -0.10975225026729243 96 74 65
0.09104428429976706 0.04163544164566026 -0.11257782331277122 99 77 66
0.09063848239885466 0.03618260836748241 -0.11514662406727345 124 100 91
0.0904011298047842 0.03268367324880918 -0.11780775057841748 141 115 102
0.0902116092185682 0.029740645089552206 -0.12049102160782939 140 112 96
0.09009016558304282 0.027587022309937304 -0.12321250800419051 119 87 63
0.08990744227055887 0.024726271669853517 -0.12588665362100795 99 64 34
0.08949771652173187 0.01849904350105457 -0.1311811806065062 87 50 21
0.08963344897835503 0.019321822167646177 -0.13406857663706162 80 45 17
0.08900653718865709 0.011340122061452806 -0.1363819863490716 77 43 17
0.08895072836747987 0.009954266601973544 -0.1391153153758766 72 40 20
0.08898704522186791 0.009631770672718514 -0.14191873404477534 65 35 20
0.0890911545875177 0.01009081306187743 -0.1447773072595871 66 41 28
0.0891447440702707 0.00996691050638443 -0.14759677026148998 68 47 36
0.08982444632362008 0.017055838939864273 -0.1509452342513982 71 50 38
0.09026577686282779 0.02139373765511363 -0.15411094796857502 70 50 38
0.09066499825263882 0.02524311277538454 -0.15725390351018562 69 49 38
0.09064220856202439 0.024233150965242402 -0.16003192450575454 69 49 38
0.09135882649096236 0.03172835987380901 -0.16348264510680643 68 48 37
0.09184181479384894 0.03653110477885836 -0.16673988843438536 67 47 36
0.09211229178116993 0.03888731018689938 -0.16981161257068692 66 46 35
0.0922610942437641 0.03984345923080082 -0.1727744096591988 66 46 35
0.09230536914285002 0.03959813525409977 -0.17563883734417052 65 46 34
0.09247347659996108 0.0407741557513938 -0.17862738557625266 65 47 35
0.09273149503782206 0.04298058530098005 -0.1817119862097551 66 48 36
0.09286565005796571 0.04376419659750559 -0.18467662542789312 66 48 36
0.09364034419136133 0.0518908991904657 -0.18831692977714118 67 49 37
0.09424354265187193 0.05652297342176152 -0.19749726003795257 66 48 37
0.09414988470543967 0.05469008560902008 -0.2002398148960537 66 48 38
0.09533226850533053 0.06745954922890499 -0.2044260430947842 65 47 37
0.09503104477377294 0.06324891963870831 -0.2069430010834986 64 46 36
0.0942942093360817 0.05406074016886664 -0.20893957034031296 67 49 39
0.09526514872363553 0.06439756001069635 -0.21293517406974607 69 51 41
0.09460433182857064 0.05608401279908991 -0.2150000984557511 70 52 42
0.09520621579112885 0.06219654479083832 -0.21858194987554377 72 54 44
0.0950378351034163 0.059511087804264416 -0.22123053969070794 68 50 40
0.09501338038964054 0.058469718779643236 -0.22405291082433734 64 46 36
0.09510997887391301 0.058809581293286936 -0.22702734892681056 62 44 34
0.09563480154278704 0.06403126219102236 -0.23055570659801142 63 44 35
0.09657541132088145 0.07168310732203048 -0.24326671037944061 63 43 34
0.09806917593262175 0.08791295730622337 -0.2481903042491667 64 44 35
0.09872699841702721 0.09229176473670864 -0.26071972791474163 67 45 34
0.09828709366243848 0.0865201671639036 -0.2629823873468129 65 43 32
0.09724522684613657 0.07391955976051792 -0.26434121988466136 65 43 32
0.09760549823058477 0.07723888041059 -0.2677557222839631 67 45 34
0.09785436432862418 0.07929157301148143 -0.27101336234869594 66 44 33
0.09813195888974284 0.08166799697222683 -0.27432230030142474 65 42 32
0.09753059945399076 0.07408051722909872 -0.27628357970988987 64 40 30
0.0976604613508317 0.07478275074332148 -0.2793640574794847 62 37 29
0.0980579201431652 0.07851446489009735 -0.28286988330526175 62 37 30
0.09831001264417188 0.08059730380911512 -0.2861565292155239 61 37 27
0.10011693890948829 0.1002717467946737 -0.2919548806658218 60 37 27
0.09829836807171267 0.07892242028892142 -0.29191298676263516 65 41 29
0.10001967381192528 0.09761304770442882 -0.2976295121473424 63 39 26
0.1000575542220956 0.09726251130992822 -0.3006066064628707 69 47 33
0.10016395133288698 0.0976859541984554 -0.3036989802158644 78 60 48
0.10050867585921797 0.10080009648675742 -0.30719794644404863 75 57 47
0.10057308426389293 0.10074708643005989 -0.31022768154159797 84 61 51
0.10060546663129973 0.10033238219576276 -0.3132032379551 99 75 61
0.1004876332658251 0.09822331722744189 -0.31591666888201253 104 76 57
0.10068239497048072 0.09964002985312101 -0.31917611303230453 102 68 46
0.10044805415812101 0.096219131250323 -0.3216775791119304 90 54 29
0.1001828898430282 0.09245335502350621 -0.3241147920892584 77 41 19
0.09996311769320143 0.086874853098252 -0.33533163399641375 60 38 28
0.1007136566885045 0.09453840080698794 -0.3396434803778781 39 21 15
0.10101719782254771 0.09717173628209963 -0.343131503493789 65 47 38
0.10115238535000604 0.09791126752481777 -0.34630650293391907 73 49 36
0.1014723590072657 0.10072496326789951 -0.3498418784320835 74 51 38
0.10162092907857545 0.10161198462565757 -0.3530531739511406 71 48 36
0.10182172786635352 0.10308398554511738 -0.35637108397641015 72 49 36
0.10191568125540895 0.10335603062790924 -0.35948305626838517 68 46 33
0.10189190515963864 0.10230752754809949 -0.36236195850148384 74 54 42
0.10329271857603743 0.11722543289552574 -0.3681095169666937 42 27 20
0.10307423307556651 0.11399018437658841 -0.3706131642526597 53 38 36
0.10275681567227742 0.10964927739975647 -0.3729058316428689 59 40 34
0.10291726711734299 0.11066071745376263 -0.3761737790552191 76 55 47
0.10248480725084212 0.10503662181979229 -0.37821167570825726 76 52 45
0.10224465187090875 0.10156758641468842 -0.38063769266875663 75 47 38
0.10218245485473644 0.10009063016295397 -0.3834311514674171 73 45 34
0.10230381207550508 0.10066590304847853 -0.3866129275998804 79 51 36
0.10220009332125364 0.09872590093844211 -0.38931409852529003 85 63 49
0.10190270390750737 0.09462434939664363 -0.3915913794706988 71 46 35
0.10160145532874915 0.09048263998410391 -0.39384930764236326 66 38 29
0.10089496926221174 0.08182217879037497 -0.3952049963631914 68 41 32
0.10057746414752325 0.07750686454374336 -0.39739802583050954 69 42 33
0.09986733230706579 0.06881715969542451 -0.3987028952256381 72 45 36
0.09762381001994674 0.04304477438866946 -0.3965340156215127 72 47 37
0.09925244627410934 0.06042969475635409 -0.4030635447976917 69 45 35
0.09871301884371017 0.053657120907939955 -0.4046974756025584 69 45 35
0.09809495915503388 0.046014328511601504 -0.4061316358715149 93 68 58
0.09777245277902706 0.04166590247065292 -0.408228736594914 92 67 55
0.09724545133103374 0.035046114724156585 -0.40983709327922285 102 75 63
0.09668944552988826 0.0281088053600621 -0.4113587838664117 99 70 52
0.0966515193842022 0.026934412961578627 -0.4140868088988122 91 54 33
0.09694891419255225 0.029485729161069826 -0.41761160609269765 85 44 22
0.09736364992936336 0.03333768235079011 -0.42142691137516297 79 39 15
0.09762869128728015 0.03552455845274129 -0.4248934138200115 80 41 17
0.09754937552355047 0.033888423618357644 -0.42753008074044047 83 43 21
0.09753622363144558 0.032987092150058045 -0.43032521663711 87 48 26
0.0971304125750366 0.02773276619616516 -0.432150690348698 84 51 28
0.0983951374799884 0.04099590677079465 -0.4381089546406526 85 57 38
0.10905101927918245 0.15506283363396345 -0.47963126598968686 168 167 165
0.11008242425624368 0.16162045452949753 -0.5004287485861201 180 178 179
0.11034244796529222 0.16206467976328745 -0.5101966458736729 182 179 180
0.11040432053912967 0.161938543473309 -0.5133885868205668 183 179 179
0.11076461121632872 0.16267184353926528 -0.5264822615230773 182 182 183
0.11204234029690871 0.16535510098970116 -0.5726079732421345 185 184 187
0.11394056705988954 0.16736033791797159 -0.648547796755791 183 181 182
0.11399669429713835 0.16553203906626113 -0.6578576142614231 168 164 163
0.11376413745285889 0.15977424980946225 -0.6691834439028029 129 121 117
0.11368930293787151 0.15815640981523582 -0.6719486334950283 117 107 104
0.11360396292361094 0.1564260626214872 -0.6746730741063596 111 101 96
0.1135307772114219 0.15482790030340787 -0.677437098968388 111 100 93
0.11347621043859123 0.15343150536325917 -0.6802644720346986 107 95 86
0.11346640794848303 0.1525185808530617 -0.6832502325656499 105 91 83
0.1133114383961047 0.1500411868049408 -0.6857096781967238 102 88 80
0.11318935395064274 0.14791974591318438 -0.6882825526152997 98 83 75
0.11328319312746939 0.14812529638502536 -0.691638363966083 94 79 71
0.11319782807718905 0.14640090780459453 -0.6943394035760407 92 76 68
0.1131125522021882 0.1446784856781527 -0.6970370036979241 89 73 64
0.11374675793113291 0.15069708633314643 -0.7023912373543703 89 71 62
0.11366733197966745 0.14903646394062658 -0.7051147065424993 87 68 57
0.11358618868599861 0.14735833647937024 -0.7078281964206214 85 66 53
0.1132620700822545 0.1430704632021475 -0.709627802852597 84 65 51
0.1131717243083351 0.14129648671685746 -0.7122954792881407 85 64 48
0.11313838913836544 0.14013563042180688 -0.7151746603363281 87 63 48
0.11327419032012707 0.14079046429778508 -0.7186936200811751 83 60 44
0.11236008248589945 0.12938286107896974 -0.7212037517192623 83 60 44
0.11197854604948333 0.12449484138026655 -0.722725397046248 83 60 44
0.11175580982642623 0.1213118475228165 -0.724846620017639 83 60 44
0.11184935962201913 0.12151852255535728 -0.7281855016701819 83 58 43
0.11177155905465043 0.1198901979756479 -0.7308595451054022 83 57 42
0.11075144111684795 0.108178548547626 -0.7298474668822478 83 57 42
0.11012719395016064 0.10071068781396107 -0.7303549391930291 81 55 40
0.10988795415043744 0.09108541520707905 -0.7558612605114379 81 55 40
0.10906635857519871 0.08154816914582821 -0.7554382427031547 83 58 43
0.10859889792464815 0.07112696336938634 -0.7738909812757668 84 60 47
0.10862246315874899 0.07060098813996482 -0.7768953813653842 86 62 50
0.10854247500424374 0.06897579167196621 -0.7794615530865917 82 58 46
0.10845280402406626 0.0672487893299732 -0.7819830896024603 82 58 47
0.10880259369992354 0.07018415388528586 -0.786373801254303 84 60 50
0.10888135063661174 0.07024310319571773 -0.7896152722765788 82 58 48
0.10828165356051675 0.06311110691272276 -0.789944955797406 84 60 50
0.10855623885441293 0.06524675086314728 -0.7940227411917617 86 64 53
0.10794828579931726 0.054950236495924856 -0.8058328813751382 87 67 56
0.10829289478103149 0.05782182708461739 -0.8102345314249214 84 64 54
0.10740933756472804 0.047716139916057485 -0.8092151514411006 85 65 55
0.10643958574677867 0.03594484139761078 -0.8106403676347766 82 62 51
0.10697998913635581 0.040883899639948665 -0.81591137217422 83 62 52
0.10702953009890392 0.04064141036519332 -0.818996682776699 87 66 54
0.10741034151283528 0.043891288773081016 -0.8235739998821114 90 69 57
0.10722858603448679 0.041209503881476234 -0.8256209015620164 86 65 53
0.10715845588307867 0.0397054184000723 -0.828167158703044 88 66 53
0.10753678630460708 0.042924507517743224 -0.8327506439746004 89 67 54
0.10719367222298916 0.03854682838926625 -0.834051327700818 88 65 52
0.10708009515990892 0.03658741043339345 -0.8363918001114438 88 65 51
0.10705028909067782 0.03551025526611007 -0.8391128615381147 84 61 45
0.10670512615516742 0.031118239108511636 -0.8403771364027226 85 53 38
0.10636977218841735 0.026832489169254625 -0.8416748985381713 85 49 27
0.10669463258197563 0.0287240605100349 -0.8488761923342745 84 47 20
0.1067292734133052 0.028326864988510336 -0.8518855016985288 87 50 21
0.10652408721081916 0.025413404848903254 -0.8537694648049822 91 55 26
0.10659099416185301 0.025355530369569862 -0.856927239374784 92 59 33
0.10665790268048399 0.025297353083938906 -0.86008621612412 98 67 45
0.10672412480419462 0.025231663916377794 -0.8632431331318815 96 68 47
0.10633117990662261 0.02035596235328449 -0.8642171703151993 90 64 44
0.10789066392048766 0.035926936181616353 -0.8744956168688596 89 61 45
0.10773961175948316 0.033581854737135236 -0.8766320807037381 87 61 46
0.10792456176793269 0.03475359851585799 -0.8803770198999841 85 59 44
0.10713832956257738 0.025767513337597858 -0.8794457976916439 84 60 45
0.10829690622587024 0.037118688550205226 -0.8878935055114332 86 63 49
0.10855132496257687 0.0390123801695306 -0.8919903050537688 82 60 46
0.1087385889883159 0.040202725190138344 -0.8957673504321478 82 59 43
0.10863838851744546 0.038390332029956786 -0.8981455987755298 80 57 43
0.10880040637742315 0.039315737866615214 -0.9018043923251723 78 55 42
0.10884674723517634 0.03903322371933535 -0.9048988241617196 71 47 35
0.10905553339105556 0.040444592143539126 -0.9087947729585457 68 44 31
0.10954490779055794 0.04477931222720785 -0.9140843526196147 74 51 36
0.10924745906222362 0.04091158930725258 -0.9154839096705017 83 60 44
0.1094472676898447 0.0422258644654637 -0.9193485903786727 93 67 49
0.10926692390783872 0.0395807909647902 -0.921320154703834 97 70 49
0.10931082754223011 0.039271269431694455 -0.924408524773485 99 72 50
0.10967085629403638 0.0422502603230997 -0.929086064067892 100 74 50
0.1097759806258175 0.04257578302667839 -0.9324889591473678 98 70 46
0.10982714226938088 0.04233975401449064 -0.935621335705502 89 59 35
0.10991914775411134 0.042527924140557144 -0.9389615863153412 72 42 21
0.109495009152012 0.037354851147365475 -0.939677302078532 62 33 18
0.10934955242269719 0.035078841827554774 -0.94180123039911 64 32 17
0.10913287907048541 0.032065244322265846 -0.9435549971713109 69 39 27
0.10898520262284274 0.02976945646632634 -0.9456553707052531 81 55 43
0.10933253047568497 0.03260798525342665 -0.9503002757692005 83 62 50
0.10945454561829894 0.03310846426578842 -0.9537908938030035 83 64 56
0.1087567617270907 0.025114356252614017 -0.953035259790773 89 70 64
0.10939595397872655 0.03097294515324106 -0.9592075497912756 90 71 65
0.10999570110847363 0.03641805789587521 -0.9651933209796594 87 68 62
0.10856355556071907 0.020831867703183043 -0.9605695198096614 89 70 65
0.10899758484996257 0.024561743423482912 -0.9656898358939621 90 72 65
0.10939727030511667 0.027933113180711205 -0.9706421527283251 87 70 63
0.10990302754568586 0.03239769746763996 -0.9761658850823444 90 73 66
0.10949645593357668 0.027432603342266382 -0.976875459353069 92 75 68
0.10851685218098031 0.0150369415167394 -0.9802043063681757 91 74 67
0.10820920119736145 0.011105800111488123 -0.9813927275900283 90 73 66
0.10806969779811315 0.008911167909885775 -0.9834738012083919 91 73 65
0.10767303232713227 0.004067555975204862 -0.9841641877566087 90 71 64
0.10710150905158608 -0.0025738984057167014 -0.983896489018332 89 70 63
0.10684690831089123 -0.0059466741342676654 -0.9853272423212734 91 72 65
0.1085681930951527 0.011022226168498989 -0.9974865048749751 94 77 70
0.10642348420362567 -0.011802492321141611 -0.9886295781299613 95 78 71
0.10656787826185773 -0.011064685953261433 -0.992215744751343 95 78 71
0.10639105376095341 -0.013630364381348431 -0.9940448734398417 89 71 65
0.1064926554945702 -0.013332922421551097 -0.9973980116438589 84 63 55
0.10682194628599972 -0.010697065214733237 -1.0020085314204596 84 60 50
0.10574469613621014 -0.023250362723803236 -1.001634880987699 81 52 38
0.10508008993477862 -0.030812518293751937 -1.0007211059625791 74 40 20
0.10516002429117681 -0.03073274282697605 -1.0039363923801674 71 35 12
0.10458798131187767 -0.03733747721004532 -1.003508421269103 70 34 12
0.10434509586425318 -0.04056404642510823 -1.004906983587141 69 33 8
0.10483978839263265 -0.03844637548486059 -1.0187277722549832 73 37 11
0.10471235907587371 -0.040486967598661314 -1.020763109402306 74 38 11
0.1047765207220869 -0.040567650148151974 -1.0238855630205315 75 40 12
0.10488627746145367 -0.04018270416507114 -1.0272697001484805 78 41 15
0.10477657646052706 -0.042040096460247964 -1.0293987245124585 81 45 19
0.10470615078956469 -0.043495321344849694 -1.0317491273800534 85 50 24
0.10464234158413047 -0.04488219341435325 -1.0341345706213139 87 54 29
0.10487537901111332 -0.04323983834269737 -1.038232105706516 93 62 38
0.10487501157394957 -0.043979430826776814 -1.0409839189948547 97 66 44
0.10493726170049207 -0.04408047118690671 -1.0440985339600513 98 70 46
0.10502104672303952 -0.04396235686120693 -1.0473396072998962 97 69 45
0.10508369172141625 -0.044060021184218826 -1.050458945511141 99 71 47
0.10517345718889339 -0.04388184366330418 -1.053738124625099 104 76 52
0.10541402730419636 -0.042169401078398325 -1.05790448430319 102 74 50
0.10547346420419396 -0.0423013947817551 -1.0610112766643147 99 72 47
0.10552645947086238 -0.042499147091114714 -1.0640810051654892 96 69 47
0.10577765420951056 -0.04068244437354898 -1.0683242155247092 93 67 46
0.10597027217280766 -0.039462760965325486 -1.0722268151949639 90 67 48
0.10632421227642698 -0.03660596299137733 -1.0770940160876927 84 61 43
0.10733603419781003 -0.02707279153752154 -1.0858944816384 75 51 34
0.1072670401167614 -0.028516129313991945 -1.0882633278999174 63 41 27
0.10701222964615933 -0.03184359779821616 -1.0895152967908075 51 32 23
0.1066507508512359 -0.036250334477635426 -1.0901174318643754 43 24 16
0.10674916065898585 -0.03599248645847761 -1.0934784380553373 53 33 24
0.10702536151757713 -0.033933884421270405 -1.0979155759796233 53 32 22
0.10701314114062509 -0.034798334598587416 -1.1006136302795468 53 31 19
0.10676767157650001 -0.03802373312870705 -1.1018942155466103 55 31 17
0.10704462433295167 -0.03596030214424947 -1.1063463336999555 63 35 16
0.10699435644682066 -0.03720882195404299 -1.108809251588187 74 41 17
0.1073872949265939 -0.033975391247703574 -1.113981221253089 79 45 18
0.10727683588165403 -0.035832781332441443 -1.1160769143347737 86 52 23
0.10653671932647064 -0.04405035300556984 -1.1142966952453746 95 62 37
0.10660613977471757 -0.0440862981588805 -1.117482889437629 95 66 42
0.1066365221619664 -0.04451665120020369 -1.1204290948407942 93 66 41
0.1064294611223748 -0.047342937188953396 -1.1219043875527437 93 67 44
0.1065559211186118 -0.04680326334173013 -1.125443708978746 94 68 46
0.10675133915721063 -0.045569139779449444 -1.1294153546532468 91 64 43
0.10680874992341548 -0.04572724405107853 -1.132530800027757 89 63 41
0.1067892167534633 -0.0466607190816208 -1.1351657190939275 88 64 42
0.1072080231124418 -0.04317974884273082 -1.140548389766137 89 66 44
0.1075438600051729 -0.040537138330892175 -1.1454213963142397 91 66 47
0.10765440758416875 -0.040163845051162606 -1.1488839090038099 88 66 46
0.10793974822582791 -0.038033221743541984 -1.153453280930499 77 55 37
0.0955347141875136 0.1896538308153775 0.11004846324580922 182 184 184
0.09534460835221832 0.1865281945865803 0.10688268330218699 185 184 182
0.09661451889945305 0.20113917651225055 0.10475178110148656 172 165 161
0.09629571441027213 0.19644807068170558 0.10148731923770592 139 125 113
0.0964797594122908 0.19786346458381007 0.09857099190602849 122 103 87
0.09658781141931476 0.198355397679775 0.09559975904191431 119 97 78
0.09666677541377554 0.19849381004254077 0.09260734078799199 118 99 81
0.09465938653623016 0.17253059072842203 0.08532807876582701 122 101 85
0.09470721916457708 0.17230096929025907 0.08235131474381743 116 95 79
0.09540239921146888 0.17990924746489168 0.07973599998221852 114 93 75
0.0954663812054703 0.17987159384509985 0.0767550170702307 115 92 74
0.09561390798141656 0.18084435761946743 0.07381652537182153 114 89 71
0.095653024974124 0.18050492814216765 0.07081899462569952 112 89 72
0.09571477922255803 0.1804390595391371 0.06783215523106406 114 91 74
0.09593658310942671 0.18230688917955667 0.06491931483517246 115 92 75
0.09749578234404829 0.1962279232391876 0.0473801874657877 112 86 71
0.09694293757452101 0.18793107842520917 0.041117941763516505 110 84 69
0.09702555894742641 0.18811011003635308 0.03811396157102104 111 85 70
0.09690449200368924 0.18583712507549124 0.03504892555273347 113 87 72
0.09748591288526413 0.1863004400415319 0.01095124738000627 112 86 71
0.09759280118279419 0.1867667614079748 0.00793657658396494 112 86 70
0.0977182202041904 0.18745447949173313 0.004921230196918723 113 86 70
0.09770869259781256 0.18652425254916688 0.0018897707489957047 115 88 72
0.09781047398225179 0.18692765259041103 -0.00113179294825691 115 89 72
0.09785710247925429 0.18667000956045815 -0.004159149335930989 113 86 69
0.09790375700027955 0.18641251636694242 -0.0071871048924925865 110 83 66
0.09785566394162756 0.1850213446383655 -0.01021783489528703 108 82 64
0.09781807366805038 0.18375651890619227 -0.013245741200360588 107 80 63
0.09859703793899419 0.19143513277468208 -0.019320331700725914 108 82 65
0.0986843410357104 0.19165993037022214 -0.022362247193474613 108 83 65
0.09876187230284282 0.19176750677702484 -0.025405558464373958 105 84 65
0.09884981835923415 0.1919989263819185 -0.028451433058921012 103 82 65
0.09926959012526759 0.1945486638764898 -0.037622763163872724 98 76 62
0.0993909377451795 0.1951751252183217 -0.04068480315253523 97 75 61
0.10013455275625839 0.20238947551752046 -0.04691380554444219 96 75 63
0.09912523456974902 0.18791938630982163 -0.05583140348502372 83 64 54
0.09870368170370315 0.18209125369938634 -0.05875579484104505 70 56 47
0.09824500329049629 0.17582628192940916 -0.061653876556043 84 70 62
0.09770584438752232 0.1686100464158586 -0.06451084486557944 73 60 52
0.09611976795518297 0.1489693428215449 -0.0670190736936373 74 59 54
0.09226856945773601 0.10167830668143672 -0.07162714915366099 87 68 59
0.09132237299506778 0.08967498813736782 -0.07418697404732558 96 75 64
0.09141377632543944 0.08998045586117547 -0.07711138172226148 96 74 65
0.09127871514650117 0.0876019324599975 -0.07994692997190353 92 72 64
0.09101070213712922 0.08365023875199949 -0.08272089355945385 90 67 55
0.09126107335288651 0.08583880773752578 -0.08571116596410853 83 57 43
0.09119846392179386 0.0843211985785566 -0.08856683398311543 76 48 31
0.09112577917161863 0.08268526178660042 -0.09141453013298335 65 37 20
0.0909032992002592 0.07927890489391819 -0.09418521962834257 77 53 41
0.09055120200211103 0.07434277381581735 -0.09688124109881774 91 73 67
0.09039060935144007 0.07167304012355258 -0.09966450543337867 79 62 59
0.08970296680934096 0.06278004550667722 -0.1021548843431709 92 73 67
0.08921563669983106 0.05625879811678301 -0.10473239196116836 98 76 69
0.08866646626073647 0.04901261360465502 -0.10725601339770952 99 76 69
0.08818165320143136 0.042531111723369194 -0.10979769090597898 95 73 64
0.08790841856483705 0.03854943464325175 -0.11245113343007482 102 80 69
0.08765327326609161 0.03478383314714187 -0.1151054124181529 130 106 96
0.08739823231511831 0.031022136866240706 -0.11774982241566162 141 115 102
0.08726423235130963 0.028688735463700037 -0.12046492711187014 142 114 97
0.08709198551364235 0.025906571089283525 -0.12314820999323166 118 87 65
0.08691021115725144 0.023014170272532993 -0.12581779848790425 101 66 37
0.08653816550622057 0.017885426366331735 -0.128343296152981 93 55 23
0.08613673502995371 0.012414915405907851 -0.13083315005147061 86 49 20
0.08660534821996012 0.017175294857091537 -0.13396375604971714 80 45 17
0.08612783047469495 0.010814772903706669 -0.13638010830021124 76 43 17
0.08630188212098291 0.012111676978057782 -0.13929270571855054 71 39 19
0.08620365676346797 0.01021059735706641 -0.1419909068517798 65 35 19
0.08627529234621997 0.010304113536606454 -0.14482463224697256 66 41 28
0.0867330811719731 0.014927114758293149 -0.14798475192072122 68 47 36
0.08687013953602248 0.015785137611868377 -0.15088449648486246 70 49 36
0.08733526931753408 0.020487593776724055 -0.15407552690266102 70 50 38
0.08784687518891475 0.025730480267299446 -0.1573233808747801 69 49 38
0.0880544347892294 0.02740782028907648 -0.1603111087980389 69 49 38
0.08840285630396495 0.030732584258879578 -0.16343592034927812 68 48 37
0.08901131068533062 0.037097398624686 -0.16681793051191268 66 46 35
0.08889777505317374 0.03501097903098618 -0.16952455948726777 66 46 35
0.08888791867175919 0.03413823256113235 -0.17232795716710958 66 46 35
0.0897208090172114 0.04311630633019078 -0.17597142110889197 65 47 35
0.09011155672137096 0.046920904217081685 -0.17919381178603877 64 46 35
0.09016482285238192 0.046780604505170686 -0.18208014342093667 65 47 35
0.09038069468672548 0.048538400885475994 -0.18513819325066544 65 47 35
0.09089454351470769 0.05377175695441893 -0.18852103941632942 65 47 36
0.09125098489701562 0.0571643907776029 -0.19174993207891156 66 48 36
0.0913016604043461 0.0554555471245087 -0.20034624906858675 65 47 37
0.09224809986012006 0.0657119763110926 -0.20428455007278234 65 47 37
0.09009265807432225 0.03984875419738291 -0.2046180984424392 64 46 36
0.09124840773342477 0.052538252647527595 -0.20881534981631966 65 47 37
0.09268498039165221 0.06848382679058775 -0.21339075307120395 66 48 38
0.09174431714559615 0.056774598546536374 -0.2151041346071364 69 51 41
0.09167660684383751 0.055220728626939504 -0.2178679558382646 71 53 43
0.0920388802642942 0.058663433565321145 -0.22116987630145984 69 51 41
0.09263351917081049 0.06480162582973019 -0.22477999897179388 65 47 37
0.09450402900378611 0.08185528069808093 -0.2445095626416515 63 43 34
0.0952130095708367 0.08538938496541676 -0.2628677519533205 64 42 31
0.09409468112427918 0.07169021082503349 -0.26408178926297843 63 41 31
0.0943183733079962 0.07349992636256933 -0.26729429580742875 64 42 32
0.09460338133822338 0.07601564694055758 -0.27060770574128723 65 42 32
0.09490369017341183 0.07870554536500331 -0.27395371955762476 64 40 30
0.09527034196171835 0.08215815535210046 -0.27741327962094325 62 38 28
0.09503922797942867 0.07871547550732579 -0.27993546253001195 61 37 28
0.09541268883650302 0.08224306493874561 -0.2834189350816358 60 36 28
0.09526805036253425 0.07979865204393946 -0.28607388955789215 60 38 29
0.09494276232473148 0.07527549683458928 -0.2884267365690913 59 37 27
0.09516796546149997 0.07709249973981426 -0.29167927496161206 58 36 25
0.09682027325134 0.095328920738956 -0.2973270947940351 59 36 24
0.09694251860871692 0.09595145102093064 -0.30044359781767493 61 38 26
0.09708451695220824 0.09680022721227768 -0.3035970433603991 78 58 48
0.09736139863180372 0.09919814492872654 -0.3069870774686654 83 64 57
0.09750591504710426 0.10007313602217466 -0.31015498620343684 80 58 49
0.09720258668701118 0.09580421513551896 -0.3125388257409081 95 72 59
0.09718255888640707 0.09479035320079662 -0.3154146102131735 105 78 61
0.09725908238709073 0.0948848041446213 -0.31846191451645095 91 58 37
0.0972838294468156 0.09438495784512485 -0.32141707356043164 91 55 31
0.09650053963228922 0.08462095847336523 -0.32289479715099434 78 42 22
0.09798227109397374 0.09532474824623346 -0.3489416508833181 75 51 39
0.09817358225065045 0.09672587230937454 -0.3522336284188117 73 49 38
0.09852682310555119 0.0999745747671803 -0.3558549108721042 72 48 36
0.09859636652960566 0.09998206840140067 -0.3589151906020222 76 54 40
0.09847156301839292 0.09777173759111162 -0.36158162699682356 73 52 40
0.09991471227396201 0.11344559791893485 -0.3674581171627523 52 36 29
0.09976191467499126 0.11091174527817532 -0.3700829097676882 47 33 31
0.09948185358694651 0.10692927499438865 -0.37243616618415387 62 45 38
0.09938061678323123 0.10498670529113377 -0.3751547222762866 71 51 43
0.09909723850771539 0.10097132669903215 -0.37748288736179675 81 56 50
0.09915155002428529 0.10080247551488389 -0.38052167000935777 66 39 29
0.09884416435778409 0.09651814102997955 -0.3827825836560951 72 44 33
0.0990413461608664 0.09797535963912124 -0.3861269344961677 80 53 37
0.09916093733051234 0.0985489533723973 -0.3893073102792594 81 58 43
0.09876536226566061 0.09326743819502947 -0.39135531228548415 72 48 36
0.09848415201675538 0.08928891935972824 -0.39364286537657467 68 41 31
0.09791543056582022 0.08204863905506384 -0.39527638877367227 67 40 31
0.09749237331441989 0.07646714138956762 -0.397218061325226 66 39 30
0.09682969558588359 0.06817115632841061 -0.39859992998621274 74 47 38
0.0951511731970635 0.04606271174210963 -0.4061673789739525 90 64 54
0.09468358630955585 0.04000285363140522 -0.40790815535407043 97 73 61
0.09410123651611747 0.03264862767582613 -0.40935966005761687 104 79 66
0.09368285004454006 0.027154988526871995 -0.41118246500419653 97 66 49
0.09365634288311322 0.026097188223674836 -0.4139337021330422 90 53 33
0.09389099955318958 0.02799219647994361 -0.41731634454744876 89 48 26
0.09431325312048719 0.03200514262549568 -0.42116403538822605 83 42 18
0.09449279510655718 0.033272994597916175 -0.42442832326627977 82 43 18
0.09450657020913811 0.03266783657823438 -0.42728735826148256 82 42 20
0.09436730106340903 0.03033552543163069 -0.42976443362644356 85 45 24
0.0947397304820799 0.033777540260871514 -0.43351989879246133 85 50 28
0.09536396073866454 0.04005600150682187 -0.4379231293807587 86 57 37
0.09591458704462096 0.04549933614562081 -0.44215930984192037 87 63 47
0.10541149293636232 0.14770317188375892 -0.48432460886767675 110 99 92
0.10622470464914013 0.15603682263110688 -0.4894873954260276 112 102 95
0.10596193184994555 0.15227341782693676 -0.4917948139229559 110 99 93
0.106091618025038 0.15292062936957526 -0.49515007239425324 109 98 92
0.10625406368913888 0.15393473356474058 -0.49859752048638595 111 100 95
0.10644191997461804 0.15523281205388778 -0.5021187580374524 111 99 94
0.10663992815754893 0.15664334704932656 -0.5056731712658606 111 99 94
0.10680405053030274 0.15767238456107227 -0.5091396172833795 114 102 97
0.10698705567582044 0.15891186718703942 -0.5126630422097495 121 109 104
0.10705622069305588 0.15887445353031593 -0.515873288568159 120 111 106
0.10724889771815033 0.1602200130956571 -0.519432265231017 118 111 107
0.10737409159227573 0.16080860485590365 -0.5228057343195762 119 112 109
0.10738226041634483 0.16008672901662127 -0.5258492690113362 122 115 111
0.10727313735975534 0.1580529889633903 -0.5285562071050068 122 115 111
0.10738230891574492 0.15846144204315143 -0.5318871696304379 121 114 111
0.10749156936004031 0.15887017763844288 -0.5352210301191075 126 118 115
0.10753473262456398 0.158539712613961 -0.5383649466286923 127 120 116
0.10761973738786457 0.158676430385907 -0.541631901182283 131 124 120
0.10775767772842682 0.15940361575302614 -0.545056694960934 132 125 120
0.10785828273662089 0.1597131980212375 -0.5483744274910273 132 125 119
0.1080314482917023 0.1608315409972848 -0.5519107910364107 135 128 122
0.10813055717706323 0.16112285022704093 -0.5552299471975721 139 131 125
0.10823222075199097 0.16144201551441822 -0.558559097902326 140 132 125
0.10834266624333126 0.16185838137726305 -0.5619172448194268 139 131 124
0.10841764493057987 0.16187904518674978 -0.5651699705472513 142 134 127
0.10849265940954007 0.16189970802761944 -0.5684242892199735 139 132 127
0.10856773045445367 0.16192060078859338 -0.5716802658876743 140 134 129
0.10864283731922782 0.16194149214635367 -0.5749378383641806 143 137 132
0.10864287307931822 0.1611272918840209 -0.5779630811177404 147 141 135
0.10873266395839444 0.16131092204393072 -0.5812683492042823 148 141 136
0.1087806284559244 0.16102934251332301 -0.5844439231097791 147 140 135
0.10882699864995012 0.16072990252104902 -0.5876150287216559 145 138 133
0.10871193863349478 0.1586383336175669 -0.5902730894293399 146 138 134
0.10874496681388218 0.1581912911220009 -0.5933998806856955 144 136 132
0.10875134066414495 0.15744858512033455 -0.5964410646537495 141 134 130
0.10882857685978226 0.15749176395391337 -0.599710423184335 141 133 129
0.10889896519102339 0.15745863162511092 -0.6029590920232618 141 131 128
0.1089704486877132 0.15743727539086425 -0.6062126599055742 141 131 128
0.10906707953002469 0.1576940289453478 -0.6095501050829469 143 134 131
0.1091571569011316 0.15787764891171502 -0.6128681328381526 148 141 137
0.10924332070960577 0.15801743376583066 -0.6161751652682744 148 142 137
0.1093411188599398 0.15828540121894225 -0.6195228008128792 147 140 135
0.10940870907470228 0.1582187935033546 -0.6227715338434522 147 140 135
0.10963040567092487 0.15985494188041538 -0.6265399930730207 146 137 133
0.10967159653255439 0.15949535353484998 -0.6297044779256384 144 136 132
0.10971283258092052 0.159136170795104 -0.6328694630385023 139 131 127
0.10967688198279131 0.15792491232655662 -0.6357712498343557 134 126 121
0.10975989141598039 0.15802679287017754 -0.6390789740887746 130 122 117
0.10980842648534783 0.15774798832457326 -0.6422695791820858 130 120 115
0.10986092803418274 0.15751275352483746 -0.6454745148752932 125 114 110
0.10976702048591991 0.1556638858674655 -0.6481705534007914 123 113 106
0.10974382050836815 0.15459501825036792 -0.6511097477159542 119 107 101
0.10976396022407396 0.1540038517214668 -0.6541994468516245 113 100 94
0.10968445440894094 0.15231601317000298 -0.6569369953723517 108 94 87
0.10962003650230255 0.1507951585192206 -0.6597244098045729 108 93 83
0.1095200104431228 0.14888354224781997 -0.6623817793650285 103 88 78
0.10946810651207997 0.1475021125412653 -0.6652071073261738 100 84 74
0.10939615775478968 0.14590114919958966 -0.6679576064324967 99 82 74
0.10932016615632291 0.14425669182206902 -0.670690102900777 95 77 68
0.10926188644199183 0.14280765956065677 -0.6734833634335805 96 77 65
0.10920959115897705 0.14142510086924714 -0.6762955058808966 95 76 62
0.10930368467011334 0.14164931735992153 -0.6796411109408873 94 74 59
0.10920414597174843 0.13974948354519257 -0.6822763660673234 95 73 59
0.10938343397966088 0.14090734598889154 -0.6859378385399041 93 70 57
0.10932075935726271 0.1394125325516786 -0.6887059563760572 88 67 55
0.1092581369242746 0.13791911985652505 -0.6914711898417579 85 65 53
0.11006272431966738 0.14592145396472367 -0.6974814035682636 84 63 49
0.10894204039021543 0.13204103013094864 -0.6992639424768958 83 60 46
0.10969282201785703 0.13944647313563358 -0.7051015304220307 83 59 44
0.10898339963221823 0.13088394925487334 -0.7053975124807303 83 60 44
0.10869679252755408 0.1269479331037947 -0.7072875755591139 85 60 44
0.10820797987018842 0.12080620115312828 -0.7083898624285027 86 60 43
0.10792300907130416 0.11689456811953881 -0.7102620360704739 84 58 42
0.10848888347303762 0.12227128226068777 -0.7154227206102716 85 59 43
0.10797683353862352 0.1158842843621837 -0.7164039771483023 85 58 44
0.10746736529876416 0.10953024184526147 -0.7173774902946581 85 58 43
0.10762653468762252 0.11046915832799854 -0.7209586746919743 83 56 41
0.10741348346635987 0.10735135887458588 -0.7230764509351558 82 55 41
0.1075623904440227 0.10817787021441416 -0.7266193614947161 81 53 39
0.10695340036799818 0.10075227559881933 -0.7271529301407799 81 54 39
0.10655942616122839 0.09567221110006219 -0.7285239016892875 79 52 37
0.10758404854373632 0.10046824916888873 -0.7562119338522137 80 52 40
0.10745901198464033 0.09831943714175953 -0.7586395624165977 78 50 38
0.10666449686092233 0.08891602426119766 -0.7582797288455366 80 53 41
0.10572435056758375 0.07794213055168536 -0.757285290810763 82 56 44
0.10527954973275931 0.07234108880834592 -0.7583340091750291 82 56 43
0.10467173482220117 0.0642006471359725 -0.7615744533739515 82 56 43
0.10497207585088539 0.06589077825860906 -0.7686346826049886 83 60 46
0.10519637090480799 0.06753535166991033 -0.7724872399428108 82 59 46
0.105413037596985 0.06909580562243658 -0.7763134465169144 84 60 48
0.10551346175019495 0.06939935412843345 -0.7796455553774371 83 59 47
0.10562679946361343 0.06984167458072604 -0.7830357465153983 77 53 40
0.10527791825556289 0.06373719400857378 -0.7902134166460298 84 60 49
0.10546451963703721 0.06496914517017117 -0.7939245033447596 86 64 53
0.10483474648001868 0.05585264462884977 -0.7998146223039639 91 71 58
0.10471445573957579 0.052232189502118984 -0.8079181585856584 84 62 51
0.10401279921970377 0.04391742570502588 -0.807638893331055 88 66 55
0.103492522928129 0.03601993458058787 -0.8138642977880197 85 63 51
0.10323693129994306 0.03250945568347957 -0.8155513212657289 86 64 51
0.10337832780690046 0.03325885343807353 -0.8190470987063506 90 67 54
0.10346201388167862 0.03338862519190311 -0.8222812913558992 88 63 51
0.10379706910561075 0.03621146604435359 -0.826676533263569 84 59 46
0.10435308508170611 0.041398378101989014 -0.832104308283378 84 59 46
0.10380760483387652 0.03478723473456444 -0.8324334738477607 85 60 46
0.10353988328027888 0.028854289890164392 -0.842578052962689 85 49 28
0.10302166768295588 0.022551176407690443 -0.8429740029761839 85 48 22
0.10345375431669586 0.026402654670632103 -0.847857970962091 84 47 21
0.10330102743754097 0.024006995706085138 -0.8499727009670868 88 53 24
0.10323760333410258 0.022565953016472656 -0.8525078520078198 90 55 27
0.10335968756936124 0.02310464144254487 -0.8559285596367532 89 55 28
0.1034819189550089 0.023644091930342753 -0.8593529715174075 91 59 36
0.10332535705139655 0.021211108051099825 -0.8614360171267477 93 64 43
0.10343377825820194 0.021603012983652303 -0.8647951140706192 92 65 46
0.10328503389022144 0.019255365068533342 -0.866908393124005 89 62 45
0.10458294301114444 0.03231013441866473 -0.8760618140044716 86 60 45
0.10457168430714092 0.03142235553188816 -0.8788587660251799 83 57 41
0.10365992840506878 0.020956175978410735 -0.8772395439928973 81 57 41
0.1051259611699914 0.03578082215348072 -0.8872858713024812 84 61 46
0.10541974485868273 0.038133748327492584 -0.8915935299187769 83 62 45
0.10558207714277457 0.03908782091914367 -0.8952588796830744 83 60 44
0.1049460901091509 0.03156271523336354 -0.8949631850116168 79 56 42
0.10521953016853276 0.033697411289696194 -0.8991779054749811 76 53 39
0.10548369180692352 0.03573153987408115 -0.903354085681727 71 47 35
0.10574856679146209 0.03777120375877682 -0.9075413861917514 68 44 31
0.10625148306782903 0.042332671577605396 -0.9129339250640193 70 47 33
0.1061506943035307 0.040491854811649186 -0.9152945017609484 80 57 42
0.1061760665024254 0.03998870057683179 -0.9182897049179163 90 65 47
0.10614375004923315 0.03887468590143295 -0.9209917382164197 96 69 49
0.1061849223986534 0.03853910328144455 -0.9240662521627189 99 72 50
0.10624023897288476 0.03835307995894657 -0.9272134361803099 98 73 48
0.10625894560148295 0.03777962610520613 -0.9301737197324769 97 70 44
0.10631049829154386 0.037553524643092306 -0.9333026028860716 93 63 37
0.10701112231277578 0.044186600756650346 -0.9397812190305325 73 43 21
0.10674191320266177 0.04056890385366729 -0.9412617219645906 61 33 16
0.10620978265502504 0.03417750730425126 -0.941367624474714 61 28 14
0.10591024007903536 0.030245928596383337 -0.9426668027518535 60 30 18
0.10585785523165944 0.028924879924452723 -0.9452465413673062 66 40 27
0.10573233348628513 0.026833205101166074 -0.9474404374292763 78 56 42
0.10550736430629834 0.023694480083528424 -0.9491067013297503 91 70 59
0.10539847783226429 0.021781203211324845 -0.9513767868900396 87 67 58
0.10594479124584323 0.02677066634174291 -0.9571069712662833 88 68 60
0.1059649893354131 0.026216109127620096 -0.960063308338767 89 70 62
0.10460610230130934 0.011146901210996513 -0.9556830543305305 91 72 66
0.10486430182912419 0.013102351655397942 -0.9598866672871356 90 71 65
0.10500707895755748 0.01384201789717196 -0.9634798913066165 91 74 67
0.10494486607201903 0.012425853446504626 -0.9659764379758299 92 75 68
0.10579596562279799 0.0206072977406018 -0.9733868933026891 92 75 68
0.10347163509015962 -0.005326013484037384 -0.9664811438355551 91 74 67
0.10305429836163899 -0.01046047839583611 -0.9670167157081343 90 73 66
0.10285698801361093 -0.013282917092215685 -0.9687366063558102 90 73 66
0.10251378874355885 -0.017633243322383474 -0.9696522703321521 91 74 66
0.10420147066546806 -0.0014494599723992863 -0.9844936729625055 90 73 65
0.1039828292073452 -0.004495844681176503 -0.9860980027408361 94 76 69
0.10389701787901642 -0.0061494924752501234 -0.9884285794749986 98 81 74
0.10388549874212612 -0.007024700292246749 -0.9911672822974598 96 79 72
0.10391009910385955 -0.007521730069968036 -0.9941054675720016 95 78 71
0.10273396617410703 -0.02057392421163101 -0.990350012332113 86 68 62
0.10333040866775156 -0.01508884576580477 -0.9964656602744086 85 65 57
0.10363644679682497 -0.01264268559211748 -1.0009712446379266 85 63 52
0.10373022841288929 -0.01241558438950141 -1.004292287039979 80 55 43
0.10335627069530488 -0.017071851993872872 -1.004978266868534 79 48 34
0.1029234763256627 -0.022338632081664395 -1.0053188071686825 77 40 21
0.1024341297998013 -0.02819134397632629 -1.0053240680233306 72 36 13
0.10228026855244778 -0.034265658364117546 -1.0210496646130818 73 37 11
0.1020861281704795 -0.03702892004982425 -1.0226905563889819 73 37 10
0.1021420660765488 -0.037190335419221635 -1.0257739456139643 73 38 10
0.10136349883792307 -0.046024391636043605 -1.0240078940054698 76 39 13
0.10168277219260986 -0.04344718389376012 -1.0286145299853677 80 44 18
0.10169162543887096 -0.044095779514768646 -1.0314163196834703 83 48 22
0.10162806491575443 -0.04549582637341827 -1.0337931687762691 87 54 29
0.10172681345947038 -0.04521108953518775 -1.0371207313589834 89 58 34
0.10175357075924865 -0.045673570674213654 -1.0400263949298925 92 62 39
0.10178032742919398 -0.04613604208913841 -1.0429319944208642 95 67 43
0.10180707277958409 -0.04659861455240823 -1.0458374665198495 96 68 44
0.10195066469830126 -0.04585084203004114 -1.0494367677962555 98 70 46
0.10203222017556811 -0.04574637213830471 -1.052670312521227 101 73 49
0.10216816642967126 -0.0450794179904289 -1.056230235620228 101 73 49
0.10228335346809826 -0.04462813903082449 -1.0596692781445423 98 70 46
0.10239396858797614 -0.04422487298409428 -1.0630836056288682 94 68 45
0.10299700533592461 -0.038732106647094616 -1.0694635243989568 91 65 44
0.10283496034385117 -0.0411496652125959 -1.0712458066689547 89 65 47
0.10323293945995907 -0.0377813461811848 -1.0764094985706911 87 64 46
0.10453140931063298 -0.025119165640078406 -1.0870457563529528 79 55 38
0.10411451340837866 -0.03017052152901492 -1.0872922654999566 66 44 31
0.10382030403812648 -0.03395248185387156 -1.0882726369779767 57 38 28
0.10342898044938585 -0.038733116546376456 -1.0886493329650726 48 30 20
0.10323140602232084 -0.0415131400825281 -1.090199981998788 49 29 18
0.10376827965509386 -0.03672407976030703 -1.0962552143570778 53 32 21
0.10341728665196333 -0.0410834334506551 -1.0968583187767529 56 33 23
0.10363856753158614 -0.03954815798384048 -1.1009829245989602 58 33 20
0.10386223774080909 -0.03798992038722809 -1.1051283564127354 64 35 18
0.10389711460198225 -0.03837531415877227 -1.1081082974247762 75 41 18
0.10416188700981445 -0.03639695192340456 -1.1125186958383493 81 45 17
0.10420659733589167 -0.036682349067804404 -1.115563944010914 87 51 22
0.10351316791395815 -0.044551269002186325 -1.113994298847161 95 62 35
0.10357272293284532 -0.04468137272079599 -1.1171220271564735 97 68 43
0.10361149292087173 -0.04502509818492757 -1.1201201027879975 96 69 45
0.10339348289623934 -0.04800372827110366 -1.1215008547128604 96 71 47
0.1034894923413984 -0.04775944589221201 -1.1248570200386416 94 69 46
0.10365468167402452 -0.046806456954052986 -1.128653262697119 91 64 43
0.10376805491021025 -0.04638564672697064 -1.1321249126882762 89 62 41
0.10373461099276733 -0.04746956688994376 -1.1346651199199873 89 64 42
0.1036846918432227 -0.04872166848277498 -1.1370983036869453 90 65 43
0.10425320344324857 -0.04364300397424542 -1.1434829462779614 90 64 45
0.10463763847917389 -0.04045226525757453 -1.1487046780639045 89 65 47
0.1046512480699127 -0.04105707441449705 -1.1515550678736972 81 58 41
0.09189963553703348 0.1831784445892475 0.11258145398430815 182 184 187
0.09141772547089637 0.17639238211483435 0.10919945586446118 181 183 181
0.09282868887880232 0.1930377530206604 0.10722653035353089 161 152 146
0.09270976615188212 0.1907429992612223 0.10410728013404191 122 104 93
0.09260090383105267 0.1885741337713334 0.10100050319343364 112 92 73
0.09272126899484656 0.18924015618513762 0.098054547223244 109 88 70
0.0927332449510044 0.188566001924473 0.0950336073234763 112 89 73
0.09282149084447505 0.1888340454099653 0.09206233385802758 113 91 73
0.0928522160631105 0.18839134394333007 0.08905299361158106 118 97 81
0.09249159601644341 0.18311895525484928 0.08580642795539417 119 97 83
0.09179688281070618 0.17128167155537688 0.07336148512759856 117 92 74
0.09192012444290362 0.17198437119827015 0.07042161286458154 113 91 74
0.09200801084540426 0.17225086635623083 0.06746076219721445 113 90 74
0.0932057736709005 0.1787942391736534 0.03783488143621899 116 90 75
0.09314180202345239 0.1771914760948589 0.03479987863835064 117 91 76
0.09329943933405455 0.17830478765009583 0.03182974409841624 117 91 76
0.09422484382904153 0.18881971450299553 0.02905391016441133 117 91 76
0.09352559960444158 0.17698030819313101 0.016804412730767857 109 83 68
0.09360705585764525 0.1771576943850404 0.013803732951595645 108 82 67
0.09376867028291788 0.17831389696746938 0.010813198766706791 110 84 69
0.0938791469756125 0.17884427800597172 0.007811124421166122 113 86 70
0.09392810918863966 0.17862291887933823 0.004799116146205457 117 90 73
0.09397136931118802 0.1783317886208109 0.0017858609728493187 118 91 74
0.09412468509314993 0.17938295463837725 -0.0012193597973730597 114 87 70
0.09429231258183364 0.18060740345101362 -0.004228215570844435 112 85 66
0.09419162259132455 0.17856026788104482 -0.007253138524239675 108 81 62
0.09417594930852873 0.1775501716459819 -0.010271371688911297 105 78 59
0.09454873717722281 0.18127122745377205 -0.013286014389653865 108 81 64
0.09473221893140261 0.18268445839183617 -0.01631060376358294 108 82 65
0.09476751265527668 0.1822929907766469 -0.019336137696446473 110 84 67
0.09487825844850341 0.18281921712504234 -0.022365590642668666 108 82 65
0.09494299121544061 0.18278520234186366 -0.025394874154387844 102 79 61
0.09500407537744139 0.18270650087606366 -0.02842511072269677 100 78 61
0.0953179558892644 0.18405422140559405 -0.03754085137843323 96 74 61
0.09648164672816129 0.19487195629197612 -0.04989082496567725 101 78 69
0.0960678994856822 0.1890334020593802 -0.05283989984941943 100 78 69
0.09565631374219115 0.1832253632090002 -0.05577351807403973 98 78 69
0.0948184948877693 0.1714450073452829 -0.061588887038340666 73 58 51
0.09425355407688846 0.163795191323465 -0.06442825541984812 86 74 68
0.09248025112289208 0.1415422252619077 -0.0668597096092325 68 53 51
0.08898976481533881 0.09776703139131925 -0.07154803940088056 84 65 58
0.08829882525869925 0.08863637922240841 -0.07419062379863398 104 84 75
0.08818718920116073 0.08650515052038035 -0.0770343087904447 105 83 75
0.08805105476911422 0.08407970337183948 -0.07986292164104573 92 72 65
0.08792426394737993 0.08176855040397979 -0.08268961954508001 84 60 51
0.08796676274969391 0.0814998221585882 -0.0855861887674505 79 53 39
0.0878961945215256 0.0798684003366082 -0.08843084648480762 73 44 25
0.0880961082125949 0.08149616842161991 -0.09140219882909992 72 42 24
0.08804441448473098 0.08009262769313173 -0.09425403386525996 72 46 34
