ply
format ascii 1.0
element vertex 691
property float x
property float y
property float z
property uchar diffuse_red
property uchar diffuse_green
property uchar diffuse_blue
end_header
0.002398731126440422 0.2262529890499455 -0.646272172814872 112 74 40
0.0020082728183859616 0.2256958610339615 -0.649743989253174 109 71 37
0.002097613613924909 0.22612087725801158 -0.6528376847148806 109 71 36
0.0012669281465165633 0.22466349015814246 -0.6566679585359799 104 68 36
0.001280982855956611 0.22493481674523286 -0.6598264774663627 100 64 32
0.0017644448672751376 0.2261663948264012 -0.6626069524069607 99 63 32
0.001815395479746497 0.22651320331984784 -0.6657358238312792 101 65 35
0.0022107567285505753 0.2275643661127682 -0.66858476424752 93 58 30
0.0034100665034080685 0.23025918571064358 -0.6707737540999643 93 58 30
0.0055145984894384575 0.23480401868417144 -0.6722105711869453 92 57 29
0.005692714719970328 0.23540998416945208 -0.6752242003723768 93 59 31
0.006063659569456495 0.23641003709828642 -0.6780776202987472 94 60 33
0.0041001033116993615 0.2326393703975939 -0.6828751240976885 91 57 31
0.0065547440125878 0.23789731263930242 -0.683989507172939 96 62 37
0.005756303356802807 0.23650806471261954 -0.6878222599027695 91 60 34
0.005412659874313143 0.2360483542496582 -0.6912779341272864 92 60 35
0.004856965175682688 0.23515583523929648 -0.6949171647273344 91 59 34
0.0043728469052720376 0.2344098837508091 -0.6985006569263995 91 58 33
0.005416693865729606 0.23678411060411259 -0.700781301140405 89 56 31
0.005513546016275267 0.2372245132515885 -0.7038692175217623 89 56 31
0.00575309687020481 0.23795622891122006 -0.7068343538302672 88 55 30
0.0051955041497868185 0.23706095758829718 -0.7104898845913271 89 57 34
0.005803019237073305 0.238543693054923 -0.7131362930162919 89 57 34
0.006032585898657086 0.23925500666408928 -0.7161097615420504 88 56 33
0.0060225993190272595 0.23947756193630992 -0.7192929894180672 86 55 31
0.0017085497966661707 0.2309207081429807 -0.7262728330911293 87 57 34
0.0003167242492463432 0.2285711882413728 -0.7338973337676138 83 50 28
0.0016287062848694724 0.2314911721371472 -0.7359259875986988 78 46 25
-0.0012855451769224896 0.22579457697539002 -0.7417358384995004 80 48 27
0.004925562560941885 0.23870076631870782 -0.739351367706338 80 48 27
0.007616443325997133 0.24442890533304845 -0.740104674302591 77 45 24
0.010828778465862623 0.25121822014330975 -0.7403655384952222 77 44 24
0.012329906118413288 0.2545191443656971 -0.7421636027701888 78 45 26
0.01342973086563995 0.25700174272024345 -0.744318924302848 81 48 29
0.012824173150840716 0.25601000326330015 -0.7480346759574933 77 46 26
0.012000345517465476 0.25457415180943144 -0.7519575212980086 78 47 29
0.015076624884953128 0.26108098057993384 -0.752273585055545 80 49 31
0.015367555221328995 0.2619148847672539 -0.7551592265869166 83 51 33
0.015756913538093546 0.2629490884960959 -0.7579518582464246 85 53 34
0.016525921452274814 0.26475594089102383 -0.7603866158765629 85 53 34
0.016256435750962722 0.2644488549089946 -0.7637946179103017 81 49 30
0.016322501030074293 0.2648248391331538 -0.7668885287465304 75 44 26
0.014818329482437005 0.26200596529845255 -0.7714734481175503 80 49 31
0.014350083419229095 0.2612955045905403 -0.7750836408567238 85 54 36
0.014547641716594346 0.2619397048722143 -0.7780615245959469 80 50 32
0.014858327369873192 0.26281395617214715 -0.7809303972748816 81 51 34
0.01515978366155385 0.2643967251165492 -0.793311929820874 83 55 37
0.015900017625697226 0.2661437816704195 -0.7957576573883219 82 54 38
0.01565286470545732 0.26588405224654743 -0.7991695104241919 77 51 34
0.015922202189547943 0.26667395039106456 -0.802074708184243 78 51 37
0.01604432037011414 0.2671647033101643 -0.8051248228420798 81 54 40
0.02836283813762614 0.29410550453498047 -0.8179569979740167 79 53 35
0.02933850783019952 0.2963248914907386 -0.8200916791296949 82 55 36
0.027423896801851824 0.2926805400529839 -0.8251919948249457 85 58 39
0.029624165448452637 0.2973836869068203 -0.8260612678750475 84 56 37
0.032686441641522346 0.30383382571695255 -0.826022144543736 86 56 37
0.03812229593451939 0.31509528526454633 -0.8234934264606432 86 55 36
0.03355653691041167 0.3060758659354913 -0.8313600493231291 82 50 29
0.030784024094111774 0.3006943822072452 -0.8373845416828068 83 49 25
0.0319885865943949 0.3033756243708942 -0.8392514649161371 83 47 22
0.02984078656829607 0.29926240621717226 -0.8446462202912012 84 44 18
0.03378831735089237 0.3075014562154709 -0.8436063236152285 82 41 13
0.03418704096515113 0.30854840113758575 -0.8463075577867781 82 41 13
0.033690586832478116 0.3077818252890384 -0.8499612351338667 87 44 15
0.03463729653950206 0.30993864150588174 -0.8520757482801496 87 46 15
0.03506424477455087 0.31104240657187954 -0.8547422546565778 88 46 14
0.03448928966262035 0.31011731176266144 -0.8584861771118606 93 56 24
0.034032374549605636 0.3094316145101756 -0.8621079443472929 100 66 36
0.03399161594549147 0.3095886778303449 -0.8652827295667129 100 69 44
0.03432402596249342 0.3105011325275286 -0.8680525988707313 96 66 42
0.03371579200403369 0.30950991715750975 -0.871848894735923 90 60 34
0.0341341818906482 0.3105964001872496 -0.8745252404521515 88 60 35
0.03358457524437361 0.30972437390161994 -0.8782646117442678 87 59 37
0.034285429942018615 0.3113821940503709 -0.8806286351422032 87 59 37
0.03440938845363398 0.3118729104082126 -0.8836275948315526 87 59 38
0.03378272604642837 0.31084571714966125 -0.8874612161410695 83 56 35
0.03373243843905946 0.31098436535798496 -0.8906577632317807 82 55 36
0.03182986204255242 0.30737846800388713 -0.8959291775829119 78 50 32
0.03223814041449011 0.30844480837547406 -0.8986207511852831 77 48 30
0.03294485644557276 0.3101141556373719 -0.9009740008556506 75 46 28
0.030708836689200117 0.30583660171288585 -0.9066506158312104 73 46 27
0.03010872526609197 0.30486574696205 -0.910489302537567 75 48 29
0.029019026902987348 0.3029062757091159 -0.914891062039059 84 56 35
0.028819458728104028 0.3027454906188604 -0.9182855226873053 89 59 35
0.027715628660404293 0.3007586661926661 -0.9227189911032814 99 68 41
0.027636285957109312 0.30084132390467333 -0.925983976156337 108 77 49
0.02759951318434918 0.3010100639500134 -0.9292015884056045 110 78 52
0.02821821375543026 0.30250212745545885 -0.9316618756756013 110 78 55
0.028253916580805935 0.30281717883952713 -0.9347956414192757 94 62 41
0.0284608008478113 0.30347776276065247 -0.9377308080840243 74 42 22
0.027740561179381416 0.3022675264959057 -0.941749363701886 62 32 13
0.027654541998717953 0.30233736771712927 -0.9450307202423098 58 31 15
0.028233449500662276 0.3037486707926424 -0.9475314575145346 62 35 19
0.030106386165490745 0.30776972387797435 -0.9485012546894571 70 43 26
0.030972615430853265 0.3097595735242298 -0.9506501327866006 75 49 34
0.028725803914627826 0.30547195638111047 -0.9564924200215749 83 57 43
0.030299837854533232 0.30888886566621776 -0.9577984911468563 85 60 47
0.03263468978426666 0.31383858154614713 -0.9581837692024646 86 64 52
0.033737170373132716 0.31630318044833905 -0.9600307500686903 84 63 52
0.030192904637136357 0.30940311549316646 -0.9674630398464792 85 65 54
0.031171329831634474 0.311617998593778 -0.9694629888790721 88 68 57
0.033068949782383186 0.3156842095149237 -0.9703431795214212 89 69 58
0.035485528581438504 0.32079473600759406 -0.9705793271388622 88 68 57
0.039215469447276274 0.3285490618046997 -0.9691971014452676 87 67 56
0.04849757377077202 0.3474818010980812 -0.9609981523600446 93 74 65
0.049049300627799115 0.3488311599706869 -0.9634379111307056 96 77 70
0.04837541868004965 0.34771296383444383 -0.967382642669317 94 75 68
0.04845513284163062 0.348112118699681 -0.9704034850837746 100 82 75
0.04866854592275095 0.3487803872173605 -0.9732592857517585 100 82 75
0.04918459704818522 0.3500575987276931 -0.9757386661110812 100 82 74
0.04841589911744416 0.34874973483807237 -0.9798158741686516 92 73 66
0.048437841108705394 0.3490329085744771 -0.9829120128723895 96 77 70
0.04884269985819215 0.35008634002086236 -0.9855290660487848 93 75 68
0.04881577122388201 0.35027126420052823 -0.9886870853851375 98 81 72
0.04951625754258764 0.35191895619106417 -0.9909289037494218 90 72 62
0.050524213630346475 0.3541844806630616 -0.9927774134236677 83 61 49
0.051576419536545494 0.3565384448241218 -0.9945630958128793 80 55 40
0.05346001361846925 0.36056286676840904 -0.9952834419909541 76 47 30
0.055097478893498794 0.36409164150935347 -0.9963045990692252 76 41 21
0.05582731581199617 0.3657958407899069 -0.9984765953495538 73 37 15
0.05758699429485038 0.36956864141626306 -0.9993211599319765 68 31 8
0.05719419107234045 0.3690167938109993 -1.0029265497362574 68 30 9
0.05964099877060244 0.37416834998481724 -1.0028664368287157 69 31 10
0.05776855434061286 0.3706450185117039 -1.0083870316359367 69 31 10
0.05840686223441528 0.3721639984445378 -1.010659120714287 70 32 11
0.05882103985465359 0.37323274030108256 -1.013219627940365 72 34 10
0.06019560834569148 0.37622903449497525 -1.0145220183379238 74 37 11
0.06519930203643298 0.38674347438396584 -1.0141320756050547 77 40 13
0.06495294308438271 0.38648479577643835 -1.0175357966125675 79 42 13
0.06225800331698832 0.3813144259429047 -1.0241828773637394 87 47 17
0.062250466671285955 0.38153595171188226 -1.0272851884248462 91 56 26
0.062201576580771495 0.3816746356532962 -1.030443719026012 95 61 33
0.06259045810629697 0.3826912255468583 -1.0330193123758282 97 63 36
0.06386137255129032 0.3854760023904763 -1.0344120348165347 102 68 40
0.06331891716933985 0.38462513481174043 -1.0382309718078186 104 70 43
0.06160121471421488 0.38141919593946016 -1.0436379443337043 105 71 44
0.06173313687208833 0.38192091089759905 -1.0465613325862155 105 71 44
0.059698595752185966 0.3780818073020962 -1.052419252007297 107 73 46
0.06144417367236246 0.3818168959716667 -1.0531593051803583 104 70 43
0.060099462383334634 0.3793610270696766 -1.058096711214553 98 64 37
0.059175170806538224 0.3777480426514659 -1.0624713585795635 99 66 41
0.059444961222854746 0.3785267883579588 -1.065218350142152 96 65 40
0.0596284041548218 0.3791325780745377 -1.068083001073354 93 62 41
0.058372653100255925 0.37685728700880694 -1.0729303984342102 85 55 37
0.05713730874070079 0.3746236779866693 -1.0777605340687473 76 48 35
0.0568105037620824 0.37420911469922613 -1.0813424842655055 63 40 30
0.05534976451401028 0.3715258790302165 -1.0865038515732919 45 25 18
0.05611601899355195 0.37329905785750706 -1.0885744032678464 37 16 11
0.05757920611795159 0.37646598021950745 -1.0896661749848666 41 21 14
0.0587401680904028 0.379027644699124 -1.091171152143684 46 25 13
0.05905808969212382 0.37990282185565566 -1.0938528670438599 53 30 17
0.06142969284125981 0.38488414974825225 -1.0936392146008933 56 29 14
0.06195439360400424 0.3861718879583059 -1.0960179668520547 66 34 15
0.06328828457275426 0.38907685625718175 -1.0972470988759622 75 39 17
0.062128922039597405 0.3869981923658139 -1.102009658525668 77 39 16
0.06313291305226733 0.3892432545277768 -1.1036999645130552 84 47 22
0.06183373615320066 0.38688616233982864 -1.1086742484492114 89 52 26
0.061354018116777743 0.38616693703419813 -1.1124858141361904 90 54 28
0.060837736245752984 0.3853750554326038 -1.1163548066496014 91 57 30
0.06018475206559324 0.38431056827193866 -1.1204259149899343 97 63 36
0.06203061582482597 0.3882361558207744 -1.1208937288732865 102 69 41
0.061778439382068624 0.38797207180896653 -1.1243870113661816 103 72 43
0.06281602212670748 0.390282787625277 -1.1260102267440844 103 72 44
0.061764666645954376 0.3884237465284157 -1.130668502985563 103 71 45
0.06101002064299813 0.38715752524051 -1.134902925173469 100 69 43
0.05985341755693639 0.3850898392571053 -1.1397329510522645 95 68 41
0.05968892596326597 0.3850021521386028 -1.1431167109503466 79 55 38
0.05840632532852748 0.3826844145302214 -1.148148797758031 73 57 40
0.05800767888733655 0.38213045090870595 -1.1518874413954716 96 85 72
0.058614474127918974 0.3835817136408126 -1.1541424042142445 132 126 116
0.020075164763258088 0.19865928648432524 0.11223711718050444 124 95 79
0.02521719210369898 0.21000730783157656 0.10605892336856375 133 101 84
0.023815307134804578 0.20724789994168946 0.10334999138398707 141 109 93
0.024521019971927432 0.20896161911201924 0.10044921811158555 160 132 116
0.02277541199798773 0.20547397246112872 0.0977548546714157 167 143 128
0.026121511094666122 0.21300509348622587 0.09180916596422403 146 123 110
0.02886860660933087 0.21904747466520974 0.08877422189614052 132 105 92
0.029197529158704806 0.21996027075594554 0.08592390682425435 108 81 63
0.030210517433058963 0.22232349271776192 0.08303001520592526 105 74 52
0.03186107265815448 0.22603802129054015 0.08010244284718804 96 62 35
0.03423658654660189 0.23128862306396314 0.07714258804089935 81 42 17
0.03543513011241221 0.2340432787319573 0.07426314310724978 75 33 12
0.03923629907119222 0.24231340209442315 0.07125578984037245 73 31 13
0.040391460433169345 0.24497434522939143 0.06840182367846787 68 30 10
0.039483300097014916 0.24326281752930237 0.06564784526776862 63 25 6
0.04047099181530138 0.24556843385405844 0.06280770799501971 64 27 9
0.041627797338080336 0.24950885626672165 0.043191495197981114 139 113 100
0.04364659635901546 0.25399480935851537 0.04036346902782071 170 153 140
0.04744630805177918 0.26288403470267496 0.029182757516557592 134 106 89
0.051257457495411045 0.27115742777907703 0.026409806582375007 114 84 63
0.05615188740128393 0.2817200054494218 0.023668960879764174 104 68 44
0.05490427207941349 0.2792914543805788 0.020900826652531554 91 50 25
0.05332801591514123 0.2761687338962639 0.01811883684678991 81 39 15
0.05455603453838179 0.27897566732506224 0.015371746921024575 71 30 8
0.055004096607420686 0.2801332604224758 0.012616501151814966 68 29 7
0.05540982230244924 0.2812012054047102 0.00986240508409126 68 30 8
0.05557644944479928 0.2817636984011108 0.007103715321373626 69 31 10
0.05530000307580281 0.2813899003331193 0.00433175787632626 67 31 10
0.05513573704882669 0.28125334178955513 0.0015607552051205911 65 29 9
0.05476594249636482 0.2806827388319196 -0.001219987636124388 67 32 13
0.056626175026947854 0.28482299952284673 -0.003913331456231045 64 31 13
0.052010812445725654 0.2752853312191814 -0.006881045674929441 60 27 12
0.0499719274137493 0.27119122830198905 -0.009758762078994572 58 26 12
0.0530969404315719 0.27842528004927675 -0.017945911393881325 61 34 21
0.055535217397407216 0.2837835980207985 -0.02057661531739289 60 33 23
0.05488371567377395 0.2826196951611171 -0.023392016150699718 58 33 23
0.05372084398217171 0.28037709004792977 -0.02624783439899349 53 33 23
0.053177356178385864 0.2794420591958047 -0.029068143982765977 42 25 16
0.05454635987094581 0.28254220925411755 -0.03174914903036888 37 20 12
0.055667565288779114 0.28511899032229454 -0.03444114324773748 32 17 9
0.05558679082958426 0.2851600443158692 -0.037225152101328735 25 14 8
0.05516742112486346 0.28448713927283775 -0.04003967955315591 18 10 8
0.04335719011178348 0.25979500341183215 -0.04387356697660322 11 6 5
0.036556716803106494 0.24567175603606764 -0.04732627288739874 10 6 5
0.03514489569427798 0.24291219621391258 -0.050309331750927104 9 5 4
0.032417929208151286 0.23825372179843451 -0.06489476104545672 11 6 5
0.03492452238751182 0.24375228653937994 -0.06746933319990947 11 7 8
0.03836969467710682 0.25122651815679553 -0.06991447336939183 16 8 7
0.04059704065347968 0.2561342292503837 -0.0724874769754206 29 16 12
0.04281306741484664 0.2610169996155787 -0.07504740361471268 61 46 37
0.04425385796001374 0.264266414613844 -0.07769429634127359 66 48 37
0.04423255561360251 0.2644370987144953 -0.08052848241939026 60 36 23
0.04641470263608198 0.2692460507411533 -0.08306020024423105 52 24 11
0.04335140890689338 0.26301384260438665 -0.08631865188282678 54 26 12
0.04388957580198702 0.26436237018311404 -0.08907812742987711 54 25 12
0.04582185192639062 0.26864412770717727 -0.09162817807065723 50 21 7
0.04658450550098468 0.2704641602289987 -0.09434317321405095 60 32 18
0.04901688765431959 0.27579636665821733 -0.09679467698634153 74 46 36
0.05256954160646869 0.2834837042794836 -0.09905240637682032 71 42 29
0.055581773789876686 0.2900326631107543 -0.1013739516461108 70 40 27
0.05852477346187353 0.29643450934490867 -0.1036868991081436 70 40 27
0.056825650736433406 0.2930744500815068 -0.1067655070746858 88 58 43
0.058822939273906555 0.29748636885568014 -0.10921874882075007 99 67 51
0.06076642714133541 0.301784206656525 -0.11166846732306493 84 47 30
0.06226926403460217 0.3051549325406246 -0.11418471411801079 129 102 92
0.06373522695622791 0.30844743993680096 -0.11669815828628366 186 166 160
0.06554296805876905 0.3124573990117309 -0.11913851216146275 143 118 106
0.0668014561528561 0.31531249845943976 -0.1216715985057153 122 90 70
0.06604443095439802 0.3139329853883994 -0.12458709595515052 98 56 28
0.06784698561072255 0.31793020749858497 -0.12700426010773694 87 42 9
0.06881562252676071 0.32017516380850786 -0.12957706234809768 80 38 8
0.07034110197174412 0.3235889963200002 -0.13203035068247776 72 31 7
0.0679098456665182 0.318694342770218 -0.13529549308691022 69 30 8
0.06841106748241498 0.31995744214323957 -0.1379594312838299 69 31 9
0.06807405591768165 0.31946080034521784 -0.14080073754447395 69 34 14
0.0673942698332566 0.3182449802403801 -0.14372014016594395 68 38 23
0.06674817968336566 0.317100309240543 -0.14663779496988202 66 41 30
0.06804274292239972 0.32002814953479974 -0.14912392584300915 67 45 34
0.06894024976265094 0.3221223286677478 -0.15169272317734442 67 46 36
0.06493927464168471 0.3139401833817543 -0.15539365916488762 67 47 37
0.0637134065050998 0.31200622818486873 -0.16405472582578268 66 46 35
0.05668755850284436 0.2974877899390692 -0.1685790930949071 65 45 34
0.05658867973474455 0.2974951451073986 -0.1714235298405416 64 46 34
0.0563873310911433 0.2972878327913836 -0.17429558864753608 63 45 33
0.055258488423639514 0.295136766438589 -0.17740825223677437 62 44 33
0.054294341409077636 0.2933315209985825 -0.18048695854475844 62 44 35
0.05312138248829472 0.2910893297315269 -0.18362853477641605 62 43 36
0.054590306712559766 0.29438284171640844 -0.1860728819396593 61 42 35
0.054148687364960715 0.2936733793768511 -0.1890254845989747 61 42 35
0.055359173687600224 0.29642466166494263 -0.19152872886927105 61 43 36
0.05558544283316508 0.2971141309563229 -0.1942980127229112 61 43 36
0.053799045679070935 0.29358898540271905 -0.19763329083646075 61 43 35
0.05219285494070667 0.29044218220236406 -0.20093079098013295 60 42 35
0.04566449563669209 0.280057701318443 -0.24593599471016972 63 42 31
0.041591467172028794 0.2719876463955737 -0.2531117545036988 62 40 27
0.04187315466027214 0.27279687311544604 -0.255914175909545 63 40 28
0.041745848576374346 0.27275178822830304 -0.2588597192043998 64 41 29
0.04303146664189999 0.2756575387315452 -0.2613042505830359 67 42 29
0.04200325692979612 0.2737311969945676 -0.2645724556054347 69 43 30
0.04137639616233781 0.2726434310116863 -0.26770326620429746 69 43 29
0.03879972095266513 0.2674857565424472 -0.271554375923424 69 43 29
0.03918686255305602 0.26851585160653 -0.2743277019840679 69 42 28
0.041656870740994695 0.27389276087246683 -0.2763208288800785 67 40 26
0.040410136447520714 0.2715125647571939 -0.279699696593302 68 39 25
0.03940977446513117 0.26964716763405994 -0.28299462212890614 71 42 28
0.03894040648024236 0.2688901437160108 -0.28609355737188186 71 43 29
0.03837740029345148 0.2679381299861817 -0.2892331814004735 62 33 19
0.03796463841316029 0.267299855298883 -0.29231900236563574 62 35 19
0.03803583997444705 0.2676711264161614 -0.2952175493337872 70 42 24
0.03708201703225454 0.26590515557490263 -0.2985252849001207 62 33 15
0.036530738463817325 0.2649790170041748 -0.3016789116639383 65 39 24
0.03513705580960308 0.2622972155513037 -0.30517938392928673 84 66 57
0.03473510562506103 0.26168330360919156 -0.3082847929867575 87 69 61
0.03630651696104169 0.2651822000121378 -0.3105790916784321 73 46 35
0.037041471734917585 0.26693735923034834 -0.31321161819963217 63 28 13
0.038787567368471026 0.27079887602679165 -0.315415064912738 69 28 10
0.041501951976424305 0.27667665483739223 -0.3171967301076093 76 36 15
0.04263998897613718 0.27926961928028116 -0.31963357267727555 77 41 16
0.04237331762721051 0.2789365227273286 -0.3226685621516903 80 45 23
0.04174516871963038 0.2778509155854076 -0.32586352954142894 81 50 30
0.04147605317220439 0.277513273657367 -0.32890673213077487 80 51 34
0.03612472089557506 0.26659553111296613 -0.3341974450152255 65 41 31
0.034347622855802805 0.26312076962120023 -0.3379361756692984 36 15 11
0.03033130507059345 0.2549865988727812 -0.34269369998905214 38 17 10
0.028491611713825193 0.25138428511998595 -0.34649634216985453 71 49 36
0.02839872356090576 0.2514177027909401 -0.34951667252320034 67 44 32
0.0277511517893146 0.25029724918351653 -0.35279363408020464 49 26 14
0.028699631062183845 0.2524973227462741 -0.3553370077412214 52 30 19
0.029764215644337524 0.25493844577360525 -0.35782040226028944 50 30 20
0.030851520646881223 0.2574263152180349 -0.36028648863080726 45 26 19
0.03330779351446066 0.26276026131550156 -0.3620969288996432 35 19 13
0.033158530828412816 0.26267577665121633 -0.3651350635011198 37 20 13
0.03323600487031289 0.26306279796771814 -0.3680662030695934 55 36 29
0.033408329920127385 0.26364700785601725 -0.37095183439933344 75 52 44
0.03431505630724658 0.2657574903059911 -0.3734785921864421 69 42 33
0.03498493398582295 0.2673753819360116 -0.3761163723729091 55 27 13
0.034352709856914826 0.26628757214252335 -0.3793956538712623 53 24 11
0.03459535981054691 0.2670176974103998 -0.3822437984050664 58 28 14
0.033425432646987746 0.26481359363569357 -0.3858014609590832 58 30 13
0.034604280362734705 0.2674883899339372 -0.3881791722176031 79 51 35
0.03562573867160815 0.26983577783442503 -0.3906296789167283 63 33 17
0.03700243281905241 0.27292027826469323 -0.3928913861765717 63 32 17
0.03785189516730879 0.2749095254272894 -0.3954168838681803 62 29 19
0.041181306264665346 0.28204627134936505 -0.3966456013465946 56 24 15
0.03979786173535921 0.2793995958727788 -0.40032299276114786 59 26 15
0.039469114685478174 0.2789425248868682 -0.4034544540680399 61 27 12
0.04295241064503547 0.28639561988864015 -0.40456248525846855 67 29 16
0.045052832276497874 0.290977821256685 -0.40638661015151983 93 67 56
0.047576572373221396 0.29643708682638936 -0.40796841859136074 103 84 73
0.04950035434801417 0.30065063506337114 -0.4098584850535748 112 89 77
0.04852622171547621 0.2988532845066406 -0.4133184005789888 79 44 27
0.046791683121140626 0.29547977090332567 -0.4172044627841871 73 32 12
0.047522408683508044 0.2972185844958666 -0.41973979294170166 69 31 10
0.04799202325065323 0.2984157769999772 -0.4224162997932253 71 30 8
0.04882694939913104 0.300369995889454 -0.42488560420026844 75 35 11
0.04958743208732655 0.3021695477668707 -0.42739188279985785 78 38 14
0.049509144838932095 0.3022306416317086 -0.4303700273880901 84 51 28
0.05190483660546877 0.30741780134791985 -0.4319357347554571 89 60 37
0.04969454312400322 0.3030616466262789 -0.4361343919934095 88 61 40
0.04810003012591378 0.29998231404728015 -0.43999370164351953 91 64 44
0.015475783001499252 0.23357093179644867 -0.47419691415402254 68 41 25
0.014263695936954056 0.23129571868971247 -0.47799205843095266 75 48 33
0.0139583043063531 0.23089762168830597 -0.4812491931279235 69 42 27
0.013652467166598292 0.2304988539601338 -0.4845098973758778 66 40 22
0.01370689686345889 0.2308456926907521 -0.487553572940458 77 50 33
0.013240499836258052 0.23011519077867137 -0.4909183535738201 67 38 23
0.012884323227678338 0.22961300323734668 -0.4942193995096431 74 45 28
0.012146888201799426 0.22832262868270592 -0.49776146331390025 80 51 33
0.011582051617110976 0.2273896426330613 -0.5012019116057891 83 55 34
0.011007213118767178 0.22643637368348604 -0.5046538632434757 73 45 24
0.010248441108187088 0.22510327371117234 -0.5082276119192952 74 45 27
0.010547691805875364 0.22595756052792948 -0.5111338903053982 77 48 30
0.010958387371461528 0.22704208353196678 -0.5139676528968222 78 49 31
0.0131854829760144 0.23187986160547144 -0.5156289359873527 74 44 25
0.012904633177493088 0.23153477282162854 -0.518900404403923 81 51 32
0.011882210346547989 0.2296579525056779 -0.5226583338927534 91 61 42
0.011384672692920275 0.22886596620166694 -0.5260808119367025 81 50 30
0.010933225860627456 0.22816953029436587 -0.5294776401560837 74 42 23
0.010813120707141695 0.2281576501959076 -0.5326592676772648 83 51 30
0.010239037010354494 0.22720857954344217 -0.5361453946960244 84 52 29
0.010455732048029513 0.22789243101100548 -0.5391069417205819 89 56 31
0.00968665072366378 0.22654143869857968 -0.5427321400091 92 57 31
0.009453046018744957 0.22629612167777152 -0.5460013358448171 89 53 26
0.009209750301381624 0.22603101972493966 -0.5492799367405049 89 53 25
0.008912864719008269 0.2256555633528753 -0.5525981102219095 89 54 26
0.008925213615769069 0.22591832175514812 -0.5557066752362321 89 54 26
0.009040217579161243 0.2263929101432366 -0.558745196848029 89 54 26
0.008666231583408332 0.22585898104801022 -0.5621241866612723 92 57 29
0.008974868098639774 0.22673305498509164 -0.5650295700210333 93 58 30
0.008592215928895058 0.2261816511012586 -0.5684198322037853 98 63 34
0.008566821190916736 0.2263670844544099 -0.5715614990019562 100 65 35
0.008261467509047798 0.22597551673493793 -0.5749033513211614 102 67 38
0.008201811048234885 0.22609060752453633 -0.5780730842147837 103 68 38
0.008142027747149054 0.22620555396294217 -0.5812444456906207 100 65 36
0.008195287548034648 0.22655354611125517 -0.5843357842837655 103 67 38
0.008128227914462008 0.2266537042069874 -0.587515085413808 105 69 39
0.00843544378111661 0.22752497903153251 -0.5904231775594522 103 66 36
0.007853923943501137 0.2265656479882881 -0.5939811669096381 102 66 35
0.007602032774541204 0.22628556656443288 -0.5973018546702314 103 66 36
0.007829257504574673 0.22699227015643647 -0.6002709822501684 103 66 34
0.004956609979143822 0.22131677594995447 -0.6055447232195057 103 65 32
0.005031218886362272 0.22171009404560582 -0.608638202059737 106 67 34
0.005590371983007859 0.2231007831004079 -0.6113683326633654 108 72 37
0.00597175257942259 0.22412538604812038 -0.6142296080906355 102 66 31
0.0070114004216011855 0.2265043880173004 -0.6165899320349981 105 69 35
0.00583685170479107 0.22432731711852305 -0.6206311449496985 104 68 34
0.005824034560018995 0.22454085543731822 -0.623792485857608 110 73 38
0.005702855756582047 0.22453159908131715 -0.6270384167431726 112 75 40
0.006288168215787503 0.22597546048522726 -0.6297400864365862 113 76 41
0.007125217898449464 0.22793672656269998 -0.6322429540850891 112 75 41
0.00815100997880936 0.23028566505156306 -0.6345933957763232 113 76 42
0.007952900408200653 0.23011807710961343 -0.6378972826251333 114 78 44
0.007415878689260386 0.22925406336859083 -0.6414708208870588 109 72 38
0.007467991878763909 0.22960121717868745 -0.6445830106443209 110 73 37
0.007815581041809412 0.23055559986563864 -0.6474608895812948 110 74 38
0.00799093122135179 0.23115598555590175 -0.6504749474973873 107 70 35
0.0073645853990639 0.23010940437054234 -0.6541324738604425 108 73 40
0.007173817441728798 0.229957961850989 -0.657444434258158 100 65 32
0.007030000442548388 0.22990313848049443 -0.6607208815664296 99 64 32
0.007234965494230812 0.23056470078471794 -0.6637155992474405 100 65 33
0.00722237423934094 0.23077954450779375 -0.6668878112366956 102 66 37
0.0084895365709486 0.2336217134913976 -0.6690099811497908 102 66 37
0.009957236260036237 0.2368748804818594 -0.6709583639820091 95 59 31
0.010039700996538697 0.23728430742455064 -0.6740451459681561 95 60 32
0.010130052685727461 0.2377099570377583 -0.6771258614362152 96 62 34
0.010117922857837414 0.2379253699393919 -0.68029272752906 97 63 35
0.010044857058797922 0.23801586419250853 -0.6835119889291617 104 70 42
0.009507886800150453 0.23715491437405484 -0.687124346480425 97 64 36
0.009092505533355666 0.2365437256301935 -0.6906387752369166 91 59 31
0.00869910283039358 0.2359779281908198 -0.6941387103474651 90 57 29
0.0073625089984865125 0.2334785492884675 -0.6984491011821867 88 54 28
0.008117363049926211 0.23526766121600523 -0.7009746532589735 85 50 25
0.008667550034712368 0.23663690283567096 -0.7036722045765038 84 49 25
0.009339431008340802 0.23825533094688045 -0.7062613612240113 85 50 26
0.009834765601380545 0.23951167778788301 -0.7090001988702127 84 49 27
0.010323421535370747 0.2407541439783032 -0.7117422909195052 83 49 27
0.010607648915872792 0.24157761214330384 -0.7146612127686336 83 50 28
0.011001164759049734 0.2426248680236361 -0.7174828341196937 82 50 27
0.007364275771061572 0.23541733722766833 -0.7238689785378752 83 52 28
0.005028680005632186 0.2308767639414937 -0.7291271308329805 82 51 28
0.005408642797416097 0.23189777936531902 -0.7319806790122234 79 46 23
0.006451915651417277 0.23427661856384493 -0.7342381265769518 77 44 22
0.007755816322001646 0.2371884420015084 -0.7362543664947525 77 44 22
0.010039311489090423 0.24210451298381286 -0.737376818753423 78 45 23
0.012041263722169973 0.2464432218997955 -0.7387387329964195 74 41 19
0.0138997614566755 0.25048735166785024 -0.7402174581293874 76 42 21
0.016467651736705773 0.2559817896276408 -0.7410343881541338 81 48 27
0.017356110841814362 0.2580395246721806 -0.743375870277777 83 50 29
0.017693042662984923 0.2589688310124066 -0.7462204974095215 78 46 25
0.017702299170375628 0.2592279486271549 -0.7493671717499266 70 38 19
0.01742081245487117 0.258892672476074 -0.7527852440181385 72 40 21
0.017005648349779363 0.2582843548403574 -0.756331354349473 80 48 28
0.017462357144245773 0.2594585527875961 -0.7590644402295423 84 51 32
0.018277922019675076 0.26136600851553204 -0.7614574829902095 84 51 32
0.01901008420731906 0.26310264713360976 -0.7639243180545323 84 51 32
0.0204790179815528 0.2663443511366929 -0.7656878219290918 83 51 32
0.02062264165685322 0.26687775477110465 -0.7687036383369434 84 53 34
0.018523362359846876 0.2628296630818501 -0.7738641242338465 84 53 34
0.01832842972924066 0.2626722558778596 -0.7772134644713545 79 48 30
0.019065044786712795 0.26441735102512676 -0.7796676450198958 77 45 28
0.018295670138273018 0.2630871734301348 -0.7835744281856986 81 48 32
0.017396589023890713 0.26149272523362366 -0.787614117582495 83 51 35
0.018138188413912633 0.2634891422981751 -0.7932312865663992 73 41 24
0.018515689390813564 0.2645008349292547 -0.7960307786520244 73 42 26
0.01928913815041916 0.2668027294052511 -0.8047757797804922 79 50 35
0.027945497225362978 0.2858943655323031 -0.8150159548824717 76 46 32
0.02846051231939921 0.2871832259305046 -0.8176349923410923 77 46 31
0.030106974720806166 0.29077718339960096 -0.8190924154453256 72 41 25
0.03260523237228113 0.2961055514813226 -0.819662833634996 74 42 26
0.03326725387819025 0.29769231534033636 -0.8221100234436836 77 47 28
0.034931657463730635 0.30132025375351335 -0.8235152579176901 78 47 28
0.038484575105335476 0.3087929563356163 -0.8229460965412005 79 47 28
0.041831391880117044 0.31584405973673113 -0.8225660679192626 83 51 31
0.04397797200374376 0.32044992624912066 -0.8234183385620317 79 45 23
0.039782067308436704 0.31214473385825803 -0.8309199028513871 77 41 18
0.0397882430139233 0.31239402232811797 -0.8340230708686343 78 42 18
0.040342017925403775 0.31375769339052845 -0.8365477367591755 83 43 18
0.03918171017571705 0.3116336626598285 -0.8408899614704002 79 38 12
0.03966693299592355 0.31285790181400697 -0.8434880185722008 82 41 14
0.03737092008899853 0.3084248650020193 -0.8490588312860956 85 43 13
0.0381997491273546 0.31034831833356297 -0.8512934196532417 87 46 15
0.038683961677337224 0.31157062014762305 -0.8538941019456187 92 48 17
0.03910155228245887 0.3126572737912572 -0.856564242425458 90 52 18
0.038381693894328245 0.3114314994591665 -0.8604664797860342 95 60 28
0.03783064975847394 0.310549354102865 -0.8641915105816435 96 65 39
0.03785007294345652 0.31082696075035005 -0.8672985376117374 94 64 40
0.037759686456303815 0.31088150961256844 -0.8705269381745541 91 60 35
0.03732685525602717 0.310240453065441 -0.8741339362939107 90 60 36
0.03649712539793501 0.308793471854673 -0.878183579050901 87 59 37
0.03663788142685235 0.30931822529557934 -0.8811654529473119 86 58 36
0.03688571477871923 0.31006043733151306 -0.8840283305681252 85 57 36
0.03423352291783568 0.30491399847199563 -0.8901256254757305 80 53 32
0.0340229194170461 0.30472620024934105 -0.8935112221270755 80 53 33
0.03342585502535218 0.30375411460743407 -0.8973336392289137 80 53 34
0.034222393641273614 0.3056109998578024 -0.899591095424767 78 49 31
0.035029741341406476 0.30748944246005194 -0.9018313591107651 76 47 29
0.03431841050167359 0.30628598798094586 -0.9057898238785015 71 43 25
0.0340343174281225 0.3059498071145696 -0.909268441325413 75 48 28
0.03407379313857597 0.30627023457076885 -0.9123807313805574 84 56 33
0.0331700136188801 0.3046776152507236 -0.9165750133572775 89 60 34
0.032752195692470655 0.3040710950422979 -0.9202184846776392 99 68 41
0.03253536794999714 0.30387243602983804 -0.9236343781294611 101 70 43
0.03226583646678359 0.30356714258977197 -0.9271140868424003 106 73 47
0.0322925295953402 0.3038625497007272 -0.9302529206256749 103 70 46
0.03213583265234416 0.3037863439768824 -0.9336064079696292 91 58 36
0.0326536736108579 0.30507723138688597 -0.9361735433217873 73 40 20
0.030502068039983427 0.30095919322578507 -0.9418693077648344 62 32 13
0.030560022550296252 0.3013187630250442 -0.944982271939855 58 31 15
0.03084605993103713 0.30214038325435616 -0.9478266188623787 59 31 16
0.03396782385851883 0.308705050266854 -0.9473106566901095 66 38 21
0.03470145777292712 0.3104320535671752 -0.9496100180627266 79 53 37
0.03162685601534131 0.30444821924504223 -0.9564454907253561 82 56 40
0.03505977673589303 0.311640078100491 -0.9555216962447678 83 58 43
0.032673477967635034 0.30705131139587044 -0.9615557767765515 83 61 48
0.03462714048828398 0.31124728640875754 -0.9623846191886738 82 62 50
0.03314276788712006 0.3084852827446257 -0.9673517615105428 82 63 52
0.03509359949898332 0.31267441942501795 -0.9681694420771132 87 67 56
0.038087953039842616 0.31897346747321453 -0.967704865860107 89 69 59
0.0416451078572763 0.32640918415715 -0.9665320875444291 89 69 59
0.045010815946999315 0.33345572577092786 -0.9655671480686927 90 70 60
0.04653965013022506 0.336786129426166 -0.9668312421541145 92 75 66
0.0488578535242518 0.34171162892179835 -0.9671130199069168 95 77 70
0.05216981739285741 0.3486446954114624 -0.9661509472520645 91 73 65
0.05284793551353356 0.3502524635818739 -0.9684267404108708 95 78 70
0.0522353506759978 0.3492515755040016 -0.972302102161742 97 80 72
0.05310162430109282 0.3512392780341802 -0.9743401277094903 97 80 72
0.05315549698849368 0.35158527790644634 -0.9773882627213533 95 77 69
0.0528082353429171 0.3511210459139968 -0.9809401689399135 96 77 70
0.05242778330723094 0.35059006987571517 -0.984537641287081 97 79 71
0.05297311119217775 0.35192891972456064 -0.9869709828523379 99 81 73
0.05333001106898365 0.35288707826568866 -0.989639721155196 96 77 70
0.05407659616756294 0.3546318102777628 -0.9918120665129929 86 65 55
0.053921175573435724 0.3545554795019313 -0.9951284417028178 86 62 50
0.05593992359788609 0.3588672648078443 -0.9956699220505886 80 51 35
0.057929829801965725 0.3631197421045724 -0.9962338067370663 77 43 22
0.05973607212248192 0.36700056376484247 -0.9970193918828589 74 37 15
0.061280197054559046 0.37058731020550423 -1.001226018637187 70 31 9
0.06385551881281057 0.37601682328214237 -1.0009835411495258 70 31 9
0.06157840502139422 0.37166025276138626 -1.0070336552550456 71 32 9
0.06335146659710049 0.3754708508768964 -1.0078188298939412 72 33 10
0.06378311186617669 0.3765763931183273 -1.0103465258383333 71 34 9
0.06351827824837347 0.3762779758795618 -1.0137860116231585 73 36 10
0.06333250450184053 0.37613912645625414 -1.0171246139805852 74 37 11
0.06424038250022926 0.37820413442597844 -1.0190219912222713 77 39 12
0.0645682700692177 0.3791002046641081 -1.0216813482101263 79 41 12
0.06341764903055683 0.37701791046816646 -1.02630265561946 84 46 16
0.06411437547831414 0.3786570669193041 -1.0284736617795773 90 55 24
0.06374012984502603 0.3781392029847766 -1.0320709075629557 96 62 34
0.06552433521300106 0.38196762990015143 -1.0327806079498436 102 70 42
0.0666339580078899 0.3844370280752685 -1.034383840011385 103 70 42
0.06440221697377346 0.3801800918931477 -1.0404819079930059 105 71 44
0.06393232154881656 0.37947042574753487 -1.0442176181791238 105 71 44
0.06348061654208975 0.3787977289482438 -1.047933470865586 107 73 46
0.06302815588067656 0.3781238662179219 -1.0516550066934598 107 73 46
0.06263295241619049 0.37756554218671096 -1.0553031592628763 101 67 40
0.06296279701240796 0.37846589387634527 -1.057964374454575 99 65 38
0.06514892752267809 0.383099296894305 -1.0580792846924545 101 69 43
0.065591982604236 0.3842265165396063 -1.0605746711130182 99 67 41
0.06414233156904244 0.38154827970051974 -1.0656773168369418 94 63 40
0.06247170080145617 0.3784267804834286 -1.071097995551122 86 57 38
0.05971305609496671 0.37311956595321427 -1.0780415504721268 78 50 36
0.05822808107488381 0.37037365194046995 -1.0832367962926586 66 40 29
0.0583596787498005 0.370876893934354 -1.086190592367032 50 30 22
0.058763955449258255 0.3719279569219839 -1.088763184558597 36 15 10
0.05983831236941718 0.3743248579255376 -1.0903940837299084 39 19 11
0.061175992868418405 0.3772500636398437 -1.091647387885955 44 22 11
0.0604651790670934 0.37606096152580815 -1.0957800247841203 48 24 13
0.06334355752716538 0.3820787768390564 -1.0948439393431735 51 25 11
0.06444033859194762 0.3845183851248795 -1.0964127035149427 62 30 11
0.06591033691853966 0.38770654778102565 -1.0974432754292587 74 37 16
0.06568741146408351 0.38749637238200474 -1.1008773371776217 77 39 16
0.06630550831750989 0.3889740198388642 -1.103111769097498 82 44 20
0.06598669521202864 0.38857165162467616 -1.1066857741100384 89 53 26
0.06412626210387307 0.3850770561685569 -1.1124798148660626 91 56 28
0.063654296336104 0.3843685254860331 -1.1162879754026245 93 58 30
0.06390516974726376 0.38510995322534447 -1.1190560676184298 99 65 37
0.06421489784980569 0.38596932707541776 -1.1217380076925332 99 67 39
0.065032078797335 0.38784594769048064 -1.1236810733741882 102 71 42
0.06595153363227715 0.3899271729267473 -1.1254697721954254 105 74 45
0.06375038020956464 0.38575358315118946 -1.1318127022547095 104 73 47
0.0642422777690215 0.38697802893306465 -1.1342279844631427 102 71 45
0.06284585781250632 0.3844188195234165 -1.1394149615712528 98 70 44
0.0631663815918771 0.3853001010984034 -1.1420846844143704 83 59 39
0.06195871917839999 0.3831203118429676 -1.1470104085302621 72 56 38
0.061274252718636374 0.38198914349051505 -1.151171909141122 92 79 65
0.0564660362263811 0.37260106499584544 -1.1614640766758177 127 119 109
0.025290054649938692 0.20313396111135568 0.10905568069929489 124 92 75
0.028496767656005048 0.21018171340492559 0.10591521953176558 131 98 81
0.028903413705892375 0.21126249327759744 0.10304665885400877 143 111 97
0.02923216568134991 0.21217720660636483 0.10018663204335573 159 132 118
0.02732266376500618 0.20853946984881866 0.09467420174148569 153 129 116
0.02930954363001531 0.21298538836391423 0.09168331305111406 150 127 114
0.03324258359023893 0.22157401819450265 0.08856388378343419 130 103 90
0.03134549059973203 0.21774896338715627 0.08587336265093998 106 79 63
0.03441565250211963 0.22449842291448557 0.08284258324302712 99 67 48
0.03593830723364864 0.22795269086986175 0.07992823009691029 86 49 26
0.04168723721045991 0.24040023524375778 0.07677465846778372 79 40 14
0.04243045165290382 0.2421934365024683 0.07393693270307318 74 34 10
0.04259123083575978 0.24274713773911355 0.0711336335965142 71 30 9
0.04330974875733971 0.2444873244964335 0.06830340320675318 71 31 11
0.042473757373435644 0.24292065150365993 0.06554731130944397 68 30 10
0.04329436147447421 0.24487775775981765 0.06271545161427701 69 31 11
0.043448892886012294 0.24668948709225635 0.0431223534769575 141 113 98
0.0487775907974954 0.2590674946891709 0.029100977919385415 136 109 92
0.0538436891834981 0.27003612797167825 0.02632789954148364 115 86 65
0.05777747238059341 0.2785980914855115 0.02358149332556993 92 55 33
0.05788648840935246 0.27903844228052893 0.020823403933787597 84 43 18
0.05507418761365152 0.2732778826193939 0.018026125187965265 73 31 8
0.057479655264774374 0.2785929814005673 0.015296164321175997 68 27 5
0.05794337913616492 0.27978627227248276 0.012542539718632742 66 28 7
0.05827869191405873 0.2807069211775902 0.009788132245788617 66 29 9
0.0584606947772932 0.2813022034126264 0.007030936085652417 65 29 10
0.06052180834774009 0.2858836939588836 0.00433158787888193 63 28 9
0.058580869851294 0.2819755121248917 0.0015091855105912391 61 27 9
0.05865934914286594 0.2823512317898081 -0.00125178899027064 64 32 14
0.06084461220247445 0.28719453110803617 -0.003926806477856502 61 29 13
0.05418503821078184 0.27328311670073685 -0.006980795833673059 57 25 12
0.05805742522434718 0.28233266181260397 -0.017888578063844085 58 30 19
0.05795863146718 0.2823332368476634 -0.020667021194464348 57 30 21
0.0580013408237211 0.2826337406707918 -0.023437864720107095 56 32 22
0.05788271166332528 0.282592505241501 -0.026220443546753576 52 32 24
0.05721081720116608 0.2813794811258843 -0.02904472415997958 39 23 15
0.056643089039901603 0.28038749891115733 -0.03186673721118435 35 19 12
0.05681942934109385 0.2809715766186651 -0.03463477377345096 32 17 10
0.055810916955837425 0.2790468212128564 -0.037500392454621584 25 14 7
0.04972306261450758 0.2663689834804992 -0.04081111835023556 18 10 7
0.05028634503409681 0.26777406845821483 -0.04356957400799513 11 6 5
0.04117964232250847 0.2487112945214493 -0.04722453937816571 10 6 5
0.03980441925403088 0.24601591896989408 -0.05019776637092783 9 5 4
0.03620146579057329 0.2394738680848572 -0.0648492969020879 11 7 6
0.03791169027903834 0.24330743441606786 -0.06751224954039817 11 7 6
0.042036815717955034 0.2522464938276003 -0.06987236135529773 15 7 5
0.043964180823197994 0.2565368523920186 -0.07247799405750059 25 11 7
0.04545708809432529 0.2599078324118896 -0.07512669828067642 61 46 36
0.04683104396005666 0.2630266679195237 -0.07778157788811328 69 51 40
0.04820083152318044 0.26613604109639205 -0.08042839760689485 61 37 25
0.04851643156684147 0.26701707063274044 -0.08321243774014919 49 21 10
0.04745233932984784 0.2649828272480069 -0.08619090376773966 52 24 11
0.04631953303009817 0.2628040512387342 -0.08918776089011973 55 26 11
0.04860160507665792 0.26783950544808954 -0.09168535396629023 55 26 10
0.05154618287155139 0.2742731202759588 -0.09406705698748466 67 39 24
0.05336799848888241 0.2783341310546902 -0.09660405677410167 72 44 35
0.057300034637369136 0.28685018282811114 -0.09879311334888881 69 38 27
0.06032403540485582 0.2934470600761944 -0.10110343593844348 73 40 27
0.0584459942334705 0.289905926123509 -0.10700931029202479 89 57 44
0.06135720641413411 0.29626226724746973 -0.10930627098887893 91 56 43
0.06340190593953843 0.3007885602984339 -0.11173699643924148 85 49 33
0.06482759427889923 0.3040077238913832 -0.11426596214388808 133 108 99
0.06688537046225929 0.30855974271684705 -0.11666968523524286 159 138 131
0.06861680852160065 0.31242233893854393 -0.11912105805961683 138 115 103
0.07040935403210438 0.31641297522158174 -0.12154956634739307 123 91 72
0.06988507115561007 0.31551667535808603 -0.12441673918154869 95 51 25
0.07151867320422428 0.31917100496231593 -0.12686155624206494 84 40 9
0.07336358215480326 0.3232700587278046 -0.1292532893677511 76 34 5
0.07540905353849528 0.3277910166440796 -0.13159190642153035 70 30 8
0.07208499617807321 0.3209926519126155 -0.13503619917390833 67 30 8
0.07194998011756254 0.32091738636355177 -0.13782894794413603 68 32 8
0.07081156300244085 0.3187277534797417 -0.14083978553570875 71 36 15
0.06900008723947705 0.31512061268668856 -0.14400697177355876 69 38 24
0.07138824260774168 0.32036233872946984 -0.14625346514998172 65 38 28
0.07100849959111681 0.3197721629313334 -0.1491096873700115 65 43 32
0.06988081439107946 0.317606888214592 -0.1521412233714849 66 45 34
0.06982676116092697 0.31770336792465687 -0.15493143507833662 67 47 36
0.05830869767668651 0.29430055934590676 -0.16889923363569245 65 45 34
0.05823982648510028 0.2943693804339309 -0.17173975889387946 64 46 34
0.058259627601020256 0.2946249146593993 -0.17455919921975277 64 46 34
0.05736948777287247 0.2929658690924395 -0.1776140323842019 62 44 34
0.056776773223712565 0.29193311845388814 -0.18059841182453748 62 43 36
0.056507840903706794 0.2915818687460551 -0.18350220597760278 61 42 35
0.06094102057688584 0.3015480544459319 -0.1907874693776304 60 41 34
0.060160802137775096 0.3001212768772168 -0.19382688438604553 60 41 34
0.05863781886976257 0.2971335034325689 -0.1970826615025338 59 40 33
0.04380282031418398 0.26988921980041924 -0.25334614843478287 62 38 28
0.041050361972770594 0.26433666311745246 -0.2572120987784212 62 38 28
0.041526563253263725 0.26555578510913713 -0.25995691931218123 63 39 29
0.04921591416285261 0.2818978963984521 -0.2601227945993711 67 40 29
0.04321974203813881 0.26954640585037315 -0.26517214101140835 68 42 29
0.04276568386012966 0.26881489508910955 -0.2682460782041359 69 43 30
0.041276139399774654 0.26591353380873556 -0.2717052349384942 69 43 30
0.04125012570537134 0.2660799269836233 -0.2746323629664886 68 42 29
0.044105477585738684 0.2722836182774951 -0.2764800052631182 67 41 28
0.043470572035591855 0.271173791413037 -0.2796297742947587 68 40 26
0.041978584749415446 0.2682690405483046 -0.28311267879596325 68 40 26
0.041777553566294826 0.26806901327312216 -0.28610923301299285 68 40 26
0.04097979990459541 0.2666195298423218 -0.2893405823343704 64 34 21
0.04031471014468907 0.26544834118417393 -0.29252652679425084 68 41 25
0.0410749229518818 0.26726165129912294 -0.2951530771636157 72 46 28
0.041836643244696006 0.2690777816252895 -0.29777459344862856 63 33 15
0.04118040567042991 0.2679256607177348 -0.30096408705838607 65 37 23
0.040120415119418704 0.2659289908496062 -0.3043237411408146 82 64 52
0.039964638312847 0.26582508421172485 -0.3073205042773456 85 69 58
0.04019837923059214 0.26653631801030486 -0.3101579667023647 69 42 33
0.04033948306451983 0.26705370473812656 -0.31303349666986896 63 28 14
0.047523999838556034 0.282524388675157 -0.31584955698865874 73 34 13
0.0478882677939665 0.2835065775979883 -0.3186046132299838 75 37 14
0.04631086906073699 0.2804287815813099 -0.32219765678729917 79 44 22
0.04558832937873555 0.27913912729327783 -0.32543033173099645 80 50 30
0.04493433401277208 0.2779932264309254 -0.3286390856816438 79 52 33
0.041748742199430644 0.2715564695156891 -0.3329755575783121 64 40 30
0.03715451937692897 0.26217773010704704 -0.33796534519169275 35 16 11
0.03274070058567084 0.25317853675203206 -0.34290797901148473 36 17 11
0.03268613503454129 0.25328953792070386 -0.3459043421848739 75 53 39
0.031840542706065074 0.25174818485856626 -0.3492641059904667 64 40 28
0.031910226424870666 0.2521191420192044 -0.3522088705541312 56 32 21
0.03171713693434529 0.2519413473476498 -0.3552763080279738 63 39 29
0.03344193518037693 0.25576865139258215 -0.3574478084247939 51 30 20
0.033612044824503966 0.25634903056455366 -0.36034174903169974 41 23 15
0.0351507618663564 0.25978656023793695 -0.36258454605189294 35 19 11
0.03613626322839439 0.26206856098910325 -0.3650823931377338 36 22 15
0.0366113634876761 0.2632848444133271 -0.3678206053020036 55 39 31
0.037119686946346916 0.26457027718108855 -0.37054025698714654 64 43 34
0.03806307856523529 0.2667633015576166 -0.37304405134544993 63 39 28
0.039001905600211315 0.26894636477720124 -0.3755443123227099 54 26 14
0.0390714766944911 0.269315722000288 -0.37847110553323055 52 24 12
0.037125957059485126 0.2654821868911549 -0.38240784112991705 54 26 12
0.036110463959827185 0.26358932430616366 -0.3858904497218686 55 27 12
0.037524249535537235 0.2667625814042042 -0.3881469703694166 73 44 29
0.039015019088992714 0.2700956461452194 -0.3903548899140207 65 35 20
0.04046064322570505 0.2733338599704283 -0.39257631356708167 62 30 16
0.04120765070611576 0.27511519189996747 -0.3951509004872588 61 28 19
0.04271562533404022 0.27848211082528035 -0.39732337936516615 53 23 14
