ply
format ascii 1.0
element vertex 890
property float x
property float y
property float z
property float nx
property float ny
property float nz
property uchar diffuse_red
property uchar diffuse_green
property uchar diffuse_blue
property uchar class
property uchar detection
end_header
0.1269 0.2590 -0.1966 0.622 0.579 -0.528 59 39 32 0 0
0.1067 0.2332 -0.2829 0.629 0.777 -0.017 56 30 17 0 0
0.1073 0.2343 -0.2857 0.693 0.719 -0.054 55 29 16 0 0
0.0970 0.2222 -0.3544 0.495 0.868 -0.039 46 24 11 0 0
0.1055 0.2363 -0.3905 0.026 0.744 0.668 64 37 28 0 0
0.0883 0.2145 -0.4672 0.501 0.783 -0.369 74 45 28 0 0
0.0878 0.2139 -0.4705 0.591 0.774 -0.225 76 47 30 0 0
0.0874 0.2199 -0.6196 0.652 0.702 0.288 69 33 14 0 0
0.0963 0.2374 -0.7175 0.846 0.491 0.205 56 28 14 0 0
0.0967 0.2381 -0.7204 0.471 0.726 0.502 54 26 13 0 0
0.0975 0.2398 -0.7325 0.759 0.618 0.206 48 20 8 0 0
0.1294 0.2923 -0.8617 0.550 0.835 0.029 93 65 43 0 0
0.1244 0.2883 -0.9380 0.282 0.954 -0.098 45 21 11 0 0
0.1295 0.2967 -0.9586 0.470 0.803 0.367 73 59 49 0 0
0.1303 0.2980 -0.9610 0.535 0.844 0.027 76 62 54 0 0
0.1311 0.2993 -0.9634 0.390 0.768 0.508 78 63 56 0 0
0.1382 0.3102 -0.9756 0.423 0.781 0.460 108 92 85 0 0
0.1412 0.3146 -0.9760 0.758 0.649 0.071 104 89 82 0 0
0.1582 0.3428 -1.0495 0.531 0.848 -0.002 80 53 35 0 0
0.1588 0.3450 -1.0768 0.275 0.956 0.105 60 36 25 0 0
0.1584 0.3444 -1.0804 0.310 0.918 0.247 51 32 24 0 0
0.1563 0.3435 -1.1264 0.657 0.751 0.059 75 48 31 0 0
0.1566 0.3441 -1.1292 0.562 0.758 0.330 75 49 31 0 0
0.1554 0.3441 -1.1682 0.437 -0.208 0.875 188 187 185 0 0
0.0722 0.1603 0.1042 0.836 0.319 0.447 122 90 69 0 0
0.1032 0.2084 0.0446 0.566 0.415 0.713 126 102 90 0 0
0.1152 0.2318 -0.0867 0.620 0.726 0.297 55 21 8 0 0
0.1310 0.2561 -0.1108 0.631 0.751 -0.195 99 67 50 0 0
0.1457 0.2781 -0.1175 0.194 0.881 0.431 144 116 104 0 0
0.1446 0.2768 -0.1260 0.567 0.820 0.080 83 37 10 0 0
0.1474 0.2812 -0.1341 0.680 0.722 0.127 60 24 5 0 0
0.1475 0.2815 -0.1369 0.919 0.365 0.152 61 24 5 0 0
0.1478 0.2821 -0.1396 0.912 0.357 0.204 61 25 6 0 0
0.1406 0.2722 -0.1548 0.613 0.767 -0.191 62 43 36 0 0
0.1411 0.2731 -0.1575 0.562 0.821 -0.097 62 44 37 0 0
0.1316 0.2604 -0.1877 0.783 0.429 -0.451 61 41 34 0 0
0.1307 0.2598 -0.2022 0.514 0.733 0.445 58 38 31 0 0
0.1306 0.2597 -0.2050 -0.151 0.911 -0.385 58 38 31 0 0
0.1210 0.2473 -0.2419 0.293 0.796 -0.530 58 38 29 0 0
0.1194 0.2451 -0.2451 0.468 0.690 -0.552 58 38 29 0 0
0.1186 0.2439 -0.2483 0.590 0.587 -0.555 59 39 30 0 0
0.1110 0.2340 -0.2766 0.573 0.797 -0.191 63 38 26 0 0
0.1114 0.2355 -0.2942 0.290 0.838 0.462 56 33 19 0 0
0.1154 0.2415 -0.2960 0.306 0.905 0.295 56 31 17 0 0
0.1084 0.2328 -0.3336 0.241 0.953 -0.185 54 27 16 0 0
0.1075 0.2316 -0.3369 0.243 0.877 -0.415 33 13 7 0 0
0.1062 0.2299 -0.3403 0.372 0.854 -0.364 26 10 6 0 0
0.1029 0.2252 -0.3444 0.190 0.968 -0.167 43 25 16 0 0
0.1088 0.2359 -0.3902 0.026 0.744 0.668 59 32 22 0 0
0.1311 0.2696 -0.4144 0.653 0.602 0.459 71 31 11 0 0
0.1079 0.2373 -0.4538 0.336 0.332 -0.881 70 38 18 0 0
0.0897 0.2112 -0.4678 0.796 0.368 -0.480 67 37 22 0 0
0.0901 0.2125 -0.4860 0.608 0.785 0.122 49 23 9 0 0
0.0897 0.2121 -0.4893 0.635 0.769 -0.077 47 21 8 0 0
0.0864 0.2089 -0.5280 0.627 0.761 0.165 51 21 10 0 0
0.0896 0.2173 -0.6073 0.691 0.720 0.057 69 34 15 0 0
0.0895 0.2172 -0.6105 0.715 0.695 -0.077 69 34 14 0 0
0.0893 0.2171 -0.6137 0.743 0.636 -0.210 67 32 12 0 0
0.0875 0.2150 -0.6273 0.829 0.553 0.081 66 30 11 0 0
0.0896 0.2189 -0.6449 0.602 0.540 0.588 54 22 9 0 0
0.0894 0.2198 -0.6734 0.609 0.793 0.010 48 20 8 0 0
0.0954 0.2299 -0.7010 0.804 0.425 0.417 50 22 10 0 0
0.1075 0.2506 -0.7681 0.325 0.776 0.541 47 19 7 0 0
0.1250 0.2786 -0.8207 0.633 0.657 0.410 53 25 11 0 0
0.1257 0.2799 -0.8232 0.541 0.841 -0.031 56 28 13 0 0
0.1319 0.2906 -0.8586 0.569 0.810 0.139 87 58 37 0 0
0.1280 0.2883 -0.9370 0.555 0.823 -0.123 46 22 12 0 0
0.1322 0.2955 -0.9616 0.515 0.857 0.010 72 58 50 0 0
0.1574 0.3376 -1.0747 0.285 0.940 0.186 73 48 36 0 0
0.1607 0.3423 -1.0743 0.663 0.649 0.374 67 40 29 0 0
0.1579 0.3396 -1.1055 0.609 0.793 -0.028 60 30 16 0 0
0.0914 0.1841 0.0854 0.117 0.954 0.277 111 82 61 0 0
0.0929 0.1863 0.0824 0.070 0.978 0.194 108 80 61 0 0
0.0941 0.1883 0.0795 0.246 0.965 0.093 107 79 62 0 0
0.0963 0.1916 0.0765 0.564 0.775 0.284 107 79 63 0 0
0.0977 0.1938 0.0735 0.890 0.360 0.280 106 80 65 0 0
0.1002 0.1979 0.0677 0.853 0.368 0.369 114 90 76 0 0
0.1169 0.2295 -0.0926 0.776 0.627 0.064 64 30 15 0 0
0.1489 0.2777 -0.1175 0.257 0.943 0.213 143 113 99 0 0
0.1471 0.2755 -0.1261 0.324 0.925 0.199 88 43 15 0 0
0.1474 0.2761 -0.1289 0.344 0.936 0.070 80 35 7 0 0
0.1153 0.2351 -0.2732 0.566 0.772 0.289 59 35 24 0 0
0.1137 0.2329 -0.2766 0.552 0.834 -0.006 60 35 23 0 0
0.1136 0.2336 -0.2973 0.729 0.453 0.513 53 28 15 0 0
0.1153 0.2364 -0.3057 0.093 0.667 -0.739 73 54 47 0 0
0.1162 0.2382 -0.3142 0.527 0.482 0.700 63 29 10 0 0
0.1114 0.2320 -0.3335 0.224 0.972 0.069 58 30 20 0 0
0.1079 0.2271 -0.3406 0.734 0.418 -0.535 29 12 6 0 0
0.1093 0.2312 -0.3880 0.168 0.905 0.390 61 34 24 0 0
0.1119 0.2351 -0.3901 0.032 0.731 0.682 59 32 21 0 0
0.1365 0.2725 -0.4132 0.531 0.701 0.477 72 33 12 0 0
0.0913 0.2082 -0.4682 0.757 0.456 -0.468 63 34 18 0 0
0.0896 0.2059 -0.4720 0.579 0.757 0.302 58 29 14 0 0
0.0901 0.2067 -0.4749 0.550 0.784 0.289 60 32 18 0 0
0.0905 0.2075 -0.4778 0.600 0.758 0.254 59 31 15 0 0
0.0909 0.2105 -0.5333 0.528 0.831 0.176 50 23 11 0 0
0.0912 0.2110 -0.5362 0.528 0.831 0.176 50 22 9 0 0
0.0918 0.2143 -0.5919 0.746 0.659 -0.096 66 33 14 0 0
0.0926 0.2157 -0.5946 0.683 0.702 -0.204 65 32 13 0 0
0.0910 0.2138 -0.6049 0.599 0.800 0.034 69 34 15 0 0
0.0910 0.2139 -0.6080 0.599 0.800 0.034 69 33 15 0 0
0.0908 0.2137 -0.6112 0.636 0.748 -0.190 67 32 13 0 0
0.0904 0.2132 -0.6146 0.636 0.748 -0.190 67 32 13 0 0
0.0907 0.2140 -0.6207 0.583 0.799 -0.147 68 32 13 0 0
0.0883 0.2106 -0.6252 0.564 0.752 -0.341 67 32 13 0 0
0.0905 0.2164 -0.6838 0.769 0.637 0.063 49 21 9 0 0
0.1004 0.2322 -0.7088 0.541 0.830 0.137 53 26 10 0 0
0.1272 0.2766 -0.8209 0.633 0.657 0.410 53 25 11 0 0
0.1278 0.2776 -0.8235 0.569 0.809 0.147 56 27 12 0 0
0.1344 0.2889 -0.8587 0.569 0.810 0.139 89 59 36 0 0
0.1344 0.2891 -0.8649 0.550 0.835 0.029 90 62 40 0 0
0.1217 0.2725 -0.9133 0.777 0.609 0.156 89 58 32 0 0
0.1216 0.2726 -0.9165 0.655 0.747 0.110 92 63 37 0 0
0.1216 0.2727 -0.9197 0.704 0.695 0.149 93 66 42 0 0
0.1219 0.2733 -0.9226 0.631 0.765 0.132 86 58 37 0 0
0.1224 0.2740 -0.9254 0.573 0.772 0.275 77 50 30 0 0
0.1277 0.2829 -0.9459 0.365 0.895 0.258 43 19 9 0 0
0.1281 0.2835 -0.9487 0.347 0.890 0.297 44 21 12 0 0
0.1348 0.2939 -0.9616 0.412 0.905 0.107 81 67 59 0 0
0.1462 0.3117 -0.9822 0.625 0.730 0.277 109 92 85 0 0
0.1500 0.3178 -0.9942 0.418 0.832 0.364 83 58 47 0 0
0.1638 0.3416 -1.0737 0.796 0.593 -0.121 66 39 28 0 0
0.1579 0.3364 -1.1522 0.808 0.569 0.154 57 47 38 0 0
0.0965 0.1865 0.0823 0.941 0.208 0.268 130 110 98 0 0
0.0967 0.1869 0.0794 0.962 0.254 0.102 129 108 96 0 0
0.0983 0.1896 0.0736 0.914 0.263 0.308 126 107 95 0 0
0.1033 0.1976 0.0590 0.900 0.341 0.273 127 109 99 0 0
0.1035 0.1980 0.0561 0.924 0.222 0.312 124 106 96 0 0
0.1036 0.1983 0.0532 0.946 0.097 0.309 122 104 94 0 0
0.1213 0.2308 -0.0925 0.327 0.800 0.503 63 29 14 0 0
0.1294 0.2432 -0.1031 0.145 0.643 0.752 92 63 50 0 0
0.1347 0.2513 -0.1082 0.558 0.756 -0.342 107 75 62 0 0
0.1350 0.2519 -0.1110 0.682 0.731 0.040 106 73 58 0 0
0.1513 0.2760 -0.1119 0.205 0.966 0.159 125 96 83 0 0
0.1509 0.2755 -0.1148 0.266 0.944 0.196 140 111 99 0 0
0.1510 0.2759 -0.1176 0.382 0.897 0.224 143 111 96 0 0
0.1492 0.2733 -0.1206 0.769 0.551 0.324 130 98 77 0 0
0.1466 0.2708 -0.1519 0.423 0.893 -0.153 59 40 32 0 0
0.1180 0.2334 -0.2644 0.558 0.829 0.031 58 34 24 0 0
0.1196 0.2370 -0.2934 0.481 0.876 0.031 52 29 15 0 0
0.1196 0.2372 -0.2963 -0.106 0.933 0.344 54 29 16 0 0
0.1201 0.2382 -0.3021 -0.293 0.931 -0.219 84 64 58 0 0
0.1138 0.2303 -0.3336 0.667 0.745 -0.006 60 33 24 0 0
0.1123 0.2282 -0.3371 0.619 0.475 -0.626 34 14 8 0 0
0.1098 0.2246 -0.3409 0.701 0.437 -0.564 29 13 5 0 0
0.1081 0.2223 -0.3444 0.698 0.474 -0.537 51 32 21 0 0
0.1099 0.2266 -0.3828 0.562 0.183 0.807 43 20 13 0 0
0.1136 0.2323 -0.3874 -0.141 0.867 0.478 59 32 22 0 0
0.1150 0.2344 -0.3899 0.643 0.560 0.522 56 29 18 0 0
0.0934 0.2059 -0.4685 0.783 0.622 -0.026 68 39 23 0 0
0.0931 0.2057 -0.4747 0.604 0.792 -0.092 59 31 17 0 0
0.0988 0.2152 -0.4999 0.388 0.891 0.234 48 22 10 0 0
0.0925 0.2084 -0.5555 0.567 0.804 0.177 58 26 11 0 0
0.0880 0.2056 -0.6427 -0.037 0.942 0.333 55 25 9 0 0
0.1038 0.2345 -0.7713 -0.215 0.965 -0.153 49 21 9 0 0
0.1222 0.2620 -0.7800 0.732 0.226 -0.643 50 22 10 0 0
0.1273 0.2705 -0.8010 0.385 0.916 -0.110 49 20 11 0 0
0.1269 0.2701 -0.8044 0.496 0.864 -0.084 49 20 12 0 0
0.1295 0.2747 -0.8211 0.842 0.366 0.396 51 23 11 0 0
0.1299 0.2754 -0.8239 0.727 0.671 0.142 52 24 9 0 0
0.1369 0.2874 -0.8618 0.711 0.696 0.097 90 61 37 0 0
0.1379 0.2894 -0.8734 0.206 0.953 0.222 85 57 36 0 0
0.1238 0.2706 -0.9200 0.704 0.695 0.149 91 63 40 0 0
0.1243 0.2714 -0.9227 0.600 0.753 0.271 84 56 35 0 0
0.1248 0.2723 -0.9255 0.573 0.772 0.275 77 50 31 0 0
0.1375 0.2926 -0.9614 0.412 0.905 0.107 79 66 58 0 0
0.1394 0.2955 -0.9627 0.497 0.760 0.418 83 69 61 0 0
0.1475 0.3082 -0.9802 0.381 0.919 0.102 103 86 79 0 0
0.1476 0.3085 -0.9832 0.355 0.929 0.101 101 85 78 0 0
0.1613 0.3295 -1.0012 0.695 0.678 0.240 83 38 10 0 0
0.1594 0.3270 -1.0092 0.430 0.858 0.281 81 34 9 0 0
0.1625 0.3364 -1.1152 0.604 0.781 -0.157 83 55 34 0 0
0.1629 0.3373 -1.1242 0.595 0.799 0.088 82 54 32 0 0
0.1630 0.3376 -1.1272 0.621 0.766 0.169 82 54 32 0 0
0.1642 0.3407 -1.1573 0.398 0.392 0.829 153 151 145 0 0
0.1204 0.2242 -0.0900 0.662 0.744 -0.088 56 23 8 0 0
0.1200 0.2237 -0.0929 0.406 0.911 -0.077 62 28 12 0 0
0.1333 0.2439 -0.1030 0.375 0.727 0.575 100 72 57 0 0
0.1348 0.2462 -0.1057 0.365 0.896 0.254 97 68 53 0 0
0.1370 0.2496 -0.1083 0.558 0.756 -0.342 106 77 62 0 0
0.1377 0.2507 -0.1111 0.587 0.787 0.191 107 78 62 0 0
0.1529 0.2734 -0.1121 0.894 0.314 -0.319 133 105 92 0 0
0.1521 0.2724 -0.1150 0.900 0.433 0.040 140 112 99 0 0
0.1510 0.2710 -0.1207 0.863 0.468 0.188 128 96 76 0 0
0.1519 0.2724 -0.1234 0.369 0.915 0.162 98 58 34 0 0
0.1484 0.2684 -0.1521 0.037 0.873 -0.487 59 40 32 0 0
0.1488 0.2693 -0.1577 0.602 0.790 -0.118 60 43 34 0 0
0.1352 0.2512 -0.2058 0.776 0.617 -0.131 57 37 30 0 0
0.1368 0.2537 -0.2083 0.844 0.328 -0.424 57 37 30 0 0
0.1318 0.2468 -0.2209 0.307 0.940 -0.145 59 39 32 0 0
0.1141 0.2255 -0.3374 0.619 0.475 -0.626 31 13 6 0 0
0.1113 0.2216 -0.3412 0.701 0.437 -0.564 30 14 6 0 0
0.1098 0.2195 -0.3447 0.698 0.435 -0.568 50 30 19 0 0
0.1103 0.2218 -0.3836 0.505 0.037 0.862 43 20 13 0 0
0.1119 0.2245 -0.3891 0.621 0.545 0.564 58 31 22 0 0
0.1147 0.2287 -0.3910 0.849 0.259 0.460 57 30 19 0 0
0.0920 0.1994 -0.4919 0.935 0.349 -0.065 51 25 12 0 0
0.0855 0.1960 -0.6362 0.593 0.757 0.273 56 26 11 0 0
0.1147 0.2444 -0.7529 0.636 0.767 0.089 47 19 7 0 0
0.1146 0.2444 -0.7560 0.518 0.823 0.231 48 20 8 0 0
0.1152 0.2454 -0.7588 0.585 0.717 0.378 48 20 8 0 0
0.1270 0.2656 -0.8220 0.707 0.495 0.505 49 21 10 0 0
0.1315 0.2724 -0.8247 0.878 0.328 0.349 49 21 9 0 0
0.1387 0.2848 -0.8624 0.542 0.839 0.042 90 62 38 0 0
0.1338 0.2792 -0.9009 0.718 0.692 0.076 75 43 22 0 0
0.1257 0.2678 -0.9142 0.335 0.918 0.211 90 58 34 0 0
0.1260 0.2683 -0.9171 0.335 0.918 0.211 98 68 44 0 0
0.1508 0.3079 -0.9826 0.164 0.974 0.154 104 87 80 0 0
0.1634 0.3274 -1.0015 0.695 0.678 0.240 83 37 9 0 0
0.1048 0.1946 -0.0626 0.512 0.358 0.781 79 70 68 0 0
0.1105 0.2033 -0.0680 0.286 0.520 0.804 78 64 61 0 0
0.1192 0.2171 -0.0875 0.685 0.728 -0.024 58 25 10 0 0
0.1224 0.2221 -0.0930 0.662 0.744 -0.088 60 26 11 0 0
0.1356 0.2422 -0.1031 0.453 0.604 0.656 103 75 59 0 0
0.1384 0.2468 -0.1142 0.605 0.792 0.080 129 101 88 0 0
0.1530 0.2688 -0.1209 0.767 0.613 0.190 127 95 74 0 0
0.1544 0.2711 -0.1235 0.489 0.789 0.371 99 60 35 0 0
0.1495 0.2652 -0.1552 0.468 0.845 -0.259 60 41 34 0 0
0.1374 0.2488 -0.1944 0.917 0.374 0.137 61 41 34 0 0
0.1379 0.2497 -0.1972 0.981 0.173 -0.084 60 40 33 0 0
0.1379 0.2499 -0.2000 0.914 0.194 0.355 60 40 33 0 0
0.1384 0.2506 -0.2028 0.810 0.316 0.493 59 39 32 0 0
0.1371 0.2489 -0.2059 0.780 0.545 -0.307 57 37 30 0 0
0.1227 0.2323 -0.3206 0.408 0.704 0.581 67 34 17 0 0
0.1188 0.2271 -0.3337 0.710 0.688 -0.152 53 30 19 0 0
0.1143 0.2218 -0.3681 0.761 0.633 0.140 41 23 13 0 0
0.1143 0.2221 -0.3711 0.753 0.657 0.043 58 35 25 0 0
0.1401 0.2618 -0.4031 0.353 0.888 0.295 76 48 36 0 0
0.1410 0.2634 -0.4086 0.515 0.771 0.374 103 82 69 0 0
0.1416 0.2643 -0.4113 0.515 0.771 0.374 78 47 25 0 0
0.0942 0.1971 -0.4890 0.926 0.262 0.272 53 27 14 0 0
0.0869 0.1927 -0.6402 0.560 0.828 -0.031 53 25 11 0 0
0.1021 0.2165 -0.6657 0.504 0.838 0.208 48 20 8 0 0
0.1059 0.2246 -0.7230 0.567 0.767 0.301 48 20 6 0 0
0.1189 0.2455 -0.7611 0.980 0.153 -0.124 52 21 10 0 0
0.1370 0.2780 -0.8910 0.722 0.641 -0.261 82 52 32 0 0
0.1375 0.2789 -0.8937 0.578 0.759 0.298 82 50 29 0 0
0.1359 0.2767 -0.8982 0.689 0.725 0.008 78 46 25 0 0
0.1360 0.2770 -0.9013 0.718 0.692 0.076 74 42 21 0 0
0.1366 0.2781 -0.9038 0.711 0.701 -0.060 78 46 25 0 0
0.1421 0.2885 -0.9555 0.278 0.861 0.425 71 59 50 0 0
0.1450 0.2930 -0.9623 0.269 0.603 0.751 76 61 54 0 0
0.1574 0.3126 -0.9881 0.427 0.751 0.505 90 71 64 0 0
0.1656 0.3254 -1.0018 0.695 0.678 0.240 84 37 10 0 0
0.1647 0.3244 -1.0089 0.661 0.689 0.298 77 31 9 0 0
0.1687 0.3329 -1.0670 0.535 0.842 0.068 85 59 39 0 0
0.1683 0.3324 -1.0706 0.484 0.864 -0.140 83 58 42 0 0
0.1663 0.3330 -1.1543 0.426 0.904 0.021 95 87 76 0 0
0.1126 0.2012 -0.0681 0.385 0.532 0.754 80 65 65 0 0
0.1210 0.2146 -0.0877 0.881 0.460 -0.112 59 24 11 0 0
0.1385 0.2417 -0.1088 0.345 0.739 0.579 114 86 71 0 0
0.1532 0.2656 -0.1550 0.848 0.315 -0.426 60 43 35 0 0
0.1406 0.2484 -0.1943 0.978 -0.111 -0.176 63 41 35 0 0
0.1374 0.2442 -0.2065 0.839 0.409 -0.359 58 38 31 0 0
0.1363 0.2427 -0.2096 0.629 0.424 -0.651 58 38 31 0 0
0.1348 0.2409 -0.2215 0.462 0.871 -0.169 54 36 28 0 0
0.1199 0.2212 -0.2808 0.660 0.547 0.514 58 34 22 0 0
0.1246 0.2298 -0.3209 0.751 0.606 0.261 70 37 18 0 0
0.1155 0.2182 -0.3656 0.737 0.597 0.317 32 14 10 0 0
0.1444 0.2632 -0.4083 0.758 0.480 0.441 115 94 81 0 0
0.0955 0.1936 -0.4896 0.536 0.830 0.154 52 26 11 0 0
0.0957 0.1940 -0.4926 0.622 0.783 0.014 48 22 9 0 0
0.0968 0.1958 -0.4952 0.608 0.743 0.280 52 26 13 0 0
0.0982 0.1981 -0.4977 0.713 0.634 0.299 54 28 13 0 0
0.0987 0.1989 -0.5005 0.714 0.604 0.354 56 29 14 0 0
0.0989 0.1993 -0.5035 0.786 0.577 0.223 58 30 16 0 0
0.0976 0.1977 -0.5135 0.528 0.813 -0.248 56 28 14 0 0
0.0969 0.1972 -0.5231 0.641 0.741 0.201 56 27 13 0 0
0.0996 0.2016 -0.5342 0.540 0.549 0.638 62 31 14 0 0
0.0967 0.1984 -0.5606 0.330 0.882 0.335 60 29 11 0 0
0.0973 0.2010 -0.6010 0.075 0.947 0.312 69 37 17 0 0
0.1105 0.2262 -0.7280 0.495 0.707 0.505 47 20 7 0 0
0.1390 0.2759 -0.8946 0.717 0.688 -0.110 85 52 32 0 0
0.1315 0.2654 -0.9137 0.379 0.875 0.302 91 60 36 0 0
0.1353 0.2721 -0.9356 0.619 0.755 0.218 46 20 8 0 0
0.1448 0.2874 -0.9616 0.497 0.837 0.227 76 61 54 0 0
0.1665 0.3218 -1.0096 0.524 0.811 0.259 78 35 9 0 0
0.1663 0.3217 -1.0129 0.684 0.728 0.054 68 27 4 0 0
0.1664 0.3224 -1.0252 0.498 0.811 0.308 60 23 5 0 0
0.1722 0.3322 -1.0535 0.636 0.733 0.241 95 67 43 0 0
0.1693 0.3289 -1.0784 0.756 0.652 -0.056 68 42 29 0 0
0.1704 0.3309 -1.0866 0.354 0.797 0.490 29 12 7 0 0
0.1703 0.3309 -1.0898 0.266 0.816 0.513 35 16 8 0 0
0.1700 0.3306 -1.0932 0.546 0.835 0.061 40 17 8 0 0
0.1706 0.3329 -1.1271 0.591 0.803 0.078 94 67 40 0 0
0.1540 0.2618 -0.1582 0.829 0.455 -0.324 61 44 36 0 0
0.1372 0.2382 -0.1955 0.970 -0.240 -0.033 61 42 35 0 0
0.1251 0.2237 -0.2801 0.575 0.781 0.244 59 35 23 0 0
0.1169 0.2149 -0.3661 0.633 0.774 -0.015 43 25 20 0 0
0.1162 0.2144 -0.3753 0.514 0.794 -0.325 49 27 17 0 0
0.0994 0.1941 -0.4921 0.376 0.909 0.180 50 24 11 0 0
0.0995 0.1943 -0.4952 0.451 0.889 0.078 52 26 13 0 0
0.1017 0.1977 -0.4973 0.845 0.534 0.021 55 29 14 0 0
0.1001 0.1955 -0.5011 0.878 0.468 -0.103 56 29 14 0 0
0.1006 0.1968 -0.5133 0.714 0.689 0.120 58 30 16 0 0
0.1003 0.1965 -0.5165 0.628 0.774 0.075 56 28 14 0 0
0.1005 0.1970 -0.5227 0.620 0.763 0.183 59 30 16 0 0
0.1005 0.1972 -0.5258 0.551 0.812 -0.195 63 34 18 0 0
0.1009 0.1981 -0.5349 0.622 0.502 0.601 64 33 16 0 0
0.1007 0.1979 -0.5381 0.725 0.680 0.110 65 34 16 0 0
0.1020 0.2001 -0.5437 0.657 0.665 0.356 61 31 13 0 0
0.0993 0.1977 -0.5826 0.568 0.818 -0.092 70 37 18 0 0
0.1002 0.1999 -0.6008 0.233 0.756 0.612 74 42 22 0 0
0.1008 0.2009 -0.6036 0.306 0.905 -0.296 72 39 20 0 0
0.0952 0.1943 -0.6479 0.535 0.839 -0.096 51 22 9 0 0
0.1451 0.2778 -0.8510 0.664 0.748 0.002 76 34 10 0 0
0.1419 0.2748 -0.8943 0.741 0.671 -0.041 83 49 30 0 0
0.1406 0.2730 -0.8986 0.579 0.812 -0.075 80 48 28 0 0
0.1402 0.2726 -0.9020 0.407 0.890 0.205 73 39 20 0 0
0.1433 0.2791 -0.9465 0.660 0.485 0.573 52 26 16 0 0
0.1468 0.2849 -0.9622 0.772 0.621 0.134 75 60 54 0 0
0.1482 0.2871 -0.9640 0.390 0.707 0.590 76 61 56 0 0
0.1756 0.3313 -1.0370 0.657 0.719 0.225 84 53 32 0 0
0.1711 0.3286 -1.1324 0.490 0.859 0.149 95 67 42 0 0
0.1587 0.2633 -0.1466 0.185 0.982 -0.028 60 36 24 0 0
0.1273 0.2215 -0.2773 0.871 0.490 0.025 59 35 24 0 0
0.1154 0.2050 -0.3104 0.244 0.962 -0.119 77 56 51 0 0
0.1015 0.1916 -0.4893 0.259 0.946 -0.195 54 28 13 0 0
0.1024 0.1934 -0.4982 0.685 0.724 -0.076 55 29 15 0 0
0.1027 0.1947 -0.5198 0.819 0.541 0.193 60 30 16 0 0
0.1029 0.1951 -0.5228 0.731 0.668 0.141 64 34 20 0 0
0.1022 0.1954 -0.5543 0.807 0.590 0.031 67 38 20 0 0
0.1017 0.1968 -0.6046 0.861 0.461 -0.218 72 39 22 0 0
0.1012 0.1962 -0.6081 0.861 0.461 -0.218 71 38 21 0 0
0.1291 0.2458 -0.7906 0.683 0.612 -0.399 47 18 10 0 0
0.1302 0.2474 -0.7930 0.815 0.547 0.193 47 18 9 0 0
0.1322 0.2510 -0.8039 0.004 0.994 0.105 45 20 9 0 0
0.1430 0.2713 -0.9018 0.407 0.890 0.205 75 41 20 0 0
0.1508 0.2856 -0.9639 0.390 0.707 0.590 82 67 62 0 0
0.1767 0.3269 -1.0198 0.684 0.727 0.059 63 26 7 0 0
0.1778 0.3294 -1.0373 0.657 0.719 0.225 84 53 32 0 0
0.1772 0.3288 -1.0441 0.503 0.864 0.025 88 59 34 0 0
0.1776 0.3298 -1.0530 0.406 0.913 0.039 97 69 47 0 0
0.1789 0.3321 -1.0641 0.671 0.739 0.061 89 62 40 0 0
0.1745 0.3284 -1.1346 0.630 0.769 0.109 91 65 41 0 0
0.1281 0.2094 -0.0850 0.693 0.718 -0.069 70 37 23 0 0
0.1604 0.2607 -0.1439 0.655 0.735 0.173 59 30 15 0 0
0.1606 0.2610 -0.1467 0.658 0.749 0.078 59 35 23 0 0
0.1613 0.2622 -0.1494 0.671 0.711 0.212 60 39 30 0 0
0.1579 0.2575 -0.1584 0.684 0.727 0.062 62 45 37 0 0
0.1508 0.2470 -0.1625 0.769 0.632 -0.094 61 44 36 0 0
0.1301 0.2178 -0.2126 0.008 0.966 0.258 58 38 30 0 0
0.1284 0.2154 -0.2159 -0.131 0.991 0.040 56 38 29 0 0
0.1298 0.2176 -0.2185 0.103 0.974 -0.204 53 35 26 0 0
0.1274 0.2164 -0.2780 0.026 0.985 0.171 57 33 23 0 0
0.1227 0.2100 -0.2971 0.274 0.912 -0.306 62 37 24 0 0
0.1213 0.2081 -0.3005 -0.054 0.978 -0.203 49 24 13 0 0
0.1196 0.2060 -0.3130 0.015 0.997 0.080 63 37 25 0 0
0.1360 0.2348 -0.4058 0.787 0.615 -0.049 60 28 16 0 0
0.1045 0.1951 -0.5983 0.665 0.700 0.261 71 40 22 0 0
0.1063 0.1986 -0.6161 0.293 0.955 -0.052 64 31 14 0 0
0.1020 0.1945 -0.6723 0.678 0.657 0.329 52 25 10 0 0
0.1065 0.2031 -0.7170 0.579 0.773 0.259 46 20 7 0 0
0.1076 0.2049 -0.7195 0.105 0.972 -0.210 45 19 6 0 0
0.1210 0.2268 -0.7608 0.619 0.745 0.249 54 25 10 0 0
0.1249 0.2334 -0.7768 0.532 0.526 0.663 48 20 9 0 0
0.1260 0.2355 -0.7854 0.297 0.875 -0.381 47 19 8 0 0
0.1479 0.2705 -0.8373 0.876 0.282 -0.390 56 24 8 0 0
0.1486 0.2726 -0.8617 0.830 0.555 -0.052 88 60 35 0 0
0.1542 0.2853 -0.9631 0.100 0.847 0.522 90 74 68 0 0
0.1703 0.3104 -0.9821 0.560 0.720 0.411 90 73 66 0 0
0.1709 0.3114 -0.9846 0.560 0.720 0.411 94 76 68 0 0
0.1713 0.3121 -0.9874 0.382 0.923 0.051 85 64 54 0 0
0.1718 0.3131 -0.9931 0.510 0.829 -0.228 75 46 30 0 0
0.1789 0.3249 -1.0202 0.684 0.727 0.059 62 24 5 0 0
0.1789 0.3251 -1.0232 0.684 0.727 0.059 67 30 9 0 0
0.1791 0.3255 -1.0261 0.585 0.810 0.032 73 37 15 0 0
0.1791 0.3256 -1.0292 0.616 0.787 -0.007 76 42 20 0 0
0.1789 0.3256 -1.0356 0.600 0.774 0.199 83 51 30 0 0
0.1791 0.3261 -1.0385 0.600 0.774 0.199 84 53 31 0 0
0.1758 0.3249 -1.1328 0.624 0.758 0.189 98 70 46 0 0
0.1769 0.3267 -1.1347 0.467 0.843 0.267 92 66 42 0 0
0.1845 0.3393 -1.1605 0.779 0.620 0.089 186 185 183 0 0
0.1519 0.2414 -0.1143 0.213 0.786 0.580 128 99 84 0 0
0.1341 0.2184 -0.2094 0.255 0.960 0.114 58 38 30 0 0
0.1333 0.2174 -0.2125 0.087 0.993 0.080 58 38 29 0 0
0.1314 0.2168 -0.2688 0.389 0.848 -0.360 60 36 26 0 0
0.1314 0.2169 -0.2717 0.283 0.807 -0.518 59 35 25 0 0
0.1312 0.2169 -0.2777 0.249 0.889 0.385 59 35 25 0 0
0.1245 0.2108 -0.3782 0.873 0.149 0.465 51 27 17 0 0
0.1389 0.2335 -0.3997 0.884 0.467 -0.028 60 31 16 0 0
0.1494 0.2507 -0.4311 0.674 0.735 -0.074 76 42 20 0 0
0.1079 0.1956 -0.6199 0.326 0.900 0.289 65 32 15 0 0
0.1023 0.1896 -0.6802 0.648 0.761 0.037 53 25 11 0 0
0.1037 0.1919 -0.6824 0.791 0.595 -0.139 52 24 10 0 0
0.1125 0.2059 -0.6990 0.716 0.635 -0.290 51 24 9 0 0
0.1126 0.2062 -0.7020 0.737 0.675 0.009 49 23 10 0 0
0.1277 0.2320 -0.7736 0.623 0.641 0.448 49 21 10 0 0
0.1281 0.2332 -0.7890 0.231 0.960 0.155 48 20 9 0 0
0.1289 0.2346 -0.7915 -0.017 0.827 0.563 45 17 6 0 0
0.1509 0.2704 -0.8525 0.612 0.752 -0.245 78 38 12 0 0
0.1503 0.2699 -0.8623 0.770 0.638 -0.022 90 62 37 0 0
0.1724 0.3086 -0.9918 0.919 0.379 0.107 80 56 42 0 0
0.1716 0.3076 -0.9958 0.582 0.676 0.451 76 45 28 0 0
0.1760 0.3146 -1.0070 0.500 0.843 0.200 82 37 9 0 0
0.1811 0.3230 -1.0204 0.547 0.797 0.257 63 24 6 0 0
0.1814 0.3235 -1.0232 0.524 0.835 0.169 65 27 7 0 0
0.1816 0.3242 -1.0323 0.393 0.906 0.158 82 50 29 0 0
0.1820 0.3249 -1.0350 0.407 0.886 0.220 85 54 33 0 0
0.1819 0.3274 -1.0974 0.859 0.488 0.156 62 32 18 0 0
0.1807 0.3258 -1.1050 0.651 0.758 -0.042 82 50 24 0 0
0.1809 0.3286 -1.1645 0.743 0.468 0.478 180 179 177 0 0
0.1514 0.2355 -0.1147 0.867 0.488 0.102 130 101 87 0 0
0.1561 0.2443 -0.1568 0.538 0.842 -0.028 64 47 39 0 0
0.1559 0.2441 -0.1597 0.447 0.560 -0.697 62 46 38 0 0
0.1386 0.2201 -0.2120 0.804 0.494 0.332 58 38 29 0 0
0.1381 0.2194 -0.2150 0.298 0.953 -0.053 56 37 30 0 0
0.1380 0.2193 -0.2179 0.398 0.906 0.145 55 36 29 0 0
0.1368 0.2177 -0.2241 0.864 0.454 -0.218 55 36 29 0 0
0.1342 0.2139 -0.2276 0.522 0.533 -0.666 55 36 29 0 0
0.1370 0.2190 -0.2474 0.501 0.703 0.505 57 37 28 0 0
0.1344 0.2160 -0.2687 -0.016 0.992 -0.126 62 38 28 0 0
0.1342 0.2158 -0.2717 0.036 0.965 -0.259 64 40 30 0 0
0.1335 0.2148 -0.2748 0.216 0.926 -0.309 62 38 28 0 0
0.1338 0.2155 -0.2777 0.449 0.809 0.380 61 37 27 0 0
0.1344 0.2164 -0.2805 0.302 0.936 0.179 61 37 27 0 0
0.1237 0.2015 -0.3133 0.921 -0.011 0.390 64 37 23 0 0
0.1402 0.2302 -0.4002 0.934 0.353 0.049 57 28 15 0 0
0.1531 0.2508 -0.4277 0.095 0.995 0.016 72 35 13 0 0
0.1077 0.1882 -0.5806 0.499 0.794 0.347 67 36 19 0 0
0.1083 0.1907 -0.6212 0.767 0.585 0.266 66 35 20 0 0
0.1071 0.1907 -0.6629 0.448 0.720 0.530 57 29 15 0 0
0.1050 0.1878 -0.6738 0.170 0.957 -0.235 56 28 14 0 0
0.1034 0.1857 -0.6780 0.216 0.923 -0.319 55 27 13 0 0
0.1341 0.2364 -0.7802 0.751 0.661 0.005 49 21 10 0 0
0.1354 0.2388 -0.7886 0.123 0.932 0.340 46 19 8 0 0
0.1479 0.2637 -0.9358 0.655 0.720 0.230 43 17 7 0 0
0.1606 0.2840 -0.9619 0.432 0.752 0.498 88 71 64 0 0
0.1650 0.2912 -0.9702 0.321 0.789 0.524 97 80 73 0 0
0.1735 0.3048 -0.9901 0.772 0.622 -0.129 84 65 54 0 0
0.1543 0.2347 -0.1148 0.688 0.697 0.204 125 95 83 0 0
0.1560 0.2375 -0.1202 0.798 0.599 0.060 127 95 77 0 0
0.1613 0.2457 -0.1252 0.875 0.459 -0.157 87 43 20 0 0
0.1401 0.2174 -0.2210 -0.227 0.973 -0.051 56 37 30 0 0
0.1377 0.2150 -0.2509 0.319 0.932 -0.170 58 38 29 0 0
0.1392 0.2174 -0.2564 0.227 0.914 0.337 59 39 30 0 0
0.1379 0.2160 -0.2714 -0.019 0.963 -0.267 64 40 30 0 0
0.1264 0.2003 -0.3133 0.910 0.411 -0.044 67 38 24 0 0
0.1523 0.2447 -0.4350 0.536 0.782 -0.318 82 50 35 0 0
0.1100 0.1888 -0.6469 0.822 0.523 -0.224 63 35 21 0 0
0.1125 0.1934 -0.6676 0.548 0.655 0.521 60 32 18 0 0
0.1062 0.1843 -0.6811 0.604 0.781 0.159 59 31 17 0 0
0.1110 0.1918 -0.6844 0.760 0.637 0.125 56 28 14 0 0
0.1586 0.2722 -0.8783 0.148 0.988 -0.041 86 58 37 0 0
0.1497 0.2611 -0.9397 0.430 0.898 -0.090 39 17 8 0 0
0.1499 0.2615 -0.9427 0.452 0.852 0.266 39 15 8 0 0
0.1758 0.3029 -0.9903 0.783 0.529 -0.329 88 69 58 0 0
0.1875 0.3226 -1.0344 0.605 0.795 0.043 85 54 33 0 0
0.1574 0.2343 -0.1147 0.388 0.852 0.351 132 102 90 0 0
0.1589 0.2366 -0.1174 0.374 0.849 0.373 135 104 90 0 0
0.1396 0.2119 -0.2364 0.676 0.723 0.145 58 38 31 0 0
0.1292 0.1992 -0.3163 0.906 0.410 0.109 66 30 13 0 0
0.1025 0.1654 -0.4888 0.751 0.629 -0.199 70 43 26 0 0
0.1039 0.1676 -0.4944 0.700 0.707 -0.094 71 44 27 0 0
0.1036 0.1674 -0.4976 0.700 0.707 -0.094 70 43 26 0 0
0.1049 0.1699 -0.5096 0.900 0.407 -0.157 70 44 27 0 0
0.1041 0.1688 -0.5131 0.950 0.312 0.029 72 45 28 0 0
0.1073 0.1746 -0.5366 0.839 0.509 0.192 80 53 34 0 0
0.1156 0.1963 -0.7595 0.932 -0.362 0.009 50 22 10 0 0
0.1491 0.2540 -0.9235 0.569 0.823 0.003 80 53 36 0 0
0.1796 0.3033 -0.9891 0.736 0.628 0.253 88 66 53 0 0
0.1858 0.3134 -1.0046 0.478 0.794 0.376 89 46 14 0 0
0.1864 0.3145 -1.0070 0.406 0.825 0.393 85 41 12 0 0
0.1067 0.1495 -0.0706 -0.234 0.246 0.940 86 70 64 0 0
0.1601 0.2331 -0.1148 0.557 0.802 -0.217 134 104 91 0 0
0.1673 0.2454 -0.1450 0.469 0.821 0.324 64 37 24 0 0
0.1481 0.2190 -0.2234 0.982 -0.190 -0.009 60 40 33 0 0
0.1438 0.2126 -0.2273 0.808 0.527 -0.264 60 40 33 0 0
0.1418 0.2097 -0.2336 0.439 0.793 -0.422 59 39 32 0 0
0.1398 0.2069 -0.2370 0.803 0.596 0.008 59 39 32 0 0
0.1047 0.1629 -0.4827 0.861 0.435 -0.262 75 49 32 0 0
0.1056 0.1645 -0.4886 0.635 0.749 -0.188 74 48 32 0 0
0.1052 0.1640 -0.4919 0.635 0.749 -0.188 73 47 31 0 0
0.1064 0.1660 -0.4945 0.332 0.915 -0.228 71 45 29 0 0
0.1059 0.1653 -0.4978 0.332 0.915 -0.228 68 42 25 0 0
0.1044 0.1667 -0.5900 0.433 0.798 0.420 72 44 28 0 0
0.1044 0.1683 -0.6313 0.881 0.468 0.074 67 39 25 0 0
0.1129 0.1835 -0.6833 0.380 0.869 0.318 61 34 17 0 0
0.1520 0.2528 -0.9200 0.693 0.721 0.016 90 61 44 0 0
0.1518 0.2528 -0.9265 0.560 0.808 0.182 80 52 38 0 0
0.1546 0.2578 -0.9430 0.237 0.957 0.170 44 17 10 0 0
0.1698 0.2827 -0.9823 0.371 0.643 0.670 104 88 80 0 0
0.1897 0.3143 -1.0125 0.512 0.761 0.398 79 37 12 0 0
0.1891 0.3157 -1.0691 0.676 0.695 -0.244 83 56 36 0 0
0.1310 0.1899 -0.2874 0.707 0.373 0.601 61 37 27 0 0
0.1326 0.1957 -0.3711 0.670 0.565 0.482 59 38 33 0 0
0.1337 0.1976 -0.3767 0.827 0.534 0.175 54 31 23 0 0
0.1120 0.1705 -0.5338 0.747 0.522 0.411 81 55 39 0 0
0.1118 0.1703 -0.5370 0.638 0.735 0.231 79 53 36 0 0
0.1123 0.1712 -0.5399 0.722 0.688 0.075 81 56 36 0 0
0.1171 0.1840 -0.6760 0.818 0.104 0.566 62 34 22 0 0
0.1180 0.1879 -0.7424 -0.031 0.832 -0.554 51 23 11 0 0
0.1538 0.2501 -0.9207 0.665 0.719 0.203 88 59 42 0 0
0.1538 0.2508 -0.9366 0.573 0.815 -0.084 42 19 9 0 0
0.1847 0.3004 -0.9889 0.360 0.799 0.482 87 65 54 0 0
0.1905 0.3127 -1.0733 0.463 0.853 -0.240 80 52 38 0 0
0.1312 0.1767 -0.0810 0.609 0.073 0.790 85 62 48 0 0
0.1680 0.2349 -0.1174 0.799 0.589 -0.119 127 97 79 0 0
0.1331 0.1871 -0.2726 0.821 0.526 -0.222 63 39 29 0 0
0.1338 0.1884 -0.2754 0.764 0.645 0.028 63 39 29 0 0
0.1341 0.1890 -0.2783 0.836 0.469 0.283 63 39 29 0 0
0.1320 0.1859 -0.2849 0.866 0.261 0.426 62 38 28 0 0
0.1644 0.2413 -0.4224 0.354 0.883 -0.310 72 33 11 0 0
0.1186 0.1809 -0.6831 -0.129 0.905 0.406 64 36 23 0 0
0.1180 0.1816 -0.7282 0.876 0.363 0.316 58 31 17 0 0
0.1183 0.1824 -0.7344 0.840 0.248 0.483 55 27 14 0 0
0.1190 0.1838 -0.7403 0.045 0.910 -0.413 56 28 16 0 0
0.1183 0.1828 -0.7440 0.043 0.838 -0.544 56 28 16 0 0
0.1178 0.1822 -0.7475 0.071 0.814 -0.576 56 28 16 0 0
0.1091 0.1695 -0.7666 -0.235 0.941 0.242 53 25 13 0 0
0.1122 0.1743 -0.7676 -0.389 0.896 0.213 54 26 14 0 0
0.1274 0.1985 -0.7854 0.860 0.504 -0.076 49 22 10 0 0
0.1604 0.2536 -0.8919 0.560 0.806 0.193 79 51 30 0 0
0.1565 0.2489 -0.9237 0.569 0.823 0.003 80 53 38 0 0
0.1562 0.2489 -0.9367 0.739 0.658 -0.145 41 18 9 0 0
0.1739 0.2775 -0.9675 0.795 0.381 0.473 86 69 61 0 0
0.1761 0.2812 -0.9780 0.670 0.650 0.359 92 75 67 0 0
0.1932 0.3087 -1.0046 0.394 0.864 0.313 89 45 14 0 0
0.1942 0.3102 -1.0067 0.312 0.912 0.265 90 46 15 0 0
0.1941 0.3102 -1.0099 0.432 0.893 0.124 85 40 11 0 0
0.1944 0.3108 -1.0127 0.498 0.853 0.158 81 36 9 0 0
0.1884 0.3049 -1.0972 0.490 0.708 0.508 38 15 8 0 0
0.1947 0.3154 -1.1154 0.458 0.887 0.067 82 53 32 0 0
0.1676 0.2288 -0.1093 0.696 0.604 0.389 109 80 69 0 0
0.1599 0.2192 -0.1705 0.886 -0.168 -0.432 60 43 36 0 0
0.1352 0.1849 -0.2728 0.389 0.869 -0.307 63 39 29 0 0
0.1349 0.1845 -0.2759 0.324 0.945 -0.051 63 39 29 0 0
0.1188 0.1770 -0.7231 0.842 0.436 0.318 63 35 21 0 0
0.1202 0.1794 -0.7253 0.655 0.693 0.302 63 35 21 0 0
0.1193 0.1785 -0.7387 0.351 0.772 0.531 59 31 19 0 0
0.1235 0.1849 -0.7390 0.124 0.947 -0.297 58 30 18 0 0
0.1237 0.1854 -0.7420 0.230 0.842 -0.488 57 29 18 0 0
0.1270 0.1914 -0.7653 -0.330 0.680 0.654 57 29 17 0 0
0.1309 0.1976 -0.7688 0.230 0.765 0.602 59 31 19 0 0
0.1305 0.1971 -0.7723 0.683 0.200 0.702 58 30 18 0 0
0.1318 0.1995 -0.7809 0.821 0.550 0.155 51 23 12 0 0
0.1316 0.1992 -0.7842 0.785 0.620 0.007 51 23 12 0 0
0.1468 0.2245 -0.8297 0.947 0.285 -0.149 53 26 15 0 0
0.1496 0.2292 -0.8401 0.050 0.974 -0.220 53 25 13 0 0
0.1619 0.2504 -0.8928 0.763 0.638 0.105 78 49 31 0 0
0.1612 0.2508 -0.9314 0.471 0.819 0.328 42 19 11 0 0
0.1624 0.2528 -0.9366 0.875 0.464 -0.137 38 18 10 0 0
0.1615 0.2522 -0.9532 0.402 0.644 0.650 62 35 23 0 0
0.1854 0.2907 -0.9932 0.044 0.935 0.353 82 60 44 0 0
0.1924 0.3016 -0.9924 0.806 0.583 0.105 78 44 26 0 0
0.1938 0.3042 -1.0066 0.628 0.593 0.504 87 42 16 0 0
0.1959 0.3078 -1.0137 0.587 0.805 0.090 82 38 11 0 0
0.1967 0.3091 -1.0160 0.670 0.655 0.348 79 35 10 0 0
0.1045 0.1237 -0.0658 -0.028 0.625 0.780 96 87 85 0 0
0.1161 0.1421 -0.0739 0.673 0.740 -0.016 87 68 56 0 0
0.1361 0.1797 -0.2434 0.213 0.972 0.094 64 43 35 0 0
0.1368 0.1810 -0.2462 0.410 0.897 0.163 66 42 34 0 0
0.1385 0.1837 -0.2488 0.264 0.934 -0.239 68 44 35 0 0
0.1411 0.1878 -0.2511 0.514 0.790 -0.334 68 46 35 0 0
0.1354 0.1797 -0.2705 0.624 0.611 -0.488 65 41 31 0 0
0.1375 0.1830 -0.2729 0.473 0.878 -0.073 64 40 30 0 0
0.1372 0.1827 -0.2760 0.361 0.914 0.185 65 41 31 0 0
0.1374 0.1830 -0.2789 0.337 0.831 0.443 66 42 32 0 0
0.1223 0.1624 -0.3532 0.781 0.454 0.428 76 53 40 0 0
0.0970 0.1281 -0.4785 0.967 0.155 -0.202 111 99 92 0 0
0.1267 0.1830 -0.7067 0.959 0.049 0.278 67 39 25 0 0
0.1193 0.1721 -0.7213 0.468 0.835 -0.288 66 38 24 0 0
0.1213 0.1753 -0.7264 0.864 0.500 0.051 65 37 23 0 0
0.1229 0.1778 -0.7285 0.563 0.776 0.284 65 38 24 0 0
0.1257 0.1827 -0.7393 0.081 0.994 -0.077 61 34 22 0 0
0.1348 0.1981 -0.7710 0.230 0.765 0.602 61 34 23 0 0
0.1652 0.2498 -0.8890 0.615 0.782 0.105 80 53 34 0 0
0.1685 0.2576 -0.9586 0.365 0.597 0.714 80 63 55 0 0
0.1770 0.2713 -0.9694 0.687 0.517 0.510 87 70 62 0 0
0.1779 0.2728 -0.9716 0.709 0.467 0.529 86 68 60 0 0
0.1780 0.2730 -0.9747 0.863 0.495 0.099 86 68 60 0 0
0.1949 0.3041 -1.0987 0.389 0.903 0.185 40 15 6 0 0
0.1997 0.3128 -1.1343 0.437 0.900 0.012 84 59 39 0 0
0.2021 0.3167 -1.1346 0.801 0.432 0.415 81 56 37 0 0
0.1079 0.1235 -0.0658 0.122 0.559 0.820 102 93 91 0 0
0.1182 0.1398 -0.0740 0.699 0.670 -0.248 85 66 52 0 0
0.1392 0.1789 -0.2404 0.472 0.749 -0.465 66 46 37 0 0
0.1354 0.1747 -0.2863 0.799 0.499 -0.336 69 45 35 0 0
0.1347 0.1739 -0.2925 0.871 0.387 -0.302 68 44 34 0 0
0.0940 0.1188 -0.5098 0.930 -0.367 0.040 151 146 143 0 0
0.1018 0.1347 -0.6086 0.977 -0.197 -0.086 108 92 83 0 0
0.1198 0.1671 -0.7228 0.339 0.902 -0.266 67 39 26 0 0
0.1225 0.1714 -0.7241 0.474 0.863 0.173 67 39 25 0 0
0.1247 0.1754 -0.7387 0.985 0.158 -0.069 65 39 26 0 0
0.1189 0.1674 -0.7653 0.853 0.386 0.352 58 34 24 0 0
0.1340 0.1907 -0.7608 -0.217 0.871 0.440 58 34 24 0 0
0.1369 0.1953 -0.7618 0.029 0.861 0.508 60 36 26 0 0
0.1381 0.1973 -0.7642 0.021 0.736 0.676 63 39 29 0 0
0.1672 0.2474 -0.8895 0.722 0.678 0.134 81 54 35 0 0
0.1665 0.2465 -0.8932 0.774 0.633 -0.003 79 50 32 0 0
0.1653 0.2452 -0.9101 0.310 0.946 -0.094 92 64 40 0 0
0.1549 0.2304 -0.9483 0.893 0.415 0.176 36 16 8 0 0
0.1773 0.2660 -0.9653 0.420 0.760 0.495 83 66 58 0 0
0.1800 0.2705 -0.9721 0.738 0.487 0.466 88 70 63 0 0
0.1956 0.2957 -0.9942 0.709 0.705 0.015 79 43 21 0 0
0.1947 0.2944 -0.9982 0.632 0.774 0.035 76 33 9 0 0
0.2007 0.3048 -1.0232 0.499 0.859 0.119 76 33 7 0 0
0.2000 0.3038 -1.0270 0.511 0.857 0.065 73 31 6 0 0
0.2029 0.3123 -1.1335 0.592 0.804 0.053 84 59 39 0 0
0.1190 0.1354 -0.0713 0.563 0.102 0.820 99 83 76 0 0
0.1203 0.1376 -0.0741 0.699 0.670 -0.248 84 65 51 0 0
0.1555 0.1970 -0.1903 0.148 0.966 0.211 64 47 39 0 0
0.1542 0.1953 -0.1964 0.388 0.918 0.086 64 47 39 0 0
0.1448 0.1822 -0.2397 0.010 0.996 -0.086 70 48 40 0 0
0.1416 0.1773 -0.2434 0.240 0.962 -0.130 71 48 39 0 0
0.1420 0.1780 -0.2463 0.633 0.715 -0.296 71 48 39 0 0
0.1368 0.1715 -0.2896 0.965 0.185 -0.187 71 47 36 0 0
0.1421 0.1840 -0.3997 0.854 -0.221 0.471 68 43 34 0 0
0.0952 0.1177 -0.5880 0.943 -0.332 0.037 164 160 159 0 0
0.0957 0.1186 -0.5909 0.947 -0.322 0.017 164 158 157 0 0
0.0959 0.1191 -0.5940 0.958 -0.285 0.022 161 156 155 0 0
0.1234 0.1669 -0.7189 0.868 0.494 -0.057 70 43 31 0 0
0.1231 0.1665 -0.7224 0.454 0.803 -0.385 68 41 28 0 0
0.1218 0.1649 -0.7329 -0.026 0.454 0.891 68 41 28 0 0
0.1449 0.2034 -0.7960 0.769 0.455 0.448 58 33 22 0 0
0.1550 0.2205 -0.8325 0.612 0.733 0.296 63 37 26 0 0
0.1803 0.2655 -0.9743 0.864 0.383 0.326 89 69 62 0 0
0.1976 0.2934 -0.9947 0.720 0.693 0.048 73 34 13 0 0
0.1972 0.2929 -0.9982 0.293 0.944 0.151 69 27 4 0 0
0.2053 0.3106 -1.1336 0.592 0.804 0.053 83 57 38 0 0
0.2036 0.3081 -1.1387 0.554 0.800 -0.231 82 56 37 0 0
0.1993 0.3019 -1.1532 0.457 0.837 -0.300 63 45 32 0 0
0.1170 0.1266 -0.0687 0.624 0.084 0.777 116 105 100 0 0
0.1198 0.1311 -0.0715 0.624 0.084 0.777 105 89 82 0 0
0.1214 0.1336 -0.0743 0.881 0.402 -0.251 89 69 57 0 0
0.1598 0.1983 -0.1900 -0.132 0.720 0.681 65 48 40 0 0
0.1588 0.1968 -0.1931 -0.308 0.945 0.108 65 48 40 0 0
0.1627 0.2031 -0.1952 0.264 0.955 0.132 65 48 40 0 0
0.1615 0.2249 -0.8293 0.486 0.400 0.777 64 39 29 0 0
0.1712 0.2422 -0.8842 0.705 0.686 -0.180 88 61 42 0 0
0.1643 0.2337 -0.9443 0.682 0.693 0.235 39 18 11 0 0
0.1847 0.2666 -0.9693 0.342 0.771 0.538 87 67 60 0 0
0.1996 0.2908 -0.9889 0.983 0.175 0.052 78 47 33 0 0
0.2000 0.2916 -0.9948 0.538 0.824 0.175 72 32 10 0 0
0.2043 0.2996 -1.0277 0.524 0.832 0.181 81 40 13 0 0
0.2062 0.3067 -1.1385 0.708 0.699 -0.098 84 57 38 0 0
0.2019 0.3005 -1.1530 0.457 0.837 -0.300 65 46 34 0 0
0.1165 0.1203 -0.0690 0.779 0.253 0.574 118 108 105 0 0
0.1631 0.1982 -0.1928 -0.308 0.945 0.108 65 48 41 0 0
0.1409 0.1663 -0.2750 0.954 0.275 -0.123 73 53 46 0 0
0.1350 0.1609 -0.3801 0.675 0.711 0.200 66 46 37 0 0
0.1464 0.1795 -0.3971 0.393 0.063 0.917 61 37 27 0 0
0.0993 0.1154 -0.6669 0.899 -0.413 0.143 167 165 164 0 0
0.1006 0.1174 -0.6693 0.903 -0.399 0.156 152 149 148 0 0
0.1308 0.1672 -0.7272 0.928 -0.146 0.341 71 45 34 0 0
0.1517 0.2037 -0.8267 0.274 0.190 0.943 63 40 29 0 0
0.1665 0.2315 -0.9447 0.751 0.502 0.428 42 21 13 0 0
0.1894 0.2689 -0.9797 0.281 0.873 0.399 100 80 71 0 0
0.2016 0.2887 -0.9957 0.703 0.700 -0.126 77 35 11 0 0
0.2023 0.2898 -0.9981 0.491 0.854 0.173 78 34 8 0 0
0.2062 0.2972 -1.0315 0.678 0.734 -0.038 89 51 21 0 0
0.2084 0.3016 -1.0540 0.642 0.765 0.055 90 58 35 0 0
0.2058 0.2980 -1.0694 0.679 0.729 -0.088 91 63 41 0 0
0.2074 0.3022 -1.1116 0.565 0.824 -0.045 77 41 23 0 0
0.2088 0.3052 -1.1352 0.739 0.673 0.035 84 56 37 0 0
0.1806 0.2185 -0.1412 0.748 0.632 0.204 72 40 23 0 0
0.1822 0.2212 -0.1438 0.564 0.707 0.427 69 40 25 0 0
0.1798 0.2175 -0.1470 0.618 0.719 0.319 67 43 30 0 0
0.1700 0.2035 -0.1891 0.260 0.532 0.806 67 49 44 0 0
0.1674 0.1995 -0.1925 -0.297 0.949 0.106 66 48 43 0 0
0.1348 0.1503 -0.2532 0.857 0.125 -0.499 76 56 48 0 0
0.1356 0.1516 -0.2560 0.960 -0.015 -0.280 76 57 50 0 0
0.1347 0.1520 -0.3047 0.881 0.156 -0.447 74 52 41 0 0
0.1387 0.1613 -0.3858 0.987 0.158 0.037 71 51 44 0 0
0.0999 0.1109 -0.6813 0.896 -0.404 0.184 180 179 181 0 0
0.1315 0.1626 -0.7317 0.928 -0.117 0.355 73 48 36 0 0
0.1465 0.1883 -0.7816 0.484 0.868 -0.109 66 44 35 0 0
0.1740 0.2355 -0.8862 0.192 0.976 0.100 85 58 39 0 0
0.1744 0.2362 -0.8890 0.433 0.897 -0.092 80 52 34 0 0
0.1709 0.2336 -0.9653 0.360 0.898 -0.255 75 58 51 0 0
0.2107 0.2989 -1.0324 0.675 0.676 0.294 94 56 31 0 0
0.2079 0.2958 -1.0667 0.738 0.675 -0.020 97 66 43 0 0
0.2079 0.2958 -1.0699 0.738 0.675 -0.020 96 66 44 0 0
0.2099 0.3007 -1.1180 0.471 0.882 0.018 76 46 31 0 0
0.2081 0.2993 -1.1548 0.640 0.691 -0.335 94 83 71 0 0
0.1820 0.2156 -0.1471 0.618 0.719 0.319 67 43 29 0 0
0.1637 0.1883 -0.1938 0.801 0.419 -0.427 66 49 41 0 0
0.1633 0.1878 -0.1968 0.126 0.965 -0.230 66 49 42 0 0
0.1529 0.1723 -0.2285 0.980 0.099 -0.172 72 54 44 0 0
0.1388 0.1508 -0.2498 0.842 0.061 -0.536 77 60 50 0 0
0.1764 0.2337 -0.8895 0.692 0.697 0.187 82 53 37 0 0
0.1715 0.2265 -0.9034 0.685 0.651 0.327 70 38 18 0 0
0.1751 0.2330 -0.9255 0.586 0.810 0.001 63 41 30 0 0
0.2092 0.2902 -1.0117 0.835 0.528 0.158 81 36 7 0 0
0.2099 0.2914 -1.0141 0.713 0.636 0.293 81 36 7 0 0
0.2129 0.2969 -1.0327 0.675 0.676 0.294 100 63 37 0 0
0.2123 0.2964 -1.0458 0.580 0.767 0.275 105 69 42 0 0
0.2122 0.2964 -1.0491 0.671 0.740 0.044 101 66 39 0 0
0.2104 0.2942 -1.0667 0.534 0.844 -0.057 100 67 42 0 0
0.2032 0.2840 -1.1032 0.974 0.225 0.036 59 27 11 0 0
0.2110 0.2981 -1.1479 0.797 0.597 0.094 65 46 31 0 0
0.1266 0.1201 -0.0930 0.797 0.573 0.191 91 73 64 0 0
0.1269 0.1207 -0.0960 0.797 0.573 0.191 90 72 63 0 0
0.1643 0.1839 -0.1971 -0.174 0.972 -0.158 69 52 45 0 0
0.1445 0.1724 -0.7519 0.826 -0.256 0.502 70 46 35 0 0
0.1493 0.1811 -0.7836 0.649 0.751 0.120 69 47 36 0 0
0.1778 0.2291 -0.8558 0.915 0.383 0.127 86 50 24 0 0
0.2145 0.2944 -1.0493 0.671 0.740 0.044 114 79 49 0 0
0.2060 0.2829 -1.1028 0.697 0.706 0.125 58 26 9 0 0
0.2150 0.2986 -1.1399 0.884 0.450 -0.127 85 58 40 0 0
0.2141 0.2972 -1.1441 0.845 0.528 0.085 78 54 38 0 0
0.2141 0.2974 -1.1472 0.863 0.485 0.142 63 46 30 0 0
0.1281 0.1168 -0.0902 0.754 0.634 0.173 96 81 75 0 0
0.1284 0.1173 -0.0931 0.754 0.634 0.173 95 80 74 0 0
0.1286 0.1178 -0.0961 0.786 0.596 0.163 95 79 72 0 0
0.1849 0.2094 -0.1476 0.072 0.906 0.417 67 45 31 0 0
0.1346 0.1353 -0.3195 0.988 0.094 0.122 88 63 49 0 0
0.1093 0.1095 -0.7233 0.896 -0.341 0.285 127 124 122 0 0
0.1394 0.1591 -0.7705 0.386 0.892 0.235 66 44 34 0 0
0.1397 0.1597 -0.7735 0.386 0.892 0.235 66 43 35 0 0
0.1520 0.1797 -0.7835 0.865 0.476 0.157 69 47 36 0 0
0.1540 0.1829 -0.7852 0.372 0.816 -0.443 68 46 35 0 0
0.1600 0.1931 -0.7996 0.021 0.606 -0.795 72 50 39 0 0
0.1752 0.2231 -0.9622 0.829 0.426 -0.363 77 60 54 0 0
0.2147 0.2887 -1.0330 0.576 0.815 0.059 99 61 33 0 0
0.2164 0.2917 -1.0405 0.544 0.838 -0.047 103 67 39 0 0
0.2162 0.2919 -1.0564 0.542 0.840 -0.030 114 81 49 0 0
0.2153 0.2908 -1.0669 0.710 0.693 -0.128 106 74 47 0 0
0.2166 0.2955 -1.1410 0.802 0.597 0.029 87 59 42 0 0
0.2156 0.2942 -1.1452 0.785 0.546 0.291 76 51 37 0 0
0.2159 0.2946 -1.1481 0.863 0.485 0.142 64 47 31 0 0
0.2153 0.2939 -1.1520 0.824 0.563 -0.062 79 67 52 0 0
0.1621 0.1696 -0.2046 0.845 -0.012 -0.535 72 55 48 0 0
0.1288 0.1228 -0.3906 0.140 0.664 0.735 74 62 60 0 0
0.1777 0.2025 -0.4319 0.867 0.438 -0.237 83 51 31 0 0
0.1562 0.1812 -0.8015 0.534 0.471 -0.702 70 49 40 0 0
0.1527 0.1759 -0.8107 0.440 0.427 -0.790 70 50 41 0 0
0.1470 0.1680 -0.8443 0.880 -0.465 0.095 79 59 52 0 0
0.2190 0.2897 -1.0280 0.725 0.616 0.307 95 54 22 0 0
0.2171 0.2870 -1.0331 0.581 0.806 0.111 99 62 31 0 0
0.2172 0.2872 -1.0361 0.603 0.767 0.219 103 66 37 0 0
0.2178 0.2922 -1.1488 0.752 0.638 0.166 69 52 36 0 0
0.2180 0.2926 -1.1517 0.752 0.624 0.212 85 74 59 0 0
0.1325 0.1127 -0.0964 0.825 0.520 0.221 103 85 80 0 0
0.1529 0.1456 -0.1032 0.174 0.152 0.973 111 89 78 0 0
0.1577 0.1534 -0.1056 0.022 0.221 0.975 111 85 73 0 0
0.1887 0.2050 -0.1565 0.888 -0.055 -0.457 76 58 53 0 0
0.1851 0.1994 -0.1599 0.778 0.039 -0.627 74 59 54 0 0
0.1313 0.1210 -0.3906 0.348 0.470 0.811 72 62 60 0 0
0.1783 0.1980 -0.4297 0.881 0.439 0.176 85 50 29 0 0
0.1782 0.1979 -0.4328 0.863 0.394 0.315 86 56 36 0 0
0.1148 0.1071 -0.7464 0.868 -0.368 0.333 101 92 89 0 0
0.1626 0.1858 -0.8017 0.816 0.024 -0.577 70 50 41 0 0
0.1704 0.2039 -0.9620 0.960 0.020 -0.278 73 56 48 0 0
0.2216 0.2884 -1.0278 0.452 0.852 0.263 100 59 27 0 0
0.2199 0.2899 -1.1460 0.754 0.653 0.077 74 53 38 0 0
0.2201 0.2904 -1.1522 0.754 0.653 0.077 91 80 66 0 0
0.2182 0.2876 -1.1576 0.761 0.635 0.134 124 119 109 0 0
0.2186 0.2883 -1.1603 0.758 0.547 -0.356 155 151 146 0 0
0.1504 0.1359 -0.1008 0.255 0.143 0.956 110 91 83 0 0
0.1551 0.1436 -0.1033 0.160 0.182 0.970 112 91 82 0 0
0.1900 0.2006 -0.1252 0.583 0.213 0.784 105 72 48 0 0
0.1851 0.1939 -0.1604 0.750 0.075 -0.657 75 60 55 0 0
0.1820 0.1891 -0.1638 0.818 0.020 -0.575 71 56 51 0 0
0.1317 0.1136 -0.3230 0.740 0.551 0.386 109 98 94 0 0
0.1326 0.1151 -0.3258 0.550 0.619 0.560 110 102 96 0 0
0.1337 0.1191 -0.3908 0.312 0.487 0.816 80 69 69 0 0
0.1121 0.0968 -0.7502 0.862 -0.370 0.347 145 143 142 0 0
0.1168 0.1043 -0.7535 0.874 -0.366 0.320 103 93 88 0 0
0.1814 0.2155 -0.9540 -0.410 0.871 0.271 74 57 50 0 0
0.1827 0.2176 -0.9560 -0.066 0.989 0.130 73 56 49 0 0
0.1836 0.2192 -0.9583 0.005 0.850 0.526 73 56 49 0 0
0.2224 0.2845 -1.0358 0.690 0.672 0.270 103 66 39 0 0
0.2131 0.2716 -1.0966 0.521 0.842 -0.140 55 25 10 0 0
0.2224 0.2881 -1.1429 0.613 0.784 0.096 89 62 45 0 0
0.1373 0.1090 -0.0996 0.824 0.400 0.401 114 99 93 0 0
0.1512 0.1315 -0.1011 0.305 0.149 0.941 109 91 84 0 0
0.1585 0.1434 -0.1033 0.291 0.063 0.955 113 93 85 0 0
0.1852 0.1875 -0.1262 0.847 -0.269 0.458 108 75 51 0 0
0.1346 0.1124 -0.3230 -0.311 0.851 0.424 159 156 158 0 0
0.1387 0.1215 -0.3930 0.189 0.158 0.969 80 69 66 0 0
0.1713 0.1760 -0.4472 0.638 0.034 -0.770 117 105 101 0 0
0.1160 0.0973 -0.7594 0.879 -0.359 0.314 129 121 120 0 0
0.1776 0.2025 -0.9247 0.694 0.708 0.130 98 71 52 0 0
0.1783 0.2039 -0.9305 0.605 0.796 0.014 75 50 39 0 0
0.1820 0.2110 -0.9656 0.974 -0.016 -0.228 75 58 51 0 0
0.2265 0.2887 -1.1283 0.583 0.784 0.214 97 66 38 0 0
0.2266 0.2889 -1.1346 0.419 0.906 -0.068 92 61 36 0 0
0.2245 0.2860 -1.1466 0.740 0.638 -0.212 69 48 34 0 0
0.2233 0.2845 -1.1575 0.618 0.248 0.746 139 133 125 0 0
0.1564 0.1343 -0.1009 0.476 -0.074 0.877 112 93 89 0 0
0.1620 0.1435 -0.1032 0.364 0.019 0.931 113 94 87 0 0
0.1900 0.1898 -0.1260 0.915 0.024 0.404 105 71 46 0 0
0.1702 0.1678 -0.4275 0.872 0.464 0.157 81 49 28 0 0
0.1813 0.1862 -0.4379 0.861 -0.006 -0.508 98 75 66 0 0
0.1694 0.1672 -0.4493 0.638 0.034 -0.769 139 131 129 0 0
0.1519 0.1505 -0.7937 0.834 -0.428 0.349 71 52 40 0 0
0.1795 0.1999 -0.9286 0.501 0.860 -0.096 85 59 43 0 0
0.1797 0.2015 -0.9671 0.707 -0.082 0.703 76 59 52 0 0
0.2208 0.2701 -1.0210 0.433 0.830 0.351 87 40 12 0 0
0.2179 0.2677 -1.0905 0.374 0.912 -0.166 53 24 11 0 0
0.2177 0.2674 -1.0940 0.186 0.951 0.247 54 25 12 0 0
0.2253 0.2819 -1.1550 0.930 0.340 0.136 114 104 94 0 0
0.2243 0.2805 -1.1626 0.826 0.413 -0.383 166 161 159 0 0
0.1568 0.1293 -0.1012 0.536 -0.084 0.840 116 99 94 0 0
0.1629 0.1393 -0.1035 0.364 0.019 0.931 110 91 84 0 0
0.1740 0.1576 -0.1081 0.452 0.116 0.885 116 91 81 0 0
0.1509 0.1296 -0.3966 0.478 0.116 0.871 83 72 68 0 0
0.1681 0.1578 -0.4021 0.930 -0.043 0.365 87 71 64 0 0
0.1816 0.1806 -0.4268 0.400 0.904 0.149 88 56 35 0 0
0.1767 0.1733 -0.4441 0.775 -0.045 -0.631 118 103 97 0 0
0.1821 0.1983 -0.9286 0.720 0.694 -0.033 85 59 44 0 0
0.1836 0.2010 -0.9368 0.223 0.974 0.046 60 37 27 0 0
0.1772 0.1912 -0.9525 0.321 0.773 -0.547 67 42 35 0 0
0.1799 0.1958 -0.9596 0.087 0.796 -0.599 76 59 52 0 0
0.1791 0.1947 -0.9669 0.916 -0.087 0.392 77 60 53 0 0
0.2188 0.2603 -0.9975 0.464 0.886 0.006 97 64 40 0 0
0.2187 0.2604 -1.0007 0.464 0.886 0.006 100 63 33 0 0
0.2230 0.2678 -1.0182 0.600 0.800 0.002 83 37 9 0 0
0.2200 0.2655 -1.0910 0.740 0.647 0.185 48 20 8 0 0
0.2275 0.2796 -1.1490 0.810 0.506 -0.297 72 55 40 0 0
0.1570 0.1240 -0.1015 0.475 -0.078 0.876 121 105 100 0 0
0.1622 0.1325 -0.1039 0.491 -0.050 0.870 109 92 84 0 0
0.1890 0.1767 -0.1154 0.889 -0.143 0.435 111 77 56 0 0
0.1688 0.1458 -0.1800 0.888 -0.069 -0.456 82 71 67 0 0
0.1533 0.1277 -0.3967 0.456 0.032 0.890 80 69 65 0 0
0.1640 0.1454 -0.4017 0.574 0.133 0.808 85 70 65 0 0
0.1785 0.1698 -0.4263 0.769 0.608 0.197 88 57 36 0 0
0.1853 0.1809 -0.4263 0.471 0.878 -0.086 88 57 36 0 0
0.1849 0.1805 -0.4295 0.680 0.719 0.144 93 65 44 0 0
0.1793 0.1717 -0.4411 0.831 -0.068 -0.552 109 91 84 0 0
0.1701 0.1569 -0.4482 0.952 -0.052 -0.302 132 121 118 0 0
0.1593 0.1506 -0.7889 0.544 -0.175 0.821 78 58 45 0 0
0.1510 0.1375 -0.8051 0.657 -0.166 0.735 75 52 42 0 0
0.1714 0.1715 -0.8244 0.715 0.681 -0.154 71 52 43 0 0
0.1721 0.1729 -0.8302 0.527 0.744 -0.410 72 51 40 0 0
0.1705 0.1704 -0.8348 0.441 0.848 0.296 72 50 39 0 0
0.1906 0.2039 -0.8561 0.503 0.577 0.643 89 57 33 0 0
0.1783 0.1863 -0.9280 0.547 0.771 0.326 92 66 51 0 0
0.1819 0.1922 -0.9312 0.790 0.593 0.156 78 52 37 0 0
0.1864 0.1998 -0.9366 0.566 0.753 -0.337 62 40 28 0 0
0.1776 0.1863 -0.9677 0.333 0.592 -0.734 78 61 54 0 0
0.1841 0.1969 -0.9646 0.319 0.933 -0.167 77 60 53 0 0
0.1960 0.2175 -1.0012 0.124 0.720 -0.683 81 61 52 0 0
0.2249 0.2702 -1.1647 0.887 0.162 0.432 155 151 148 0 0
0.1567 0.1177 -0.1019 0.475 -0.078 0.876 124 108 102 0 0
0.1626 0.1274 -0.1042 0.499 -0.085 0.862 115 98 90 0 0
0.1899 0.1728 -0.1214 0.992 -0.097 -0.081 106 71 46 0 0
0.1549 0.1245 -0.3972 0.389 0.094 0.917 91 79 74 0 0
0.1600 0.1328 -0.3983 0.499 -0.079 0.863 85 73 70 0 0
0.1656 0.1422 -0.4022 0.747 -0.041 0.663 83 69 63 0 0
0.1692 0.1497 -0.4498 0.950 -0.057 -0.306 160 154 153 0 0
0.1545 0.1372 -0.8044 0.755 -0.346 0.557 77 54 44 0 0
0.1723 0.1674 -0.8355 0.086 0.930 0.358 74 50 40 0 0
0.1864 0.1948 -0.9649 0.902 -0.283 0.327 77 59 53 0 0
0.2008 0.2185 -0.9669 0.163 0.905 -0.392 80 61 55 0 0
0.1997 0.2168 -0.9712 0.163 0.905 -0.392 81 62 55 0 0
0.2011 0.2192 -0.9730 0.464 0.879 -0.108 80 61 54 0 0
0.1980 0.2145 -0.9857 0.343 0.927 -0.151 82 62 55 0 0
0.2266 0.2626 -1.0228 0.765 0.627 0.146 73 29 6 0 0
0.2305 0.2703 -1.0626 0.826 0.556 -0.095 104 74 48 0 0
0.1689 0.1321 -0.1039 0.481 -0.171 0.860 117 100 92 0 0
0.1921 0.1712 -0.1331 0.953 0.062 0.296 85 50 27 0 0
0.1918 0.1708 -0.1360 0.987 0.057 -0.153 84 49 26 0 0
0.1632 0.1324 -0.4011 0.698 -0.052 0.715 89 79 73 0 0
0.1749 0.1531 -0.4454 0.831 -0.068 -0.552 134 124 120 0 0
0.1696 0.1446 -0.4509 0.948 -0.068 -0.311 179 177 176 0 0
0.1610 0.1307 -0.4579 0.741 -0.058 -0.669 181 181 182 0 0
0.1609 0.1416 -0.8015 0.860 0.038 0.509 77 56 46 0 0
0.1578 0.1369 -0.8104 0.734 -0.240 0.635 79 57 46 0 0
0.1742 0.1686 -0.9596 0.611 0.790 -0.045 71 48 37 0 0
0.2073 0.2234 -0.9694 -0.130 0.985 -0.110 80 61 53 0 0
0.1999 0.2122 -0.9992 -0.030 0.852 -0.523 92 71 59 0 0
0.1977 0.2088 -1.0047 -0.030 0.852 -0.523 91 69 58 0 0
0.2286 0.2602 -1.0233 0.507 0.862 0.011 72 29 7 0 0
0.2297 0.2623 -1.0316 0.407 0.846 0.344 88 46 16 0 0
0.2323 0.2676 -1.0666 0.561 0.827 0.025 96 67 46 0 0
0.1945 0.1696 -0.1332 0.990 -0.080 0.113 94 59 37 0 0
0.1950 0.1706 -0.1360 0.936 0.115 -0.332 89 56 35 0 0
0.1946 0.1700 -0.1390 0.771 0.290 -0.568 88 58 38 0 0
0.1636 0.1273 -0.4021 0.779 -0.070 0.624 89 76 70 0 0
0.1667 0.1325 -0.4039 0.909 -0.193 0.369 87 70 63 0 0
0.1760 0.1481 -0.4154 -0.247 0.647 0.722 82 53 39 0 0
0.1811 0.1565 -0.4164 0.359 0.439 0.824 82 53 37 0 0
0.1683 0.1366 -0.4527 0.931 -0.069 -0.359 181 180 180 0 0
0.1571 0.1299 -0.8164 0.925 0.296 0.236 79 56 47 0 0
0.1786 0.1699 -0.9612 0.627 0.650 0.429 75 52 44 0 0
0.1962 0.1990 -0.9604 0.946 -0.325 -0.005 80 60 53 0 0
0.2026 0.2108 -1.0024 -0.283 0.896 -0.342 103 78 66 0 0
0.2267 0.2505 -0.9965 0.308 0.777 0.549 97 61 34 0 0
0.2333 0.2621 -1.0210 0.679 0.684 0.268 72 30 7 0 0
0.2328 0.2618 -1.0341 0.407 0.846 0.344 90 53 24 0 0
0.2331 0.2626 -1.0464 0.544 0.815 0.198 102 69 38 0 0
0.2333 0.2630 -1.0494 0.528 0.847 0.065 105 72 41 0 0
0.2322 0.2619 -1.0663 0.720 0.638 0.273 99 67 43 0 0
0.1657 0.1248 -0.4023 0.923 -0.079 0.376 88 74 67 0 0
0.1660 0.1254 -0.4053 0.879 -0.255 0.402 89 71 63 0 0
0.1687 0.1314 -0.4506 0.955 -0.082 -0.286 179 178 176 0 0
0.1546 0.1197 -0.8172 0.545 0.625 0.558 81 57 51 0 0
0.1554 0.1211 -0.8199 0.552 0.826 0.117 80 56 50 0 0
